ply
format ascii 1.0
element vertex 824
property float x
property float y
property float z
property float nx
property float ny
property float nz
property uchar diffuse_red
property uchar diffuse_green
property uchar diffuse_blue
property uchar class
property uchar detection
end_header
-6.3076 -1.7047 -4.6490 0.090 -0.114 0.989 218 208 209 0 0
-6.2754 -1.8699 -4.6630 0.032 0.348 0.937 218 207 209 0 0
-6.2629 -1.8843 -4.6592 0.026 0.286 0.958 218 206 208 0 0
-6.2569 -1.9002 -4.6590 0.104 0.194 0.976 219 207 209 0 0
-6.2475 -1.9153 -4.6570 0.104 0.194 0.976 219 208 210 0 0
-6.2999 -2.1232 -4.7227 -0.007 0.605 0.797 210 201 212 0 0
-6.2794 -2.1355 -4.7144 0.056 0.637 0.769 209 199 211 0 0
-6.2418 -2.1789 -4.7030 0.271 0.341 0.900 183 167 195 0 0
-5.8289 -2.2693 -4.5060 0.151 0.969 0.197 186 66 70 0 0
-5.7689 -2.2680 -4.4747 0.344 0.183 0.921 182 61 62 0 0
-5.5644 -2.3912 -4.3917 0.436 -0.370 0.820 150 58 34 0 0
-5.5535 -2.4563 -4.3982 0.720 -0.240 0.652 143 57 34 0 0
-5.5258 -2.4639 -4.3852 0.309 0.486 0.818 142 57 31 0 0
-5.5077 -2.4748 -4.3779 0.020 0.465 0.885 139 55 31 0 0
-5.0396 -2.8076 -4.1974 0.354 0.687 0.635 220 216 156 0 0
-4.9870 -2.9913 -4.2043 0.880 -0.288 0.377 227 202 102 0 0
-4.9908 -3.0105 -4.2098 0.650 0.347 0.676 224 179 80 0 0
-4.9919 -3.0284 -4.2137 0.539 0.601 0.590 199 127 54 0 0
-5.0096 -3.0719 -4.2310 0.811 0.584 0.033 139 39 24 0 0
-5.0082 -3.1419 -4.2433 0.925 -0.206 -0.320 131 43 33 0 0
-4.8693 -3.4303 -4.2249 0.433 0.814 0.387 131 27 23 0 0
-4.8825 -4.2583 -4.3857 0.970 -0.238 0.041 97 62 54 0 0
-4.8889 -4.3027 -4.3973 0.917 0.361 0.170 95 59 49 0 0
-4.7808 -4.3900 -4.3576 0.216 0.947 0.237 175 25 29 0 0
-4.7139 -4.4234 -4.3291 0.106 0.889 0.446 211 53 44 0 0
-4.6921 -4.4281 -4.3187 -0.073 0.963 0.261 218 67 56 0 0
-4.6796 -4.4392 -4.3143 -0.089 0.885 0.456 217 64 56 0 0
-4.5384 -4.7407 -4.2972 0.607 0.298 0.737 217 85 73 0 0
-4.5317 -4.7561 -4.2966 0.607 0.298 0.737 217 97 79 0 0
-4.5180 -4.7660 -4.2914 0.512 0.156 0.844 218 108 82 0 0
-4.5895 -5.2727 -4.4225 0.378 -0.264 0.887 209 53 51 0 0
-4.5936 -5.2983 -4.4294 0.290 0.233 0.928 209 55 51 0 0
-4.6089 -6.3162 -4.6266 0.853 0.140 0.503 219 210 208 0 0
-4.5981 -6.3297 -4.6235 0.576 0.701 0.420 218 207 203 0 0
-4.5273 -6.4287 -4.6052 0.766 0.310 0.563 218 207 200 0 0
-4.4882 -6.4862 -4.5957 0.121 0.756 0.643 217 207 198 0 0
-4.4307 -6.5987 -4.5868 0.270 0.171 0.948 217 206 199 0 0
-4.4251 -6.6176 -4.5874 0.487 0.383 0.785 216 206 197 0 0
-4.3659 -6.8304 -4.5964 0.311 0.528 0.790 214 203 196 0 0
-4.3645 -6.8545 -4.6001 0.491 0.226 0.842 216 205 198 0 0
-4.3697 -6.8864 -4.6087 0.495 0.173 0.851 215 204 198 0 0
-4.3756 -6.9193 -4.6179 0.545 0.838 -0.013 216 205 199 0 0
-4.3623 -6.9295 -4.6129 0.327 0.939 -0.106 216 205 200 0 0
-4.3439 -6.9338 -4.6042 0.173 0.975 -0.138 211 200 194 0 0
-4.3288 -6.9418 -4.5979 0.540 0.835 -0.102 211 198 191 0 0
-4.2012 -7.2323 -4.5858 0.231 0.062 0.971 215 205 198 0 0
-3.9954 -7.5541 -4.5390 0.639 0.452 0.623 213 202 195 0 0
-3.9875 -7.5705 -4.5380 0.801 0.326 0.503 212 201 194 0 0
-3.9758 -7.5818 -4.5340 0.863 -0.065 0.501 212 201 193 0 0
-3.9095 -7.7926 -4.5389 -0.162 0.416 0.895 211 201 192 0 0
-3.8197 -7.9422 -4.5202 0.818 -0.307 0.488 212 200 191 0 0
-3.7955 -8.0482 -4.5274 0.416 0.628 0.658 209 199 188 0 0
-6.9494 1.1035 -4.4413 0.973 0.230 -0.018 205 200 198 0 0
-6.8935 0.9898 -4.4334 -0.087 -0.068 0.994 204 198 196 0 0
-6.8814 0.7993 -4.4624 0.383 0.604 0.699 207 201 201 0 0
-6.8302 0.6850 -4.4571 0.481 0.456 0.749 211 206 207 0 0
-6.8250 0.6708 -4.4571 0.446 0.419 0.791 211 206 206 0 0
-6.8118 0.6559 -4.4531 0.400 0.465 0.790 212 207 206 0 0
-6.8166 0.6287 -4.4605 0.179 0.616 0.767 212 206 207 0 0
-6.7963 0.6133 -4.4529 0.179 0.616 0.767 211 207 206 0 0
-6.7716 0.5700 -4.4482 0.076 -0.201 0.977 209 204 204 0 0
-6.7614 0.5554 -4.4456 0.017 -0.168 0.986 211 207 207 0 0
-6.7584 0.5414 -4.4467 0.039 -0.165 0.985 212 207 206 0 0
-6.7326 0.4841 -4.4439 0.133 0.238 0.962 211 205 204 0 0
-6.7028 0.4267 -4.4392 0.373 -0.011 0.928 213 207 206 0 0
-6.7664 0.2881 -4.4976 0.890 0.333 0.311 215 209 209 0 0
-6.7357 0.2154 -4.4952 0.702 0.571 0.426 211 206 204 0 0
-6.7393 0.2011 -4.4997 0.944 -0.326 0.056 213 207 206 0 0
-6.6872 0.1711 -4.4784 0.333 0.159 0.929 213 208 205 0 0
-6.7102 -0.0032 -4.5225 0.907 0.358 -0.220 219 216 219 0 0
-6.6777 -0.0621 -4.5166 0.787 0.609 0.097 212 205 205 0 0
-6.6743 -0.0768 -4.5175 0.803 0.573 0.167 211 205 205 0 0
-6.6155 -0.1500 -4.5008 0.024 0.422 0.906 216 210 209 0 0
-6.5982 -0.1645 -4.4945 0.024 0.422 0.906 215 209 210 0 0
-6.5548 -0.3723 -4.5106 0.110 0.738 0.666 215 209 209 0 0
-6.5316 -0.5077 -4.5236 0.430 -0.075 0.900 216 210 210 0 0
-6.5300 -0.5229 -4.5256 0.430 -0.075 0.900 214 208 208 0 0
-6.5352 -0.5386 -4.5312 0.232 0.063 0.971 214 208 209 0 0
-6.5303 -0.5536 -4.5314 0.232 0.063 0.971 214 208 208 0 0
-6.5253 -0.5687 -4.5316 0.232 0.063 0.971 215 209 209 0 0
-6.5488 -0.6012 -4.5497 0.490 0.333 0.806 216 210 211 0 0
-6.5402 -0.6160 -4.5481 0.232 0.486 0.842 214 208 210 0 0
-6.5123 -0.6294 -4.5362 0.613 -0.151 0.775 214 208 210 0 0
-6.4818 -0.6579 -4.5257 0.087 0.432 0.898 213 207 208 0 0
-6.4799 -0.6733 -4.5276 0.351 0.392 0.850 213 207 207 0 0
-6.4870 -0.7988 -4.5544 0.414 -0.250 0.875 216 212 216 0 0
-6.4867 -0.8145 -4.5571 0.467 0.150 0.871 217 213 217 0 0
-6.4769 -0.8292 -4.5548 0.314 0.641 0.700 217 215 219 0 0
-6.4642 -0.8437 -4.5509 0.350 0.726 0.593 221 218 223 0 0
-6.3876 -1.0252 -4.5450 0.300 0.548 0.781 215 209 210 0 0
-6.3793 -1.0401 -4.5435 0.359 0.445 0.820 216 209 211 0 0
-6.4206 -1.1100 -4.5777 0.149 -0.116 0.982 216 208 208 0 0
-6.4152 -1.1254 -4.5777 0.206 -0.078 0.975 215 206 207 0 0
-6.4087 -1.3044 -4.6075 0.289 0.156 0.945 220 217 221 0 0
-6.3901 -1.3344 -4.6034 0.541 0.214 0.813 222 217 223 0 0
-6.3842 -1.3500 -4.6033 0.541 0.214 0.813 222 217 223 0 0
-6.3752 -1.5662 -4.6386 0.144 0.114 0.983 222 213 214 0 0
-6.3357 -1.7288 -4.6483 0.197 0.029 0.980 221 211 212 0 0
-6.3335 -1.7455 -4.6502 0.247 0.098 0.964 218 208 209 0 0
-6.3336 -1.7628 -4.6535 0.245 -0.255 0.936 217 207 208 0 0
-6.3256 -2.1306 -4.7173 -0.007 0.605 0.797 211 199 211 0 0
-6.2763 -2.1709 -4.6994 0.040 0.455 0.890 184 166 191 0 0
-5.8353 -2.2714 -4.4906 0.151 0.969 0.197 185 63 67 0 0
-5.8050 -2.2794 -4.4764 0.163 0.959 0.230 182 59 59 0 0
-5.5837 -2.3977 -4.3842 0.436 -0.348 0.830 148 57 35 0 0
-5.5773 -2.4127 -4.3837 0.425 -0.039 0.904 145 57 34 0 0
-5.5682 -2.4268 -4.3816 0.439 0.352 0.826 142 56 32 0 0
-5.1534 -2.6327 -4.2058 0.151 0.612 0.777 208 153 48 0 0
-5.0734 -2.7701 -4.1899 0.642 0.117 0.758 94 89 41 0 0
-4.9741 -2.8983 -4.1625 0.930 0.274 0.245 224 218 156 0 0
-5.0049 -3.0162 -4.2001 0.484 0.379 0.789 223 200 97 0 0
-5.0014 -3.0321 -4.2013 0.539 0.601 0.590 228 186 84 0 0
-5.0080 -3.0703 -4.2117 0.737 0.675 -0.039 154 56 27 0 0
-5.0141 -3.0908 -4.2187 0.998 -0.036 -0.056 156 42 31 0 0
-5.0451 -3.2125 -4.2571 0.994 -0.017 -0.109 93 29 19 0 0
-5.0731 -3.2805 -4.2841 0.970 0.208 -0.125 98 28 22 0 0
-5.0564 -3.2903 -4.2773 0.753 0.402 0.522 103 28 22 0 0
-5.0507 -3.3056 -4.2772 0.587 0.271 0.763 108 30 25 0 0
-4.8758 -3.4325 -4.2105 0.625 0.715 0.315 126 25 23 0 0
-4.8861 -4.2986 -4.3758 0.993 0.110 0.036 84 44 42 0 0
-4.8816 -4.3358 -4.3804 0.984 -0.124 0.125 81 38 37 0 0
-4.7867 -4.3916 -4.3418 0.285 0.937 0.201 187 31 33 0 0
-4.7208 -4.4460 -4.3179 0.220 0.558 0.800 218 65 55 0 0
-4.5499 -4.7468 -4.2853 0.607 0.298 0.737 221 114 85 0 0
-4.5396 -4.7594 -4.2824 0.607 0.372 0.702 219 114 84 0 0
-4.5325 -4.7744 -4.2815 0.629 0.288 0.722 217 112 83 0 0
-4.5306 -4.7936 -4.2841 0.335 0.331 0.882 212 102 75 0 0
-4.7993 -5.9645 -4.6390 0.168 0.074 0.983 217 206 199 0 0
-4.6975 -6.2539 -4.6400 0.166 0.473 0.865 216 205 199 0 0
-4.6058 -6.3326 -4.6072 0.687 0.682 0.251 218 208 204 0 0
-4.4599 -6.5752 -4.5768 0.501 0.161 0.850 217 207 198 0 0
-4.4598 -6.6002 -4.5814 0.828 -0.191 0.527 217 207 198 0 0
-4.4476 -6.6118 -4.5773 0.434 0.092 0.896 216 206 199 0 0
-4.3838 -6.9228 -4.6018 0.312 0.942 0.125 216 204 200 0 0
-4.2707 -7.1534 -4.5862 0.250 0.036 0.968 216 205 199 0 0
-4.2597 -7.1661 -4.5828 0.167 0.095 0.981 216 207 200 0 0
-4.0925 -7.4603 -4.5510 0.494 -0.063 0.867 214 204 196 0 0
-4.0896 -7.4836 -4.5538 0.476 -0.109 0.872 214 203 196 0 0
-3.8359 -7.9297 -4.5055 0.726 -0.345 0.594 211 200 190 0 0
-3.8314 -7.9514 -4.5071 0.803 -0.279 0.526 210 199 187 0 0
-3.8346 -7.9845 -4.5149 0.766 -0.310 0.563 209 197 187 0 0
-3.7177 -8.1782 -4.4904 -0.001 0.301 0.954 211 198 189 0 0
-6.9563 1.0615 -4.4346 0.788 -0.318 0.527 207 199 198 0 0
-6.9669 1.0495 -4.4422 0.930 -0.351 0.109 208 200 198 0 0
-6.9094 0.8130 -4.4561 0.491 0.537 0.687 211 206 205 0 0
-6.8977 0.7981 -4.4529 0.491 0.537 0.687 208 202 202 0 0
-6.8449 0.6836 -4.4468 0.481 0.456 0.749 211 207 208 0 0
-6.8412 0.6695 -4.4475 0.299 0.467 0.832 212 205 206 0 0
-6.8192 0.6263 -4.4441 0.503 0.084 0.860 212 206 207 0 0
-6.7237 0.4253 -4.4320 0.507 -0.019 0.862 211 206 204 0 0
-6.7849 0.4004 -4.4681 0.123 0.136 0.983 213 207 206 0 0
-6.7875 0.3863 -4.4719 0.142 -0.000 0.990 213 207 206 0 0
-6.7461 0.2134 -4.4825 0.512 0.687 0.516 213 207 206 0 0
-6.7490 0.1991 -4.4866 0.820 0.129 0.558 212 207 205 0 0
-6.6993 0.1113 -4.4772 0.268 -0.037 0.963 213 208 206 0 0
-6.7716 0.0390 -4.5276 0.257 0.442 0.859 216 212 212 0 0
-6.7649 0.0243 -4.5269 0.345 0.642 0.684 218 214 218 0 0
-6.7373 -0.0053 -4.5182 0.817 0.485 0.312 219 217 219 0 0
-6.7216 -0.0201 -4.5128 0.731 0.589 0.345 219 216 217 0 0
-6.7116 -0.0348 -4.5104 0.751 0.616 0.237 219 215 217 0 0
-6.7029 -0.0496 -4.5086 0.636 0.721 0.275 216 211 211 0 0
-6.6884 -0.0642 -4.5038 0.738 0.597 0.314 212 207 204 0 0
-6.6773 -0.0789 -4.5009 0.728 0.659 0.188 210 205 204 0 0
-6.6696 -0.1085 -4.5023 0.125 0.105 0.987 210 205 202 0 0
-6.6633 -0.1232 -4.5018 0.012 0.117 0.993 211 206 203 0 0
-6.6384 -0.2419 -4.5108 0.228 -0.008 0.974 214 208 208 0 0
-6.6270 -0.3017 -4.5160 0.194 -0.099 0.976 218 213 214 0 0
-6.5977 -0.3610 -4.5118 0.119 0.550 0.826 218 212 212 0 0
-6.5630 -0.4199 -4.5048 0.522 0.079 0.849 214 208 208 0 0
-6.5502 -0.5413 -4.5206 0.302 -0.271 0.914 215 209 209 0 0
-6.5475 -0.5565 -4.5220 0.352 0.009 0.936 214 208 208 0 0
-6.5822 -0.5743 -4.5431 0.108 -0.217 0.970 214 208 208 0 0
-6.5630 -0.5885 -4.5358 0.599 0.157 0.785 214 208 208 0 0
-6.5584 -0.6036 -4.5363 0.599 0.157 0.785 214 208 208 0 0
-6.5446 -0.6181 -4.5318 0.267 -0.343 0.901 213 207 207 0 0
-6.5245 -0.6475 -4.5269 0.107 0.507 0.855 213 207 208 0 0
-6.5073 -0.6616 -4.5207 0.107 0.507 0.855 213 207 207 0 0
-6.4982 -0.6764 -4.5187 0.269 0.530 0.804 213 207 207 0 0
-6.5492 -0.7433 -4.5572 0.014 0.097 0.995 216 210 210 0 0
-6.5584 -0.7599 -4.5650 0.118 -0.151 0.981 216 210 212 0 0
-6.5520 -0.7751 -4.5644 0.206 -0.253 0.945 217 212 213 0 0
-6.5046 -0.7863 -4.5422 0.512 -0.293 0.807 217 213 215 0 0
-6.5071 -0.8023 -4.5464 0.512 -0.293 0.807 218 213 217 0 0
-6.5070 -0.8181 -4.5493 0.356 0.087 0.930 219 214 218 0 0
-6.4861 -0.8317 -4.5410 0.604 0.670 0.431 221 217 219 0 0
-6.4808 -0.8470 -4.5411 0.315 0.566 0.762 222 217 221 0 0
-6.4569 -0.8602 -4.5313 0.274 0.740 0.614 221 216 221 0 0
-6.4583 -0.9555 -4.5495 0.159 -0.003 0.987 219 214 218 0 0
-6.4474 -1.0826 -4.5672 0.068 -0.181 0.981 217 210 210 0 0
-6.4435 -1.0983 -4.5681 0.013 -0.108 0.994 217 209 208 0 0
-6.4304 -1.3091 -4.6001 0.289 0.156 0.945 221 216 219 0 0
-6.4238 -1.3246 -4.5996 0.289 0.156 0.945 223 217 220 0 0
-6.4274 -1.4589 -4.6261 0.410 -0.297 0.862 219 214 220 0 0
-6.4224 -1.4748 -4.6265 0.378 -0.073 0.923 222 217 223 0 0
-6.4251 -1.4921 -4.6310 0.316 -0.028 0.948 223 218 223 0 0
-6.4212 -1.5083 -4.6320 0.330 -0.013 0.944 221 215 219 0 0
-6.4158 -1.5242 -4.6322 0.239 -0.006 0.971 220 213 215 0 0
-6.4145 -1.5409 -4.6346 0.161 0.066 0.985 221 212 214 0 0
-6.4086 -1.5738 -4.6376 0.063 0.121 0.991 223 215 215 0 0
-6.3605 -1.7006 -4.6362 0.080 0.064 0.995 221 211 212 0 0
-6.3610 -1.7179 -4.6396 0.276 -0.203 0.939 221 211 212 0 0
-6.3651 -1.7360 -4.6450 0.283 -0.041 0.958 222 212 213 0 0
-6.3590 -1.7519 -4.6448 0.167 0.029 0.985 219 209 210 0 0
-6.3714 -1.7720 -4.6548 0.292 -0.404 0.867 217 207 209 0 0
-5.8574 -2.2610 -4.4809 0.280 0.829 0.485 187 64 69 0 0
-5.8259 -2.2860 -4.4693 0.196 0.902 0.385 176 52 50 0 0
-5.5918 -2.3832 -4.3670 0.580 -0.351 0.735 156 54 34 0 0
-5.5798 -2.4307 -4.3696 0.523 -0.006 0.852 144 60 35 0 0
-5.1671 -2.6378 -4.1958 0.202 0.445 0.872 219 184 60 0 0
-5.0996 -2.7635 -4.1843 0.502 0.482 0.718 121 103 41 0 0
-5.0189 -3.0044 -4.1871 0.199 0.059 0.978 221 211 125 0 0
-5.0221 -3.0233 -4.1922 0.086 0.364 0.927 206 183 79 0 0
-5.0148 -3.0375 -4.1911 0.534 0.322 0.782 216 186 72 0 0
-5.0040 -3.0675 -4.1910 0.685 0.728 0.028 180 95 30 0 0
-5.0130 -3.0894 -4.1997 0.998 -0.036 -0.056 160 49 28 0 0
-5.0126 -3.1245 -4.2059 0.990 -0.098 -0.099 154 53 30 0 0
-5.0734 -3.2796 -4.2656 0.936 0.347 0.055 135 32 28 0 0
-5.0673 -3.2947 -4.2653 0.929 0.370 0.034 144 30 30 0 0
-5.0605 -3.3094 -4.2645 0.729 0.411 0.547 146 28 30 0 0
-4.8708 -3.4286 -4.1890 0.619 0.403 0.674 139 27 31 0 0
-4.8792 -3.4512 -4.1974 0.840 0.501 0.209 140 38 40 0 0
-4.8927 -3.5133 -4.2158 0.915 0.227 -0.334 131 35 39 0 0
-4.8890 -3.5297 -4.2169 0.915 0.227 -0.334 131 30 25 0 0
-4.8896 -4.2987 -4.3585 0.939 0.322 -0.119 84 39 40 0 0
-4.8866 -4.3370 -4.3640 0.995 0.090 -0.034 76 30 32 0 0
-4.7850 -4.3881 -4.3212 0.532 0.777 0.336 194 41 38 0 0
-4.7316 -4.4311 -4.3017 0.390 0.903 0.182 217 65 54 0 0
-4.7354 -4.4540 -4.3079 0.640 0.608 0.470 217 61 53 0 0
-4.5618 -4.7325 -4.2699 0.553 0.736 0.390 217 119 86 0 0
-4.5614 -4.7528 -4.2734 0.607 0.298 0.737 216 114 83 0 0
-4.6418 -5.4221 -4.4377 0.414 -0.374 0.830 224 206 205 0 0
-4.7211 -6.1260 -4.6077 0.102 0.444 0.890 218 208 206 0 0
-4.7123 -6.1416 -4.6060 0.807 -0.265 0.527 219 209 208 0 0
-4.7114 -6.2384 -4.6233 0.803 -0.023 0.596 217 207 205 0 0
-4.7098 -6.2614 -4.6267 0.450 0.390 0.803 218 208 205 0 0
-4.6503 -6.3489 -4.6123 0.130 0.360 0.924 219 209 203 0 0
-4.5973 -6.3434 -4.5840 0.695 0.686 0.216 218 208 200 0 0
-4.5997 -6.3706 -4.5903 0.112 0.856 0.505 218 207 200 0 0
-4.5812 -6.3761 -4.5818 -0.067 0.883 0.465 217 207 198 0 0
-4.5508 -6.5432 -4.5969 0.242 0.587 0.773 217 207 198 0 0
-4.5224 -6.6639 -4.6045 0.252 -0.102 0.962 215 205 196 0 0
-4.3784 -6.9363 -4.5806 0.201 0.741 0.640 212 201 196 0 0
-4.2921 -7.1734 -4.5799 0.250 0.036 0.968 218 208 203 0 0
-4.0972 -7.4865 -4.5373 0.811 0.192 0.553 210 199 191 0 0
-4.0926 -7.5076 -4.5389 0.638 0.037 0.769 209 199 191 0 0
-4.0839 -7.5231 -4.5372 0.836 0.054 0.546 209 199 190 0 0
-4.0807 -7.5461 -4.5398 0.836 0.054 0.546 210 200 191 0 0
-4.0753 -7.5663 -4.5408 0.808 0.053 0.587 211 200 194 0 0
-3.9343 -7.8404 -4.5188 0.788 -0.211 0.579 211 201 192 0 0
-3.9339 -7.8962 -4.5288 0.576 -0.231 0.784 212 202 192 0 0
-3.8566 -7.9805 -4.5046 0.767 -0.364 0.528 207 195 184 0 0
-3.8673 -8.0251 -4.5183 0.724 -0.321 0.611 208 196 186 0 0
-3.8520 -8.0307 -4.5115 0.189 0.182 0.965 209 196 187 0 0
-3.8364 -8.0931 -4.5149 0.711 0.530 0.462 210 197 188 0 0
-6.9651 1.0598 -4.4214 0.782 -0.335 0.526 209 204 201 0 0
-6.9592 1.0456 -4.4210 0.850 -0.190 0.492 209 204 201 0 0
-6.9444 1.0304 -4.4162 0.496 0.009 0.868 208 200 200 0 0
-6.9413 0.8544 -4.4468 0.823 0.506 0.260 212 207 206 0 0
-6.9227 0.8116 -4.4451 0.600 0.463 0.652 211 207 207 0 0
-6.9136 0.7970 -4.4431 0.489 0.557 0.671 211 206 206 0 0
-6.8992 0.7682 -4.4410 0.532 0.440 0.724 210 206 205 0 0
-6.8597 0.6822 -4.4365 0.481 0.456 0.749 212 207 208 0 0
-6.8603 0.6684 -4.4393 0.411 0.660 0.629 213 207 208 0 0
-6.8064 0.5256 -4.4379 0.196 0.063 0.978 211 205 204 0 0
-6.8107 0.4979 -4.4451 0.379 0.532 0.758 211 206 204 0 0
-6.7445 0.4240 -4.4248 0.148 0.090 0.985 210 203 200 0 0
-6.8125 0.3993 -4.4640 0.194 0.045 0.980 211 206 204 0 0
-6.7870 0.2122 -4.4852 0.381 0.052 0.923 211 206 203 0 0
-6.7081 0.1092 -4.4637 0.128 0.079 0.989 213 207 207 0 0
-6.7123 0.0511 -4.4764 0.492 -0.111 0.864 214 209 208 0 0
-6.7984 0.0370 -4.5230 0.212 0.455 0.865 215 209 209 0 0
-6.7844 0.0221 -4.5186 0.212 0.455 0.865 214 209 210 0 0
-6.7758 0.0073 -4.5169 0.286 0.038 0.957 214 209 207 0 0
-6.7520 -0.0223 -4.5101 0.261 0.190 0.947 214 208 207 0 0
-6.7441 -0.0371 -4.5088 0.105 0.334 0.937 214 210 209 0 0
-6.7262 -0.0666 -4.5050 0.169 0.392 0.905 212 206 203 0 0
-6.7130 -0.0813 -4.5010 0.199 0.424 0.883 211 206 203 0 0
-6.7011 -0.1109 -4.5003 0.046 0.062 0.997 211 206 203 0 0
-6.6779 -0.1552 -4.4965 0.040 0.437 0.899 213 208 205 0 0
-6.6534 -0.1994 -4.4921 0.337 0.338 0.879 216 210 210 0 0
-6.6521 -0.2443 -4.4996 0.392 -0.253 0.885 218 212 214 0 0
-6.6499 -0.2593 -4.5012 0.400 -0.225 0.888 218 214 217 0 0
-6.6578 -0.2896 -4.5108 0.592 -0.174 0.787 219 215 218 0 0
-6.6353 -0.3342 -4.5075 0.320 -0.469 0.824 218 212 212 0 0
-6.6422 -0.3496 -4.5138 0.209 0.141 0.968 216 210 210 0 0
-6.5815 -0.4075 -4.4934 0.429 0.211 0.878 214 209 208 0 0
-6.5778 -0.4225 -4.4942 0.465 -0.031 0.885 215 209 209 0 0
-6.6024 -0.4390 -4.5098 0.199 0.085 0.976 214 208 208 0 0
-6.5966 -0.4540 -4.5095 0.248 0.226 0.942 214 208 208 0 0
-6.5856 -0.4840 -4.5094 0.322 -0.030 0.946 212 206 207 0 0
-6.5833 -0.4991 -4.5110 0.365 -0.072 0.928 214 208 208 0 0
-6.5968 -0.6081 -4.5378 -0.005 0.222 0.975 214 208 208 0 0
-6.5771 -0.6222 -4.5303 0.328 0.092 0.940 214 208 208 0 0
-6.5579 -0.6363 -4.5230 0.079 0.424 0.902 214 208 208 0 0
-6.5496 -0.6512 -4.5216 0.107 0.507 0.855 214 208 209 0 0
-6.5604 -0.6676 -4.5300 0.300 0.031 0.953 212 206 206 0 0
-6.5564 -0.6829 -4.5308 0.300 0.031 0.953 214 208 208 0 0
-6.5842 -0.7481 -4.5569 0.054 0.084 0.995 218 214 217 0 0
-6.5757 -0.7789 -4.5582 0.467 -0.409 0.784 219 214 218 0 0
-6.5167 -0.7890 -4.5299 0.515 -0.148 0.844 218 214 216 0 0
-6.5233 -0.8054 -4.5362 0.333 -0.257 0.907 218 213 217 0 0
-6.5194 -0.8209 -4.5371 0.321 -0.005 0.947 218 215 217 0 0
-6.5007 -0.8664 -4.5358 0.362 -0.132 0.923 218 214 216 0 0
-6.4919 -1.0900 -4.5722 -0.052 -0.092 0.994 215 208 207 0 0
-6.4463 -1.4971 -4.6232 0.266 -0.166 0.950 221 212 215 0 0
-6.4411 -1.5131 -4.6235 0.296 -0.146 0.944 220 210 210 0 0
-6.4028 -1.7105 -4.6399 0.090 0.361 0.928 222 212 213 0 0
-6.3861 -1.7414 -4.6371 0.274 -0.307 0.911 224 214 215 0 0
-6.3970 -1.7785 -4.6494 0.292 -0.422 0.858 218 208 209 0 0
-6.4007 -1.8666 -4.6674 0.040 0.065 0.997 221 211 212 0 0
-6.3513 -2.1565 -4.6951 0.068 0.667 0.742 188 172 192 0 0
-6.3422 -2.1720 -4.6932 0.021 0.523 0.852 175 154 183 0 0
-6.0536 -2.2325 -4.5568 0.323 0.443 0.837 173 89 107 0 0
-5.8805 -2.2509 -4.4717 0.302 0.837 0.457 190 67 72 0 0
-5.8650 -2.2809 -4.4693 0.243 0.946 0.215 182 58 55 0 0
-5.6229 -2.3764 -4.3630 0.466 0.153 0.871 162 48 35 0 0
-5.6110 -2.4068 -4.3625 0.551 0.070 0.832 152 62 41 0 0
-5.1819 -2.6263 -4.1833 0.169 0.967 0.193 220 184 58 0 0
-5.1851 -2.6445 -4.1882 0.202 0.445 0.872 221 190 58 0 0
-5.1211 -2.7548 -4.1757 0.513 0.540 0.667 157 124 46 0 0
-5.1093 -2.7670 -4.1719 0.632 0.548 0.548 145 119 48 0 0
-5.0911 -2.7765 -4.1643 0.954 -0.017 0.298 120 109 60 0 0
-5.0705 -2.8020 -4.1585 0.900 0.421 -0.117 158 158 128 0 0
-5.1373 -2.8998 -4.2105 -0.384 0.402 0.832 255 255 254 0 0
-5.0304 -3.0439 -4.1822 0.306 0.433 0.848 185 149 50 0 0
-4.9951 -3.0625 -4.1675 0.119 0.747 0.655 204 142 40 0 0
-5.0014 -3.0830 -4.1745 0.659 0.492 0.569 178 78 32 0 0
-4.9973 -3.0986 -4.1752 0.882 0.312 0.354 173 65 30 0 0
-4.9828 -3.1093 -4.1698 0.881 0.187 0.434 207 128 55 0 0
-5.0692 -3.2764 -4.2444 0.951 0.221 -0.214 161 30 30 0 0
-4.8812 -3.4329 -4.1769 0.619 0.403 0.674 154 31 35 0 0
-4.8912 -3.5479 -4.2031 0.895 0.141 -0.423 136 28 23 0 0
-5.0337 -3.7787 -4.3180 0.722 0.546 0.425 144 32 30 0 0
-5.0209 -3.7904 -4.3136 0.713 0.601 0.363 146 32 31 0 0
-5.0245 -4.2851 -4.4058 -0.077 -0.310 0.948 173 49 56 0 0
-4.8848 -4.2932 -4.3358 0.961 0.094 0.261 115 47 60 0 0
-4.8845 -4.3131 -4.3393 0.987 0.131 0.095 109 42 53 0 0
-4.8781 -4.3693 -4.3464 0.950 0.264 0.164 142 31 30 0 0
-4.8592 -4.3765 -4.3380 0.665 0.623 0.413 158 29 31 0 0
-4.8205 -4.3902 -4.3207 0.290 0.922 0.256 188 44 40 0 0
-4.7859 -4.3863 -4.3023 0.753 0.513 0.413 196 48 41 0 0
-4.7793 -4.4018 -4.3018 0.818 0.300 0.492 206 55 48 0 0
-4.7616 -4.4297 -4.2978 0.721 0.528 0.449 214 62 53 0 0
-4.5689 -4.7558 -4.2589 0.854 0.357 0.379 216 112 83 0 0
-4.5628 -4.7717 -4.2587 0.856 0.187 0.483 215 113 81 0 0
-4.6714 -5.4444 -4.4370 0.377 -0.396 0.837 223 207 202 0 0
-4.9342 -5.8894 -4.6525 0.083 0.215 0.973 221 208 200 0 0
-4.8446 -6.0468 -4.6355 0.917 -0.135 0.376 220 209 205 0 0
-4.7331 -6.2063 -4.6077 0.762 -0.145 0.631 221 211 210 0 0
-4.7257 -6.2234 -4.6070 0.806 0.108 0.583 221 210 209 0 0
-4.7344 -6.2567 -4.6176 0.528 0.341 0.778 220 209 208 0 0
-4.7317 -6.2786 -4.6201 0.497 0.251 0.831 219 209 206 0 0
-4.7044 -6.3003 -4.6102 0.244 0.342 0.908 219 210 203 0 0
-4.6941 -6.3146 -4.6075 0.244 0.342 0.908 218 208 200 0 0
-4.6749 -6.3444 -4.6031 0.407 0.403 0.820 218 208 199 0 0
-4.6675 -6.3615 -4.6025 0.275 0.395 0.876 218 207 198 0 0
-4.6343 -6.3769 -4.5884 0.610 0.410 0.678 216 206 196 0 0
-4.5518 -6.6908 -4.6035 0.188 0.120 0.975 215 205 195 0 0
-4.4068 -6.9637 -4.5792 0.177 0.173 0.969 214 205 200 0 0
-4.3540 -7.0578 -4.5695 0.338 -0.081 0.938 216 206 202 0 0
-4.3514 -7.0809 -4.5723 0.396 -0.097 0.913 216 207 203 0 0
-4.3352 -7.1403 -4.5749 0.078 0.564 0.822 214 205 199 0 0
-4.3255 -7.1549 -4.5726 0.196 0.209 0.958 216 206 201 0 0
-4.3205 -7.1753 -4.5738 0.348 -0.056 0.936 217 207 203 0 0
-4.3136 -7.1934 -4.5736 0.250 0.036 0.968 217 209 203 0 0
-4.0972 -7.5885 -4.5351 0.956 -0.170 0.239 211 201 193 0 0
-4.1072 -7.6573 -4.5528 0.980 -0.191 0.058 212 202 193 0 0
-4.0997 -7.6747 -4.5521 0.919 0.260 0.298 213 203 195 0 0
-4.0306 -7.6349 -4.5096 0.560 -0.005 0.828 213 203 194 0 0
-4.0508 -7.6905 -4.5301 0.665 -0.205 0.718 213 203 194 0 0
-4.0531 -7.7214 -4.5368 0.665 -0.205 0.718 213 203 194 0 0
-3.9791 -7.8970 -4.5311 0.632 -0.024 0.774 211 199 190 0 0
-3.8843 -7.9851 -4.4988 0.394 -0.170 0.903 208 196 185 0 0
-3.8682 -7.9895 -4.4913 0.540 -0.336 0.772 209 196 187 0 0
-3.8753 -8.0285 -4.5021 0.557 -0.363 0.747 209 198 188 0 0
-3.6279 -8.3076 -4.4266 -0.103 0.421 0.901 211 198 189 0 0
-3.4648 -8.7786 -4.4293 0.511 -0.426 0.747 210 197 187 0 0
-3.4917 -8.8570 -4.4574 0.491 -0.349 0.798 209 197 186 0 0
-6.9449 0.8521 -4.4309 0.823 0.506 0.260 212 206 206 0 0
-6.9485 0.8251 -4.4376 0.491 0.537 0.687 213 207 207 0 0
-6.9363 0.8102 -4.4341 0.584 0.514 0.628 211 207 206 0 0
-6.9271 0.7956 -4.4321 0.489 0.557 0.671 211 206 206 0 0
-6.9027 0.7658 -4.4251 0.610 0.072 0.789 212 206 205 0 0
-6.8957 0.7102 -4.4316 0.526 0.216 0.823 212 208 208 0 0
-6.9002 0.6967 -4.4363 0.454 -0.113 0.884 213 209 209 0 0
-6.8470 0.6094 -4.4252 0.537 -0.071 0.841 213 207 207 0 0
-6.8325 0.5248 -4.4331 0.178 0.014 0.984 207 202 200 0 0
-6.8404 0.5113 -4.4396 0.213 0.452 0.866 211 206 203 0 0
-6.8397 0.4972 -4.4418 0.049 0.252 0.966 212 207 205 0 0
-6.8229 0.3974 -4.4514 0.319 0.392 0.863 210 203 201 0 0
-6.7579 0.1223 -4.4682 0.284 -0.112 0.952 214 208 206 0 0
-6.8142 0.0349 -4.5127 0.257 0.442 0.859 211 206 205 0 0
-6.8029 0.0200 -4.5097 0.129 0.491 0.862 210 205 202 0 0
-6.7862 0.0052 -4.5039 0.233 0.226 0.946 209 204 200 0 0
-6.7845 -0.0096 -4.5057 0.143 0.143 0.979 211 205 201 0 0
-6.7624 -0.0541 -4.5025 0.094 0.295 0.951 212 207 205 0 0
-6.7505 -0.0689 -4.4992 0.113 0.262 0.958 212 207 204 0 0
-6.7391 -0.0837 -4.4960 0.158 0.218 0.963 211 206 203 0 0
-6.7608 -0.0988 -4.5098 0.050 0.092 0.995 210 205 202 0 0
-6.7567 -0.1137 -4.5104 0.086 0.096 0.992 211 206 203 0 0
-6.6719 -0.2019 -4.4833 0.737 0.502 0.452 216 210 210 0 0
-6.6743 -0.2319 -4.4900 0.457 -0.180 0.871 217 211 211 0 0
-6.6795 -0.3075 -4.5063 0.445 -0.100 0.890 219 214 218 0 0
-6.6723 -0.3375 -4.5081 0.263 0.188 0.946 217 211 211 0 0
-6.6202 -0.4113 -4.4950 0.101 0.158 0.982 213 208 207 0 0
-6.6077 -0.4259 -4.4913 0.750 -0.181 0.636 214 208 208 0 0
-6.6096 -0.4718 -4.5006 0.032 0.154 0.988 211 205 205 0 0
-6.6050 -0.4869 -4.5010 0.058 -0.093 0.994 212 206 206 0 0
-6.6025 -0.6258 -4.5250 0.231 0.263 0.937 214 208 208 0 0
-6.5800 -0.6397 -4.5160 0.037 0.383 0.923 214 208 208 0 0
-6.5951 -0.6565 -4.5267 0.266 0.717 0.644 212 206 206 0 0
-6.5825 -0.6711 -4.5230 0.300 0.031 0.953 213 207 208 0 0
-6.5818 -0.6867 -4.5255 0.278 -0.115 0.954 214 208 211 0 0
-6.6099 -0.7679 -4.5545 0.443 0.392 0.806 219 217 222 0 0
-6.5440 -0.8091 -4.5284 0.382 0.160 0.910 218 214 216 0 0
-6.4999 -1.3730 -4.6084 0.176 0.119 0.977 223 216 217 0 0
-6.4970 -1.3893 -4.6098 0.216 -0.025 0.976 223 217 218 0 0
-6.4935 -1.4055 -4.6110 0.216 -0.025 0.976 222 216 217 0 0
-6.4946 -1.4225 -4.6147 0.226 -0.093 0.970 220 214 216 0 0
-6.4098 -1.7474 -4.6305 0.287 -0.317 0.904 220 210 211 0 0
-6.4156 -1.7660 -4.6368 0.222 -0.147 0.964 218 208 209 0 0
-6.4274 -1.8912 -4.6655 0.017 0.185 0.983 218 208 209 0 0
-6.4043 -2.0811 -4.6882 0.420 -0.240 0.875 207 191 204 0 0
-6.4295 -2.1238 -4.7089 0.612 0.129 0.780 213 200 213 0 0
-6.4133 -2.1376 -4.7031 0.304 0.537 0.787 206 193 210 0 0
-6.3913 -2.1497 -4.6941 0.205 0.727 0.655 194 179 200 0 0
-6.3712 -2.1623 -4.6862 0.183 0.731 0.657 183 167 188 0 0
-6.3582 -2.1768 -4.6822 0.152 0.383 0.911 173 148 181 0 0
-5.9517 -2.3078 -4.4992 0.296 0.171 0.940 178 53 48 0 0
-5.9553 -2.3265 -4.5044 0.166 0.472 0.866 173 49 43 0 0
-5.2037 -2.6514 -4.1810 0.276 0.409 0.870 222 189 55 0 0
-5.1320 -2.7588 -4.1640 0.513 0.540 0.667 174 139 48 0 0
-5.1075 -2.7657 -4.1528 0.734 0.673 0.097 164 133 50 0 0
-5.0915 -2.7761 -4.1466 0.779 0.626 -0.027 129 111 55 0 0
-5.0155 -3.0712 -4.1615 0.027 0.746 0.666 216 168 46 0 0
-5.0063 -3.0845 -4.1592 0.416 0.558 0.718 194 118 27 0 0
-4.9882 -3.0934 -4.1516 0.314 0.568 0.761 213 146 44 0 0
-4.9835 -3.1088 -4.1520 0.914 0.329 0.238 230 191 64 0 0
-5.0670 -3.2562 -4.2212 0.937 0.304 -0.173 165 37 34 0 0
-5.0550 -3.2684 -4.2174 0.853 0.325 -0.409 169 30 32 0 0
-4.8974 -3.4403 -4.1683 0.718 0.493 0.491 161 35 40 0 0
-4.8864 -3.4525 -4.1650 0.840 0.501 0.209 165 49 55 0 0
-4.8780 -3.4662 -4.1632 0.617 0.690 0.378 166 79 80 0 0
-4.9107 -3.5758 -4.1997 0.907 -0.209 -0.366 142 31 28 0 0
-5.0283 -3.7931 -4.2990 0.758 0.514 0.402 136 26 24 0 0
-4.9809 -4.1345 -4.3368 0.185 0.882 -0.434 184 58 61 0 0
-4.8964 -4.2988 -4.3236 0.932 -0.181 0.315 164 50 60 0 0
-4.8968 -4.3191 -4.3276 0.904 -0.127 0.408 166 56 73 0 0
-4.9005 -4.3418 -4.3336 0.872 -0.018 0.490 172 62 81 0 0
-4.8893 -4.3544 -4.3301 0.759 0.252 0.601 158 41 46 0 0
-4.8303 -4.4554 -4.3184 0.602 -0.277 0.749 209 60 52 0 0
-4.6968 -4.6860 -4.2924 0.452 0.872 -0.187 213 61 55 0 0
-4.6617 -4.7007 -4.2772 0.402 0.906 -0.135 210 72 60 0 0
-4.6341 -4.8457 -4.2895 0.258 0.577 0.775 214 109 78 0 0
-4.6222 -4.8572 -4.2855 0.270 0.435 0.859 214 107 79 0 0
-4.6649 -5.3014 -4.3879 0.416 -0.509 0.754 207 64 59 0 0
-4.6934 -5.4600 -4.4311 0.367 -0.396 0.842 223 209 204 0 0
-4.9772 -5.9005 -4.6555 0.040 0.360 0.932 220 207 198 0 0
-4.9290 -5.9285 -4.6361 0.146 0.380 0.913 221 208 200 0 0
-4.8702 -5.9941 -4.6181 0.257 0.302 0.918 219 206 198 0 0
-4.8519 -6.0493 -4.6187 0.878 -0.077 0.472 220 209 205 0 0
-4.8513 -6.1462 -4.6361 0.974 0.082 0.209 217 207 205 0 0
-4.7362 -6.2046 -4.5881 0.875 -0.188 0.445 221 210 208 0 0
-4.7347 -6.3014 -4.6049 0.303 0.231 0.925 218 208 200 0 0
-4.7226 -6.3139 -4.6010 0.239 0.343 0.908 217 207 199 0 0
-4.7022 -6.3426 -4.5958 0.312 0.226 0.923 218 208 198 0 0
-4.6891 -6.3540 -4.5912 0.254 0.425 0.869 218 208 199 0 0
-4.4843 -6.8660 -4.5800 0.265 0.766 0.586 215 203 197 0 0
-4.3399 -7.1927 -4.5658 0.433 0.071 0.899 217 207 203 0 0
-4.3353 -7.2136 -4.5672 0.250 0.036 0.968 217 207 201 0 0
-4.3258 -7.2285 -4.5651 0.267 0.084 0.960 216 205 201 0 0
-4.3194 -7.2472 -4.5653 0.267 0.084 0.960 215 204 199 0 0
-4.1460 -7.5099 -4.5247 0.259 0.478 0.840 211 201 192 0 0
-4.1070 -7.5123 -4.5053 0.831 0.206 0.517 213 202 196 0 0
-4.1119 -7.5736 -4.5190 0.766 -0.234 0.599 212 201 193 0 0
-4.1017 -7.5872 -4.5162 0.943 -0.207 0.261 212 202 194 0 0
-4.1157 -7.6337 -4.5318 0.822 -0.140 0.553 213 203 194 0 0
-4.1113 -7.6553 -4.5335 0.969 -0.193 0.154 215 205 196 0 0
-4.0665 -7.7045 -4.5196 0.665 -0.205 0.718 215 205 196 0 0
-4.0792 -7.7500 -4.5343 0.826 0.160 0.541 213 203 194 0 0
-3.9797 -7.8898 -4.5091 0.939 -0.259 0.224 209 197 187 0 0
-3.9066 -8.0098 -4.4937 0.394 -0.170 0.903 211 198 189 0 0
-3.8908 -8.0147 -4.4865 0.540 -0.336 0.772 211 198 189 0 0
-3.8968 -8.0524 -4.4965 0.616 -0.296 0.730 211 198 189 0 0
-3.8962 -8.1088 -4.5064 -0.144 0.565 0.813 214 203 193 0 0
-3.6440 -8.3244 -4.4172 0.030 0.532 0.846 212 200 191 0 0
-3.6310 -8.3326 -4.4121 0.007 0.612 0.791 211 199 190 0 0
-7.0081 0.9514 -4.4268 0.350 0.353 0.867 213 207 207 0 0
-6.9508 0.8772 -4.4112 0.742 0.088 0.665 207 202 200 0 0
-6.9466 0.8495 -4.4141 0.734 0.213 0.644 210 204 204 0 0
-6.9153 0.7368 -4.4186 0.646 -0.216 0.732 208 203 202 0 0
-6.9182 0.7233 -4.4225 0.703 0.127 0.699 203 198 196 0 0
-6.9114 0.7089 -4.4216 0.707 0.059 0.705 207 202 200 0 0
-6.8863 0.6653 -4.4168 0.542 0.700 0.465 209 203 203 0 0
-6.8529 0.3822 -4.4510 0.326 0.000 0.945 210 203 200 0 0
-6.8498 0.3678 -4.4520 0.326 0.000 0.945 210 205 202 0 0
-6.8364 0.3529 -4.4479 0.306 0.058 0.950 211 205 204 0 0
-6.8322 0.3384 -4.4484 0.314 0.051 0.948 212 207 204 0 0
-6.8280 0.3239 -4.4489 0.280 0.302 0.911 213 208 205 0 0
-6.8227 0.3094 -4.4488 0.361 0.154 0.920 212 206 204 0 0
-6.7921 0.1352 -4.4647 0.464 -0.175 0.868 212 207 204 0 0
-6.7807 0.1204 -4.4616 0.284 -0.112 0.952 211 206 203 0 0
-6.8020 -0.0118 -4.4962 0.181 0.357 0.916 213 207 205 0 0
-6.7889 -0.1012 -4.5058 0.165 0.003 0.986 211 206 203 0 0
-6.8094 -0.1164 -4.5189 0.367 -0.015 0.930 211 206 203 0 0
-6.7760 -0.1610 -4.5100 0.092 0.342 0.935 213 207 207 0 0
-6.7068 -0.1897 -4.4802 0.336 0.467 0.818 215 210 207 0 0
-6.6871 -0.2042 -4.4728 0.529 0.251 0.810 215 209 209 0 0
-6.6478 -0.3992 -4.4881 0.153 0.423 0.893 212 206 204 0 0
-6.6412 -0.4142 -4.4874 0.159 0.115 0.981 212 206 204 0 0
-6.6183 -0.4283 -4.4784 0.564 -0.188 0.804 212 206 206 0 0
-6.6497 -0.4452 -4.4973 0.403 0.341 0.849 213 207 206 0 0
-6.6346 -0.4751 -4.4951 0.162 -0.012 0.987 211 205 205 0 0
-6.6336 -0.5058 -4.5001 0.037 -0.034 0.999 215 208 208 0 0
-6.6317 -0.6298 -4.5215 0.530 0.502 0.684 214 208 207 0 0
-6.6348 -0.6456 -4.5259 0.363 0.841 0.401 214 208 207 0 0
-6.6115 -0.6595 -4.5166 0.266 0.717 0.644 214 208 208 0 0
-6.6210 -0.6759 -4.5244 0.764 0.491 0.419 219 214 216 0 0
-6.5302 -0.9684 -4.5312 0.297 0.165 0.940 215 205 203 0 0
-6.5685 -1.1358 -4.5808 0.423 0.305 0.853 216 210 212 0 0
-6.5599 -1.1510 -4.5792 0.373 0.413 0.831 215 209 210 0 0
-6.5485 -1.1658 -4.5761 0.589 0.334 0.736 217 211 213 0 0
-6.5359 -1.1805 -4.5723 0.681 0.189 0.707 219 213 215 0 0
-6.5304 -1.1961 -4.5724 0.747 0.100 0.657 221 215 218 0 0
-6.6066 -1.2574 -4.6220 0.110 0.005 0.994 222 214 215 0 0
-6.5807 -1.2869 -4.6142 0.149 -0.040 0.988 221 213 213 0 0
-6.5396 -1.3472 -4.6043 0.189 0.127 0.974 222 213 214 0 0
-6.5326 -1.3628 -4.6036 0.189 0.127 0.974 223 214 214 0 0
-6.5259 -1.3785 -4.6030 0.176 0.119 0.977 224 215 215 0 0
-6.5211 -1.3945 -4.6034 0.246 0.002 0.969 224 215 216 0 0
-6.4884 -1.4562 -4.5980 0.277 -0.257 0.926 220 211 213 0 0
-6.4964 -1.4746 -4.6054 0.124 -0.104 0.987 219 210 211 0 0
-6.4479 -1.7565 -4.6317 0.135 -0.259 0.956 220 210 210 0 0
-6.4504 -1.7745 -4.6362 0.135 -0.259 0.956 219 209 209 0 0
-6.4533 -1.7926 -4.6410 0.139 -0.283 0.949 218 209 208 0 0
-6.4604 -1.8820 -4.6607 0.094 0.039 0.995 220 210 209 0 0
-6.4257 -2.0693 -4.6769 0.345 -0.235 0.909 213 196 206 0 0
-6.4375 -2.0903 -4.6867 0.357 -0.101 0.929 212 198 210 0 0
-6.4365 -2.1081 -4.6894 0.328 -0.144 0.934 210 196 211 0 0
-6.4412 -2.1274 -4.6952 0.416 -0.005 0.909 208 196 211 0 0
-6.4326 -2.1432 -4.6937 0.348 0.370 0.861 202 188 209 0 0
-6.4144 -2.1564 -4.6869 0.295 0.516 0.804 188 170 194 0 0
-5.9830 -2.3353 -4.5006 0.152 0.412 0.899 171 46 40 0 0
-5.1956 -2.6309 -4.1552 0.064 0.907 0.417 221 188 48 0 0
-5.1429 -2.7629 -4.1523 0.513 0.540 0.667 184 151 56 0 0
-5.1310 -2.7751 -4.1485 0.542 0.714 0.443 181 149 58 0 0
-5.1187 -2.7870 -4.1444 0.542 0.714 0.443 148 126 62 0 0
-5.1316 -2.8960 -4.1706 0.326 -0.619 0.714 188 200 191 0 0
-5.1480 -2.9206 -4.1834 0.304 -0.465 0.832 223 230 224 0 0
-5.0121 -3.0863 -4.1444 0.432 0.576 0.694 210 160 38 0 0
-5.0010 -3.0986 -4.1410 0.432 0.576 0.694 224 183 46 0 0
-4.9873 -3.1097 -4.1361 0.914 0.329 0.238 226 188 48 0 0
-4.9837 -3.1963 -4.1499 0.699 0.538 -0.471 166 46 41 0 0
-5.0645 -3.2720 -4.2045 0.997 0.031 -0.071 175 30 34 0 0
-4.8758 -3.4818 -4.1468 0.892 0.162 -0.422 189 120 106 0 0
-4.8965 -3.5664 -4.1725 0.898 -0.191 -0.396 151 35 33 0 0
-4.9133 -3.5943 -4.1860 0.875 -0.270 -0.402 149 35 31 0 0
-4.9266 -3.6203 -4.1974 0.875 -0.270 -0.402 145 30 27 0 0
-5.0703 -3.7774 -4.2986 0.234 0.175 0.956 133 23 21 0 0
-5.0608 -3.7911 -4.2962 0.158 0.306 0.939 130 21 18 0 0
-5.0417 -3.7992 -4.2880 0.332 0.611 0.719 130 22 19 0 0
-5.0317 -3.8126 -4.2854 0.248 0.960 0.126 131 23 21 0 0
-5.0089 -3.8184 -4.2749 0.144 0.967 0.212 135 27 24 0 0
-4.9056 -4.3028 -4.3100 0.981 -0.195 -0.003 179 47 48 0 0
-4.9039 -4.3217 -4.3125 0.964 -0.163 0.210 176 47 55 0 0
-4.7884 -4.4235 -4.2724 0.508 0.432 0.746 204 58 48 0 0
-4.6610 -4.6973 -4.2572 0.373 0.919 0.125 214 92 69 0 0
-4.6699 -4.8289 -4.2855 0.365 -0.006 0.931 212 103 74 0 0
-4.6535 -4.8579 -4.2824 0.269 -0.013 0.963 214 105 78 0 0
-4.6540 -4.8794 -4.2865 0.163 0.139 0.977 215 106 79 0 0
-4.8848 -6.0518 -4.6149 0.324 0.093 0.941 220 209 202 0 0
-4.8829 -6.0744 -4.6181 0.476 0.100 0.874 220 209 205 0 0
-4.8671 -6.1324 -4.6205 0.960 -0.112 0.257 217 207 204 0 0
-4.8644 -6.1542 -4.6231 0.964 0.242 0.113 218 208 205 0 0
-4.7670 -6.3044 -4.6009 0.321 0.036 0.946 218 205 195 0 0
-4.7641 -6.3262 -4.6033 0.194 0.261 0.946 216 204 194 0 0
-4.5763 -6.7579 -4.5861 0.443 0.169 0.880 215 205 197 0 0
-4.5615 -6.7928 -4.5849 0.673 0.051 0.738 218 209 203 0 0
-4.5506 -6.8063 -4.5818 0.792 0.608 -0.050 217 208 202 0 0
-4.5368 -6.8166 -4.5767 0.472 0.790 0.392 216 205 200 0 0
-4.4994 -6.8773 -4.5687 0.440 0.481 0.758 215 205 198 0 0
-4.3660 -7.1650 -4.5530 0.577 0.293 0.762 216 205 200 0 0
-4.3520 -7.2277 -4.5572 0.278 0.181 0.943 215 203 197 0 0
-4.3428 -7.2430 -4.5554 0.091 0.517 0.851 214 202 196 0 0
-4.3296 -7.2533 -4.5505 0.091 0.517 0.851 213 202 196 0 0
-4.3260 -7.2756 -4.5527 0.325 0.251 0.912 215 204 199 0 0
-4.1425 -7.5253 -4.5049 0.072 0.540 0.839 213 202 196 0 0
-4.1215 -7.5245 -4.4940 0.184 0.282 0.942 215 204 197 0 0
-4.1257 -7.6123 -4.5120 0.589 -0.206 0.781 214 204 196 0 0
-4.1305 -7.6464 -4.5206 0.969 0.140 0.202 215 205 196 0 0
-4.1231 -7.6639 -4.5200 0.999 -0.022 0.035 216 206 198 0 0
-4.1211 -7.6889 -4.5235 0.939 -0.134 0.317 216 206 198 0 0
-4.0949 -7.7921 -4.5289 -0.079 0.557 0.827 214 204 195 0 0
-3.9886 -7.9228 -4.4986 0.995 -0.093 0.037 209 197 188 0 0
-3.9160 -8.0725 -4.4889 0.549 -0.285 0.785 212 199 190 0 0
-3.7826 -8.0713 -4.4211 -0.079 0.348 0.934 206 192 182 0 0
-3.7666 -8.0754 -4.4137 -0.147 0.322 0.935 210 197 188 0 0
-3.8187 -8.3888 -4.4966 -0.160 0.533 0.831 211 200 191 0 0
-3.8102 -8.4049 -4.4952 -0.103 0.814 0.571 212 201 192 0 0
-3.6612 -8.3431 -4.4086 0.197 0.628 0.753 210 200 190 0 0
-3.6536 -8.3601 -4.4079 0.142 0.830 0.540 210 200 190 0 0
-3.6388 -8.3653 -4.4013 0.147 0.633 0.760 211 201 191 0 0
-3.5493 -8.9381 -4.4593 0.480 -0.291 0.828 211 198 189 0 0
-7.0341 0.9516 -4.4219 0.895 0.133 0.426 212 207 208 0 0
-7.0138 0.9357 -4.4145 0.587 0.694 0.418 209 203 203 0 0
-6.9991 0.9204 -4.4098 0.587 0.694 0.418 207 200 200 0 0
-6.9367 0.7361 -4.4114 0.680 0.108 0.725 208 203 201 0 0
-6.9321 0.7218 -4.4116 0.720 0.176 0.671 209 204 201 0 0
-6.9310 0.7079 -4.4136 0.288 0.110 0.951 211 206 205 0 0
-6.8983 0.5941 -4.4175 0.148 -0.197 0.969 212 207 207 0 0
-6.9196 0.5816 -4.4305 0.118 -0.189 0.975 213 208 206 0 0
-6.8864 0.5091 -4.4267 0.096 0.413 0.906 208 203 200 0 0
-6.8657 0.3518 -4.4445 0.189 0.281 0.941 211 204 201 0 0
-6.7823 0.1036 -4.4469 0.676 -0.131 0.725 211 206 203 0 0
-6.8023 -0.0735 -4.4888 0.128 -0.158 0.979 217 212 211 0 0
-6.8337 -0.1038 -4.5100 0.438 0.069 0.896 213 208 205 0 0
-6.8371 -0.1189 -4.5144 0.752 0.437 0.493 212 207 204 0 0
-6.8083 -0.1335 -4.5026 0.511 0.396 0.763 212 207 204 0 0
-6.8228 -0.1488 -4.5126 0.164 0.911 0.377 212 206 205 0 0
-6.7876 -0.1633 -4.4975 0.248 0.864 0.438 213 207 207 0 0
-6.7593 -0.1778 -4.4858 0.158 0.784 0.600 213 207 207 0 0
-6.7268 -0.1922 -4.4720 0.097 0.461 0.882 214 208 208 0 0
-6.6953 -0.3881 -4.4913 0.098 0.548 0.831 210 205 202 0 0
-6.6786 -0.4486 -4.4937 0.364 0.319 0.875 212 207 204 0 0
-6.6359 -0.6788 -4.5134 0.319 -0.059 0.946 220 215 217 0 0
-6.6414 -0.7900 -4.5362 0.446 0.328 0.833 219 215 217 0 0
-6.6370 -0.8054 -4.5367 0.900 0.035 0.435 218 213 214 0 0
-6.5738 -0.9267 -4.5266 0.227 0.216 0.949 218 210 208 0 0
-6.5630 -0.9576 -4.5267 0.096 0.020 0.995 215 207 205 0 0
-6.5915 -1.1238 -4.5708 0.552 0.224 0.803 217 212 217 0 0
-6.5818 -1.1389 -4.5687 0.584 0.365 0.725 216 210 214 0 0
-6.5723 -1.1541 -4.5666 0.614 0.458 0.642 218 212 214 0 0
-6.5618 -1.1690 -4.5640 0.589 0.334 0.736 218 212 215 0 0
-6.5557 -1.1846 -4.5637 0.528 0.300 0.795 218 212 213 0 0
-6.6166 -1.2770 -4.6110 0.365 -0.347 0.864 220 212 211 0 0
-6.5666 -1.3360 -4.5963 0.358 0.222 0.907 222 213 212 0 0
-6.5207 -1.4631 -4.5960 0.267 -0.101 0.958 221 212 213 0 0
-6.5252 -1.4809 -4.6014 0.312 -0.376 0.873 220 211 213 0 0
-6.5282 -1.4984 -4.6061 0.269 -0.329 0.905 221 212 215 0 0
-6.4943 -1.8553 -4.6530 0.173 -0.188 0.967 224 218 222 0 0
-6.4903 -1.9075 -4.6603 0.189 -0.018 0.982 220 210 211 0 0
-6.4503 -2.0942 -4.6736 0.324 -0.084 0.943 216 202 211 0 0
-6.4632 -2.1157 -4.6840 0.366 0.129 0.922 210 197 211 0 0
-6.4573 -2.1322 -4.6840 0.366 0.129 0.922 207 194 212 0 0
-6.4493 -2.1482 -4.6828 0.357 0.281 0.891 188 170 194 0 0
-6.4208 -2.1586 -4.6703 0.256 0.553 0.793 175 148 174 0 0
-5.2324 -2.6280 -4.1553 -0.068 0.899 0.432 221 187 43 0 0
-5.2202 -2.6402 -4.1513 0.120 0.866 0.486 220 188 49 0 0
-5.0128 -3.1033 -4.1298 0.432 0.576 0.694 201 164 39 0 0
-5.0084 -3.1189 -4.1304 0.969 0.111 0.222 172 130 23 0 0
-5.0024 -3.1336 -4.1300 0.933 0.246 0.263 188 135 28 0 0
-4.8806 -3.5562 -4.1444 0.908 -0.229 -0.352 150 46 46 0 0
-4.9031 -3.6056 -4.1645 0.902 -0.291 -0.320 150 36 31 0 0
-4.9082 -3.6270 -4.1710 0.934 -0.234 -0.269 151 32 31 0 0
-5.0353 -3.8131 -4.2684 0.454 0.884 -0.111 129 22 19 0 0
-4.8994 -4.2763 -4.2830 0.843 0.173 -0.509 185 54 52 0 0
-4.9051 -4.3001 -4.2901 0.981 -0.195 -0.003 183 52 52 0 0
-4.9097 -4.3233 -4.2966 0.981 -0.195 -0.003 183 51 56 0 0
-4.9150 -4.3471 -4.3035 0.905 -0.029 0.425 193 67 80 0 0
-4.8616 -4.4318 -4.2918 0.603 -0.274 0.749 186 48 43 0 0
-4.8005 -4.4296 -4.2606 0.508 0.432 0.746 194 51 43 0 0
-4.7374 -4.6080 -4.2607 0.866 0.098 0.491 216 63 57 0 0
-4.7596 -4.6656 -4.2823 0.180 0.981 0.076 217 63 57 0 0
-4.7176 -4.6755 -4.2629 0.183 0.982 0.049 215 67 58 0 0
-4.6835 -4.8575 -4.2783 0.406 0.029 0.914 211 98 74 0 0
-4.6631 -4.9257 -4.2803 0.311 -0.015 0.950 212 99 73 0 0
-4.6446 -5.0169 -4.2873 0.345 -0.031 0.938 210 95 71 0 0
-4.6249 -5.0649 -4.2860 0.342 0.073 0.937 210 95 72 0 0
-4.6455 -5.1250 -4.3071 0.323 -0.283 0.903 209 92 72 0 0
-4.6183 -5.1239 -4.2933 0.463 -0.136 0.876 209 93 72 0 0
-4.7353 -5.3324 -4.3896 0.294 -0.075 0.953 206 77 66 0 0
-4.9835 -5.9219 -4.6205 0.497 0.810 0.310 217 204 194 0 0
-4.8750 -6.1354 -4.6041 0.745 0.328 0.581 217 206 200 0 0
-4.7934 -6.3012 -4.5926 0.417 -0.111 0.902 217 205 194 0 0
-4.7920 -6.3246 -4.5962 0.351 -0.079 0.933 216 203 192 0 0
-4.7920 -6.3494 -4.6006 0.238 0.463 0.854 215 203 191 0 0
-4.6444 -6.7504 -4.5981 -0.225 0.793 0.566 215 205 199 0 0
-4.5808 -6.7572 -4.5672 0.729 0.577 0.367 217 207 198 0 0
-4.5831 -6.7855 -4.5734 0.889 0.211 0.406 218 208 202 0 0
-4.5761 -6.8034 -4.5731 0.904 0.358 0.234 218 209 203 0 0
-4.5314 -6.8304 -4.5554 0.472 0.790 0.392 216 205 200 0 0
-4.5288 -6.8533 -4.5582 0.527 0.747 0.405 214 203 197 0 0
-4.5161 -6.8646 -4.5538 0.527 0.747 0.405 214 203 196 0 0
-4.3784 -7.1737 -4.5399 0.540 0.416 0.731 215 204 199 0 0
-4.3707 -7.2442 -4.5486 0.423 0.218 0.879 214 203 197 0 0
-4.3631 -7.2616 -4.5479 0.423 0.218 0.879 213 202 195 0 0
-4.3581 -7.2821 -4.5490 0.490 -0.002 0.872 212 202 195 0 0
-4.1537 -7.6428 -4.5107 0.353 0.020 0.935 215 204 196 0 0
-4.1492 -7.6643 -4.5123 0.377 -0.009 0.926 215 205 196 0 0
-4.1268 -7.6616 -4.5005 0.922 0.006 0.387 216 205 197 0 0
-4.1273 -7.6899 -4.5058 0.950 -0.067 0.305 215 205 197 0 0
-4.1175 -7.7878 -4.5184 0.445 0.516 0.732 214 204 195 0 0
-4.1083 -7.8030 -4.5165 0.108 0.063 0.992 213 203 194 0 0
-4.1030 -7.8236 -4.5175 0.101 -0.017 0.995 211 201 192 0 0
-3.9916 -7.9190 -4.4785 0.984 -0.020 0.179 211 201 192 0 0
-3.9780 -8.0414 -4.4936 0.998 0.015 0.055 211 201 192 0 0
-3.8058 -8.0983 -4.4170 0.026 0.263 0.964 209 198 188 0 0
-3.7953 -8.1107 -4.4138 0.026 0.263 0.964 212 201 192 0 0
-3.7826 -8.1200 -4.4092 0.007 0.193 0.981 212 202 193 0 0
-3.5282 -8.8594 -4.4135 0.419 -0.391 0.819 211 198 189 0 0
-7.0416 0.9496 -4.4079 0.860 0.195 0.471 208 202 203 0 0
-7.0318 0.9349 -4.4055 0.194 0.576 0.794 206 198 199 0 0
-7.0064 0.9185 -4.3957 0.571 0.705 0.421 210 202 203 0 0
-6.9623 0.7495 -4.4037 0.422 -0.053 0.905 210 205 203 0 0
-6.9041 0.6198 -4.3976 0.056 0.464 0.884 207 199 196 0 0
-6.9158 0.6068 -4.4058 -0.022 -0.155 0.988 206 198 195 0 0
-6.9404 0.5241 -4.4329 0.224 -0.289 0.931 210 202 200 0 0
-6.9122 0.5082 -4.4215 0.177 0.444 0.878 209 203 200 0 0
-6.9201 0.4945 -4.4279 0.210 0.284 0.936 209 203 200 0 0
-6.9211 0.4377 -4.4386 0.204 -0.476 0.856 211 206 203 0 0
-6.8930 0.3505 -4.4400 0.197 0.299 0.934 208 199 197 0 0
-6.8265 0.1312 -4.4457 0.363 -0.200 0.910 211 206 203 0 0
-6.8320 0.0874 -4.4563 0.350 0.086 0.933 215 210 207 0 0
-6.8453 -0.1211 -4.5001 0.773 0.143 0.618 215 210 207 0 0
-6.8249 -0.1359 -4.4925 0.606 0.278 0.745 214 208 208 0 0
-6.8332 -0.1511 -4.4994 0.275 0.898 0.342 213 208 206 0 0
-6.8006 -0.1656 -4.4856 0.248 0.864 0.438 214 208 207 0 0
-6.7520 -0.3618 -4.4962 0.304 0.187 0.934 214 209 206 0 0
-6.7409 -0.5942 -4.5320 0.831 0.119 0.544 218 213 211 0 0
-6.6515 -0.7290 -4.5112 0.307 -0.043 0.951 219 214 217 0 0
-6.6757 -0.7789 -4.5322 0.401 0.292 0.868 218 212 214 0 0
-6.6626 -0.7936 -4.5283 0.608 0.039 0.793 217 212 214 0 0
-6.6637 -0.8096 -4.5317 0.649 0.067 0.758 217 210 211 0 0
-6.6414 -0.8714 -4.5315 0.147 -0.170 0.974 217 210 211 0 0
-6.6131 -1.1117 -4.5601 0.615 0.540 0.575 224 219 224 0 0
-6.6040 -1.1269 -4.5583 0.537 0.309 0.785 220 216 219 0 0
-6.5870 -1.1574 -4.5552 0.584 0.365 0.725 221 216 217 0 0
-6.5798 -1.1729 -4.5543 0.639 0.075 0.766 221 215 217 0 0
-6.5765 -1.1889 -4.5555 0.639 0.075 0.766 221 215 217 0 0
-6.6426 -1.3159 -4.6113 0.169 0.094 0.981 221 212 210 0 0
-6.5493 -1.6235 -4.6194 -0.029 0.330 0.944 223 213 212 0 0
-6.5418 -1.6393 -4.6184 -0.005 0.367 0.930 222 212 211 0 0
-6.5054 -1.7184 -4.6142 0.242 -0.041 0.969 221 211 210 0 0
-6.5047 -1.7357 -4.6170 0.066 0.104 0.992 221 211 210 0 0
-6.5158 -1.9320 -4.6575 0.143 0.239 0.960 221 209 211 0 0
-6.4767 -2.0836 -4.6649 0.291 -0.070 0.954 220 205 210 0 0
-6.4748 -2.1011 -4.6671 0.284 -0.020 0.959 213 197 207 0 0
-6.4693 -2.1178 -4.6672 0.268 -0.146 0.952 207 189 206 0 0
-6.4687 -2.1357 -4.6702 0.268 -0.146 0.952 184 162 185 0 0
-5.0123 -3.1374 -4.1176 0.695 0.652 0.303 160 103 34 0 0
-4.8491 -3.5190 -4.1037 0.774 0.583 0.247 201 163 140 0 0
-4.8399 -3.5322 -4.1015 0.774 0.583 0.247 172 98 92 0 0
-4.8320 -3.5460 -4.1000 0.848 0.529 0.041 156 51 48 0 0
-4.8075 -3.5687 -4.0917 0.990 0.116 0.077 152 34 33 0 0
-4.9045 -4.2975 -4.2703 0.981 -0.195 -0.003 185 53 54 0 0
-4.7429 -4.6299 -4.2484 0.843 0.109 0.526 214 63 54 0 0
-4.6764 -4.9756 -4.2766 0.307 0.024 0.951 209 91 69 0 0
-4.8010 -5.3624 -4.4081 0.128 0.991 0.042 203 80 64 0 0
-5.0178 -5.9248 -4.6172 0.526 0.500 0.689 217 202 191 0 0
-5.0036 -5.9360 -4.6121 0.694 0.711 0.113 219 205 194 0 0
-4.9721 -5.9553 -4.5997 0.276 0.282 0.919 218 205 197 0 0
-4.9455 -6.0273 -4.5992 0.097 0.036 0.995 220 207 198 0 0
-4.9168 -6.1220 -4.6017 0.139 0.146 0.980 219 208 200 0 0
-4.8864 -6.1417 -4.5899 0.598 0.618 0.511 218 205 197 0 0
-4.8883 -6.1926 -4.5999 0.395 -0.170 0.903 218 205 197 0 0
-4.8210 -6.2744 -4.5807 0.309 0.143 0.940 216 206 198 0 0
-4.8127 -6.2909 -4.5795 0.415 -0.219 0.883 218 205 196 0 0
-4.8160 -6.3189 -4.5861 0.309 -0.133 0.942 216 204 193 0 0
-4.7802 -6.4072 -4.5839 0.093 -0.020 0.995 217 205 195 0 0
-4.7143 -6.5146 -4.5700 0.585 0.749 0.311 218 207 200 0 0
-4.7041 -6.5291 -4.5675 0.407 0.853 0.326 218 207 200 0 0
-4.6872 -6.5365 -4.5603 0.846 -0.150 0.512 217 207 199 0 0
-4.6851 -6.5595 -4.5633 0.754 -0.305 0.582 217 207 198 0 0
-4.6916 -6.5917 -4.5723 0.813 -0.304 0.497 214 204 196 0 0
-4.7014 -6.6276 -4.5837 0.720 -0.226 0.656 212 202 193 0 0
-4.7044 -6.6563 -4.5903 0.720 -0.226 0.656 215 204 196 0 0
-4.5863 -6.7577 -4.5491 0.998 -0.014 0.065 215 205 197 0 0
-4.5665 -6.8127 -4.5489 0.472 0.790 0.392 217 208 202 0 0
-4.5578 -6.8287 -4.5474 0.548 0.780 0.302 217 207 201 0 0
-4.5397 -6.8341 -4.5393 0.478 0.739 0.476 216 206 200 0 0
-4.5291 -6.8478 -4.5364 0.776 0.624 0.091 216 206 199 0 0
-4.5512 -6.8988 -4.5566 0.725 -0.123 0.677 216 205 199 0 0
-4.5191 -6.9923 -4.5571 0.000 0.893 0.449 217 207 201 0 0
-4.4966 -6.9923 -4.5459 -0.008 0.889 0.458 216 206 200 0 0
-4.3871 -7.2311 -4.5335 0.555 0.222 0.802 216 205 199 0 0
-4.3802 -7.2493 -4.5332 0.555 0.222 0.802 214 203 197 0 0
-4.3715 -7.2653 -4.5317 0.637 -0.134 0.759 211 201 192 0 0
-4.3731 -7.2941 -4.5376 0.623 -0.164 0.765 211 201 192 0 0
-4.0775 -7.8364 -4.4859 0.453 0.705 0.547 213 203 194 0 0
-3.9442 -7.9551 -4.4402 0.612 0.780 0.126 212 202 193 0 0
-3.8258 -8.1201 -4.4101 0.030 0.339 0.940 213 203 193 0 0
-3.8150 -8.1323 -4.4069 0.005 0.255 0.967 213 203 193 0 0
-3.6187 -8.9772 -4.4589 -0.225 0.404 0.887 211 198 188 0 0
-6.9801 0.7068 -4.4020 0.238 -0.325 0.915 211 206 202 0 0
-6.9322 0.5633 -4.4035 0.296 -0.501 0.814 205 195 193 0 0
-6.9430 0.5500 -4.4112 0.041 0.016 0.999 204 195 193 0 0
-6.9573 0.5085 -4.4257 0.428 0.255 0.867 208 200 198 0 0
-6.9509 0.4939 -4.4251 0.348 0.194 0.917 209 201 199 0 0
-6.9464 0.4080 -4.4381 0.271 -0.321 0.908 208 199 197 0 0
-6.9116 0.3489 -4.4312 0.284 0.294 0.913 208 198 196 0 0
-6.9193 0.1747 -4.4659 0.313 -0.248 0.917 210 205 201 0 0
-6.9228 0.1454 -4.4728 -0.019 0.504 0.863 210 205 202 0 0
-6.8528 0.0706 -4.4511 0.224 0.215 0.951 216 210 209 0 0
-6.8608 -0.1083 -4.4868 0.462 -0.129 0.877 216 210 207 0 0
-6.8492 -0.1383 -4.4863 0.760 0.345 0.550 214 208 207 0 0
-6.7751 -0.2578 -4.4704 0.230 0.202 0.952 216 210 208 0 0
-6.7739 -0.5825 -4.5273 0.323 0.509 0.798 215 210 209 0 0
-6.7587 -0.5972 -4.5224 0.736 0.435 0.519 217 212 212 0 0
-6.7359 -0.7381 -4.5359 0.223 0.307 0.925 218 212 212 0 0
-6.7262 -0.7532 -4.5337 0.250 0.303 0.920 218 212 213 0 0
-6.7159 -0.7682 -4.5313 0.298 0.130 0.946 218 212 213 0 0
-6.7100 -0.7837 -4.5310 0.298 0.130 0.946 217 211 211 0 0
-6.6854 -0.7973 -4.5212 0.499 0.385 0.776 216 210 212 0 0
-6.6744 -0.8123 -4.5183 0.608 0.039 0.793 216 210 210 0 0
-6.6910 -0.8299 -4.5297 0.428 -0.383 0.819 216 210 210 0 0
-6.6730 -0.8763 -4.5290 0.093 -0.275 0.957 217 209 209 0 0
-6.6783 -0.9091 -4.5374 0.105 -0.245 0.964 216 208 206 0 0
-6.6550 -1.0693 -4.5542 0.841 0.297 0.452 220 215 216 0 0
-6.6530 -1.0855 -4.5560 0.700 0.471 0.537 223 219 220 0 0
-6.6317 -1.1156 -4.5507 0.504 0.329 0.798 225 220 222 0 0
-6.5976 -1.1767 -4.5445 0.399 0.222 0.890 223 216 217 0 0
-6.5906 -1.1923 -4.5438 0.399 0.222 0.890 222 216 216 0 0
-6.5974 -1.4450 -4.5919 0.158 0.014 0.987 223 214 214 0 0
-6.5895 -1.6152 -4.6181 0.114 0.037 0.993 220 209 208 0 0
-6.5373 -1.6913 -4.6055 0.114 0.084 0.990 223 213 212 0 0
-6.5395 -1.8142 -4.6284 0.278 -0.046 0.960 221 211 212 0 0
-6.5366 -1.8312 -4.6299 0.372 -0.299 0.878 222 212 213 0 0
-6.5287 -1.9536 -4.6477 0.070 0.386 0.920 220 208 209 0 0
-6.4808 -2.0492 -4.6407 0.233 -0.287 0.929 219 204 207 0 0
-6.4864 -2.0686 -4.6469 0.293 -0.416 0.861 219 204 209 0 0
-6.5009 -2.0904 -4.6580 0.291 -0.070 0.954 217 202 209 0 0
-6.4994 -2.1081 -4.6604 0.255 -0.028 0.967 211 191 208 0 0
-6.4957 -2.1252 -4.6616 0.211 -0.064 0.975 186 164 191 0 0
-6.0708 -2.2389 -4.4694 0.076 0.988 0.133 195 70 77 0 0
