ply
format ascii 1.0
element vertex 827
property float x
property float y
property float z
property float nx
property float ny
property float nz
property uchar diffuse_red
property uchar diffuse_green
property uchar diffuse_blue
property uchar class
property uchar detection
end_header
-0.1731 1.5825 -0.4820 -0.097 -0.243 0.965 190 180 172 0 0
-0.1700 1.5788 -0.4827 -0.019 -0.343 0.939 191 181 173 0 0
-0.0724 1.5591 -0.5197 0.547 -0.632 0.549 188 175 169 0 0
-0.0674 1.5605 -0.5219 0.636 -0.717 0.287 189 176 168 0 0
-0.0622 1.5625 -0.5244 0.423 -0.418 0.804 187 174 166 0 0
0.0163 1.5708 -0.5580 -0.537 -0.818 0.205 185 173 164 0 0
0.1748 1.5560 -0.6208 0.760 -0.444 0.474 186 176 172 0 0
0.2021 1.5827 -0.6363 0.671 -0.535 0.513 188 178 176 0 0
0.2892 1.5419 -0.6656 0.563 -0.422 0.710 183 174 169 0 0
0.2951 1.5443 -0.6684 0.566 -0.430 0.703 179 169 166 0 0
0.3336 1.5402 -0.6836 0.568 -0.490 0.662 167 156 149 0 0
0.3499 1.5369 -0.6897 0.567 -0.516 0.643 177 167 162 0 0
0.3617 1.5263 -0.6929 0.305 -0.112 0.946 176 167 162 0 0
0.3674 1.5283 -0.6956 0.630 -0.322 0.707 176 167 163 0 0
-2.0257 1.6638 0.2622 0.193 -0.515 0.835 175 156 130 0 0
-1.9831 1.6748 0.2429 0.672 -0.038 0.740 175 154 128 0 0
-1.9535 1.7092 0.2251 -0.525 -0.847 0.086 174 154 130 0 0
-1.9472 1.7032 0.2235 -0.286 -0.882 0.376 177 156 132 0 0
-1.9376 1.6897 0.2218 -0.323 -0.565 0.759 179 158 136 0 0
-1.9307 1.6821 0.2201 -0.352 -0.522 0.777 180 160 136 0 0
-1.9055 1.6666 0.2123 0.613 -0.721 0.324 179 159 135 0 0
-1.8954 1.7056 0.2018 -0.405 -0.682 0.609 168 146 122 0 0
-1.8266 1.6845 0.1769 0.679 -0.147 0.719 182 164 140 0 0
-1.8040 1.6950 0.1659 0.551 -0.060 0.833 182 163 140 0 0
-1.7666 1.6969 0.1502 -0.488 -0.452 0.747 185 167 143 0 0
-1.7591 1.6865 0.1488 -0.488 -0.452 0.747 185 167 143 0 0
-1.7539 1.6825 0.1473 -0.421 -0.481 0.769 184 165 143 0 0
-1.7475 1.6751 0.1459 -0.389 -0.709 0.588 188 171 147 0 0
-1.7372 1.6673 0.1429 0.656 -0.741 0.145 192 175 153 0 0
-1.7082 1.6828 0.1285 0.120 -0.217 0.969 183 163 140 0 0
-1.7038 1.6812 0.1269 0.126 -0.313 0.941 182 162 138 0 0
-1.7011 1.6844 0.1253 -0.191 -0.418 0.888 179 161 137 0 0
-1.6892 1.6715 0.1225 -0.092 -0.344 0.935 181 162 139 0 0
-1.6815 1.6952 0.1155 0.406 -0.250 0.879 193 177 156 0 0
-1.6785 1.6982 0.1138 0.120 -0.249 0.961 191 176 155 0 0
-1.5932 1.6848 0.0808 -0.281 -0.695 0.662 186 168 144 0 0
-1.5884 1.6815 0.0794 -0.281 -0.695 0.662 185 166 142 0 0
-1.5854 1.6990 0.0753 0.569 -0.276 0.775 177 156 132 0 0
-1.5776 1.7134 0.0698 0.564 -0.177 0.806 191 175 151 0 0
-1.5746 1.7169 0.0680 0.032 -0.292 0.956 200 184 163 0 0
-1.5690 1.7107 0.0667 -0.084 -0.316 0.945 197 182 162 0 0
-1.5613 1.6969 0.0658 -0.262 -0.593 0.762 195 178 157 0 0
-1.5588 1.7021 0.0639 -0.335 -0.434 0.836 190 174 151 0 0
-1.5510 1.6871 0.0631 -0.309 -0.486 0.818 189 172 149 0 0
-1.5506 1.7008 0.0607 0.490 -0.681 0.543 188 171 146 0 0
-1.5444 1.6921 0.0596 0.275 -0.489 0.828 191 174 151 0 0
-1.5403 1.6911 0.0580 0.260 -0.526 0.810 193 177 154 0 0
-1.5378 1.6970 0.0561 0.763 -0.351 0.542 189 172 148 0 0
-1.4599 1.6839 0.0261 -0.242 -0.493 0.836 186 168 145 0 0
-1.4048 1.6854 0.0032 0.490 -0.380 0.784 186 168 147 0 0
-1.4015 1.6884 0.0014 0.355 -0.465 0.811 186 168 148 0 0
-1.3974 1.6878 -0.0002 0.314 -0.426 0.848 186 169 149 0 0
-1.3943 1.6925 -0.0023 0.020 -0.401 0.916 188 171 151 0 0
-1.3147 1.6955 -0.0355 -0.019 -0.355 0.935 199 182 162 0 0
-0.9805 0.6595 -0.0050 -0.250 -0.678 0.691 207 178 83 0 0
-0.9781 0.6556 -0.0053 -0.550 -0.764 0.337 210 185 85 0 0
-0.9735 0.6582 -0.0076 0.188 -0.395 0.899 234 220 131 0 0
-0.9711 0.6567 -0.0084 0.257 -0.324 0.910 247 242 196 0 0
-0.9688 0.6552 -0.0091 0.028 -0.362 0.932 207 184 119 0 0
-0.9664 0.6525 -0.0096 -0.102 -0.398 0.912 185 137 77 0 0
-0.9571 0.6524 -0.0134 0.336 -0.692 0.639 150 95 62 0 0
-0.9548 0.6542 -0.0147 0.413 -0.667 0.621 147 93 58 0 0
-0.9525 0.6546 -0.0157 0.406 -0.627 0.665 145 92 57 0 0
-0.9502 0.6587 -0.0173 0.491 -0.667 0.561 145 91 55 0 0
-0.9456 0.6607 -0.0195 0.614 -0.470 0.633 146 94 54 0 0
-0.8654 0.7012 -0.0591 -0.743 -0.167 0.648 236 223 119 0 0
-0.8627 0.7054 -0.0609 0.161 -0.477 0.864 222 208 94 0 0
-0.8603 0.7055 -0.0619 0.359 -0.486 0.796 216 200 94 0 0
-0.8582 0.6996 -0.0618 0.363 -0.589 0.722 211 193 92 0 0
-0.8558 0.6981 -0.0625 0.752 -0.530 0.393 203 184 89 0 0
-0.8362 0.7303 -0.0758 -0.236 -0.962 -0.136 172 149 72 0 0
-0.8337 0.7295 -0.0767 -0.460 -0.842 0.283 169 144 68 0 0
-0.8313 0.7286 -0.0776 -0.275 -0.948 0.157 167 141 62 0 0
-0.7845 0.6969 -0.0917 0.478 -0.783 -0.398 209 201 143 0 0
-0.7821 0.6961 -0.0926 -0.508 -0.842 -0.182 191 182 126 0 0
-0.7794 0.6976 -0.0939 -0.494 -0.859 0.137 172 161 107 0 0
-0.4642 1.6153 -0.3725 -0.181 -0.772 0.610 190 174 160 0 0
-0.4602 1.6137 -0.3738 -0.345 -0.839 0.420 191 176 163 0 0
-0.4197 1.6214 -0.3917 0.509 -0.727 0.461 190 175 162 0 0
-0.4159 1.6192 -0.3929 0.014 -0.357 0.934 194 179 166 0 0
-0.3482 1.5963 -0.4171 0.357 -0.344 0.869 193 179 167 0 0
-0.3449 1.5927 -0.4179 0.540 -0.374 0.754 193 178 166 0 0
-0.3392 1.5977 -0.4210 0.790 -0.545 0.281 190 174 160 0 0
-0.3339 1.6014 -0.4238 0.756 -0.487 0.438 190 174 161 0 0
-0.3074 1.5727 -0.4300 0.791 -0.554 0.260 181 164 150 0 0
-0.3024 1.5754 -0.4326 0.642 -0.371 0.671 186 169 156 0 0
-0.2962 1.5818 -0.4361 0.746 -0.431 0.508 190 175 164 0 0
-0.2807 1.5904 -0.4439 0.595 -0.389 0.704 189 173 160 0 0
-0.2603 1.6003 -0.4539 0.396 -0.384 0.834 194 179 167 0 0
-0.2498 1.5919 -0.4568 -0.095 -0.190 0.977 189 174 162 0 0
-0.2462 1.5896 -0.4580 -0.101 -0.240 0.965 191 177 165 0 0
-0.2428 1.5864 -0.4588 0.225 -0.447 0.866 194 179 166 0 0
-0.2360 1.5807 -0.4607 0.190 -0.455 0.870 195 180 168 0 0
-0.1887 1.5790 -0.4799 0.602 -0.688 0.406 187 174 166 0 0
-0.1074 1.5622 -0.5106 0.479 -0.634 0.608 189 176 168 0 0
-0.1033 1.5613 -0.5122 0.365 -0.491 0.791 185 172 162 0 0
-0.0989 1.5616 -0.5140 0.453 -0.430 0.781 184 171 162 0 0
-0.0963 1.5568 -0.5143 0.006 -0.782 0.624 185 172 164 0 0
-0.0668 1.5542 -0.5260 0.464 -0.473 0.749 187 174 166 0 0
-0.0150 1.5730 -0.5504 0.574 -0.229 0.786 184 171 163 0 0
0.0120 1.5635 -0.5600 0.391 -0.776 0.496 172 158 147 0 0
0.0286 1.5710 -0.5680 -0.028 -0.804 0.594 168 155 144 0 0
0.0437 1.5748 -0.5748 0.459 -0.628 0.628 177 163 154 0 0
0.0488 1.5762 -0.5772 0.386 -0.587 0.712 177 163 155 0 0
0.0748 1.5743 -0.5876 0.608 -0.437 0.663 183 171 164 0 0
0.1679 1.5445 -0.6210 0.790 -0.573 0.217 179 170 165 0 0
0.1786 1.5566 -0.6274 0.653 -0.418 0.632 179 169 166 0 0
0.1856 1.5616 -0.6311 0.660 -0.405 0.633 178 169 166 0 0
0.2820 1.5389 -0.6671 0.312 -0.492 0.813 188 180 177 0 0
0.2877 1.5412 -0.6698 0.402 -0.686 0.607 187 178 174 0 0
0.2904 1.5379 -0.6704 0.473 -0.492 0.731 183 173 170 0 0
0.3279 1.5321 -0.6849 0.516 -0.445 0.732 169 158 153 0 0
0.3459 1.5319 -0.6922 0.446 -0.386 0.808 177 166 161 0 0
0.3654 1.5041 -0.6957 0.444 -0.247 0.862 184 174 171 0 0
0.3981 1.5205 -0.7119 0.428 -0.246 0.870 187 179 176 0 0
-1.9811 1.6576 0.2403 0.239 -0.311 0.920 175 154 129 0 0
-1.9792 1.6613 0.2389 0.515 -0.156 0.843 175 154 126 0 0
-1.9452 1.6936 0.2196 -0.081 -0.623 0.778 173 152 129 0 0
-1.9372 1.6837 0.2179 -0.214 -0.491 0.845 171 151 128 0 0
-1.9303 1.6762 0.2163 -0.352 -0.522 0.777 172 152 127 0 0
-1.9117 1.6673 0.2101 -0.290 -0.942 0.171 182 162 139 0 0
-1.8954 1.6911 0.1995 0.406 -0.337 0.849 171 149 126 0 0
-1.8908 1.6890 0.1979 -0.127 -0.420 0.899 168 146 122 0 0
-1.8447 1.6580 0.1841 -0.668 -0.569 0.479 182 164 140 0 0
-1.8111 1.6779 0.1670 0.075 -0.307 0.949 177 157 134 0 0
-1.7722 1.6853 0.1497 -0.083 -0.262 0.961 182 161 138 0 0
-1.7557 1.6711 0.1453 -0.629 -0.502 0.593 180 161 137 0 0
-1.6971 1.6660 0.1220 -0.177 -0.524 0.833 177 157 133 0 0
-1.6915 1.6605 0.1206 0.169 -0.667 0.726 177 157 133 0 0
-1.6791 1.6936 0.1100 0.192 -0.302 0.934 190 175 154 0 0
-1.6751 1.6930 0.1085 0.042 -0.298 0.953 190 175 154 0 0
-1.6557 1.7184 0.0963 0.189 -0.910 0.369 182 162 138 0 0
-1.6095 1.6411 0.0900 -0.412 -0.791 0.452 185 167 142 0 0
-1.5943 1.6817 0.0771 -0.189 -0.851 0.490 188 169 145 0 0
-1.5895 1.6785 0.0756 -0.003 -0.778 0.628 182 162 138 0 0
-1.5850 1.6901 0.0718 0.569 -0.276 0.775 175 153 127 0 0
-1.5680 1.6997 0.0633 0.176 -0.300 0.938 196 181 160 0 0
-1.5610 1.6880 0.0623 -0.334 -0.404 0.852 194 178 156 0 0
-1.5607 1.7016 0.0600 -0.076 -0.303 0.950 192 177 153 0 0
-1.5510 1.6798 0.0596 0.145 -0.455 0.879 192 176 152 0 0
-1.5448 1.6859 0.0560 0.275 -0.489 0.828 193 177 155 0 0
-1.5406 1.6846 0.0545 0.230 -0.415 0.880 194 177 154 0 0
-1.5375 1.6878 0.0527 -0.251 -0.373 0.893 187 170 146 0 0
-1.5017 1.6860 0.0382 0.197 -0.504 0.841 191 174 152 0 0
-1.4980 1.6871 0.0366 0.139 -0.453 0.881 190 172 150 0 0
-1.4606 1.6783 0.0226 -0.242 -0.493 0.836 190 174 151 0 0
-1.4543 1.6677 0.0217 0.335 -0.356 0.872 194 178 156 0 0
-1.4506 1.6688 0.0200 0.616 -0.333 0.714 196 179 159 0 0
-1.4467 1.6686 0.0184 0.798 -0.317 0.513 197 180 161 0 0
-1.4437 1.6728 0.0165 0.567 -0.321 0.758 196 179 161 0 0
-1.4400 1.6739 0.0148 0.500 -0.340 0.796 193 176 156 0 0
-1.4262 1.6460 0.0137 0.045 -0.232 0.972 192 175 155 0 0
-1.4163 1.6357 0.0113 0.030 -0.207 0.978 184 164 143 0 0
-1.4056 1.6797 -0.0003 0.779 -0.273 0.564 184 165 144 0 0
-1.3902 1.6819 -0.0070 0.020 -0.401 0.916 186 166 147 0 0
-1.3871 1.6862 -0.0090 0.318 -0.290 0.902 188 170 151 0 0
-1.3148 1.6848 -0.0385 -0.035 -0.765 0.643 199 182 163 0 0
-0.9814 0.6577 -0.0070 -0.250 -0.678 0.691 202 172 77 0 0
-0.9790 0.6549 -0.0076 -0.312 -0.920 0.236 205 179 82 0 0
-0.9768 0.6571 -0.0088 0.046 -0.880 0.473 218 196 104 0 0
-0.9744 0.6566 -0.0097 0.122 -0.840 0.528 203 179 91 0 0
-0.9721 0.6563 -0.0106 0.122 -0.840 0.528 186 154 72 0 0
-0.9698 0.6561 -0.0115 0.240 -0.937 0.254 171 124 64 0 0
-0.9649 0.6422 -0.0113 -0.221 -0.482 0.848 152 98 58 0 0
-0.8135 0.7399 -0.0897 -0.856 -0.376 -0.354 203 180 74 0 0
-0.8120 0.7294 -0.0886 -0.959 -0.203 -0.198 212 191 85 0 0
-0.7963 0.6880 -0.0882 0.482 -0.697 0.531 207 186 92 0 0
-0.7856 0.6953 -0.0938 0.707 -0.695 0.131 200 191 123 0 0
-0.7829 0.6964 -0.0951 -0.509 -0.837 -0.202 206 200 144 0 0
-0.7804 0.6972 -0.0963 -0.568 -0.785 -0.246 195 188 132 0 0
-0.7778 0.6980 -0.0975 -0.305 -0.929 -0.210 177 165 112 0 0
-0.4312 1.6153 -0.3909 0.220 -0.808 0.546 187 170 156 0 0
-0.4269 1.6153 -0.3927 0.220 -0.808 0.546 186 169 154 0 0
-0.4044 1.6011 -0.3996 -0.358 -0.473 0.805 189 174 159 0 0
-0.3469 1.5903 -0.4215 0.499 -0.527 0.688 188 172 158 0 0
-0.3426 1.5901 -0.4232 0.820 -0.523 0.232 185 167 152 0 0
-0.3368 1.5958 -0.4266 0.767 -0.508 0.392 187 169 156 0 0
-0.3316 1.5525 -0.4216 0.428 -0.443 0.788 192 177 164 0 0
-0.3165 1.5607 -0.4292 0.504 -0.420 0.755 182 164 149 0 0
-0.3122 1.5609 -0.4310 0.550 -0.388 0.739 183 165 151 0 0
-0.3069 1.5642 -0.4337 0.655 -0.324 0.682 188 171 156 0 0
-0.3009 1.5703 -0.4372 0.707 -0.312 0.634 192 177 165 0 0
-0.2523 1.6024 -0.4625 0.238 -0.172 0.956 199 184 172 0 0
-0.2490 1.5988 -0.4632 0.343 -0.184 0.921 197 184 171 0 0
-0.2448 1.5984 -0.4649 0.343 -0.184 0.921 197 183 173 0 0
-0.2037 1.5513 -0.4741 0.636 -0.769 0.068 183 169 161 0 0
-0.1992 1.5516 -0.4760 0.549 -0.813 0.195 185 171 162 0 0
-0.1146 1.5580 -0.5119 0.315 -0.327 0.891 187 175 167 0 0
-0.0931 1.5570 -0.5205 0.318 -0.089 0.944 190 177 171 0 0
-0.0006 1.5576 -0.5588 0.214 -0.123 0.969 159 145 132 0 0
0.0040 1.5579 -0.5607 0.386 -0.346 0.855 161 147 134 0 0
0.0273 1.5706 -0.5723 0.240 -0.849 0.472 172 158 147 0 0
0.0305 1.5678 -0.5732 0.193 -0.873 0.448 180 165 157 0 0
0.0340 1.5656 -0.5743 0.234 -0.861 0.451 183 169 161 0 0
0.0385 1.5659 -0.5762 -0.140 -0.921 0.363 186 173 165 0 0
0.0461 1.5730 -0.5805 0.088 -0.995 0.045 186 173 165 0 0
0.0508 1.5733 -0.5825 0.088 -0.995 0.045 185 172 164 0 0
0.0561 1.5653 -0.5834 0.110 -0.286 0.952 183 170 161 0 0
0.0640 1.5631 -0.5863 0.218 -0.195 0.956 184 173 166 0 0
0.1440 1.5083 -0.6102 -0.375 -0.917 0.136 181 171 168 0 0
0.1570 1.5251 -0.6183 0.619 -0.557 0.553 178 168 166 0 0
0.1627 1.5277 -0.6211 0.397 -0.454 0.798 179 169 166 0 0
0.1765 1.5458 -0.6297 0.586 -0.387 0.712 178 167 164 0 0
0.2745 1.5274 -0.6670 -0.195 -0.644 0.740 188 179 177 0 0
0.2793 1.5280 -0.6691 0.414 -0.711 0.568 188 178 176 0 0
0.2864 1.5326 -0.6728 0.489 -0.819 0.300 187 177 175 0 0
0.2896 1.5302 -0.6737 0.594 -0.522 0.612 185 175 172 0 0
0.3226 1.5247 -0.6864 0.495 -0.505 0.707 171 161 155 0 0
0.3106 1.4966 -0.6769 0.751 -0.611 0.251 172 162 156 0 0
0.3186 1.5026 -0.6811 0.735 -0.529 0.423 172 162 156 0 0
0.3324 1.5183 -0.6894 0.660 -0.544 0.519 172 163 156 0 0
0.3402 1.5238 -0.6935 0.406 -0.445 0.798 176 167 161 0 0
0.3445 1.5234 -0.6952 0.239 -0.270 0.933 180 171 166 0 0
0.3727 1.5102 -0.7047 0.493 -0.355 0.794 182 174 169 0 0
0.4100 1.4975 -0.7179 0.351 -0.234 0.907 180 172 169 0 0
0.4165 1.5006 -0.7211 0.445 -0.251 0.860 183 176 173 0 0
-2.0217 1.6460 0.2544 0.561 -0.776 -0.287 160 138 112 0 0
-1.9757 1.6488 0.2349 0.244 -0.338 0.909 170 149 124 0 0
-1.9356 1.6749 0.2141 0.031 -0.352 0.936 171 149 125 0 0
-1.9216 1.6596 0.2109 -0.507 -0.460 0.729 169 148 124 0 0
-1.9075 1.6701 0.2033 0.855 -0.464 -0.233 170 150 125 0 0
-1.8938 1.6819 0.1957 0.329 -0.283 0.901 171 150 126 0 0
-1.8502 1.6571 0.1819 -0.186 -0.790 0.584 180 159 137 0 0
-1.8529 1.6830 0.1787 -0.583 -0.666 0.466 182 163 139 0 0
-1.8052 1.6467 0.1651 0.002 -0.753 0.658 173 153 129 0 0
-1.7506 1.6612 0.1401 -0.150 -0.852 0.502 181 162 138 0 0
-1.7482 1.6652 0.1385 0.215 -0.977 -0.001 181 162 138 0 0
-1.6966 1.6584 0.1184 -0.093 -0.439 0.894 176 156 132 0 0
-1.6798 1.6772 0.1083 0.496 -0.388 0.777 191 176 156 0 0
-1.6780 1.6836 0.1065 0.035 -0.390 0.920 189 174 153 0 0
-1.6737 1.6821 0.1050 0.042 -0.298 0.953 191 176 156 0 0
-1.6571 1.7033 0.0946 0.079 -0.689 0.721 180 160 136 0 0
-1.6568 1.7152 0.0925 -0.092 -0.821 0.563 180 160 136 0 0
-1.6048 1.6313 0.0851 0.295 -0.829 0.474 182 162 137 0 0
-1.5910 1.6359 0.0786 0.366 -0.819 0.442 191 173 150 0 0
-1.5947 1.6760 0.0735 -0.348 -0.683 0.642 186 168 144 0 0
-1.5908 1.6760 0.0719 0.056 -0.521 0.851 181 161 136 0 0
-1.5833 1.6767 0.0686 0.575 -0.212 0.790 178 157 133 0 0
-1.5808 1.6819 0.0668 0.474 -0.202 0.857 179 158 134 0 0
-1.5673 1.6896 0.0599 0.176 -0.300 0.938 196 180 159 0 0
-1.5642 1.6924 0.0581 0.204 -0.331 0.921 192 175 153 0 0
-1.5512 1.6729 0.0561 0.219 -0.415 0.883 192 176 153 0 0
-1.5495 1.6812 0.0540 0.434 -0.288 0.853 194 178 155 0 0
-1.5419 1.6822 0.0507 -0.124 -0.201 0.972 195 178 157 0 0
-1.5354 1.6718 0.0497 0.024 -0.206 0.978 190 173 149 0 0
-1.5017 1.6776 0.0349 0.319 -0.699 0.640 183 165 142 0 0
-1.4994 1.6845 0.0328 -0.303 -0.292 0.907 186 168 145 0 0
-1.4941 1.6785 0.0316 0.111 -0.396 0.912 189 172 152 0 0
-1.4544 1.6594 0.0184 0.335 -0.356 0.872 194 177 157 0 0
-1.4443 1.6668 0.0130 0.040 -0.284 0.958 191 174 154 0 0
-1.4405 1.6674 0.0114 0.288 -0.236 0.928 189 172 151 0 0
-1.4201 1.6266 0.0097 -0.007 -0.298 0.954 187 170 147 0 0
-1.4164 1.6272 0.0081 0.240 -0.343 0.908 186 167 146 0 0
-1.4123 1.6261 0.0066 0.240 -0.343 0.908 183 165 145 0 0
-1.3981 1.6719 -0.0069 0.429 -0.232 0.873 183 163 142 0 0
-1.3862 1.6718 -0.0117 0.160 -0.506 0.847 187 167 147 0 0
-1.3844 1.6833 -0.0144 0.557 -0.405 0.725 187 169 148 0 0
-1.3785 1.6728 -0.0151 0.469 -0.467 0.749 190 172 151 0 0
-1.3495 1.6439 -0.0222 -0.128 -0.780 0.612 188 171 149 0 0
-0.9823 0.6560 -0.0091 -0.192 -0.843 0.503 198 166 71 0 0
-0.9800 0.6554 -0.0100 -0.125 -0.933 0.338 198 167 72 0 0
-0.9777 0.6559 -0.0110 0.046 -0.880 0.473 192 159 77 0 0
-0.9754 0.6556 -0.0119 0.044 -0.920 0.389 159 120 59 0 0
-0.9731 0.6553 -0.0128 0.044 -0.920 0.389 156 111 57 0 0
-0.9707 0.6547 -0.0137 0.065 -0.801 0.595 158 106 63 0 0
-0.9684 0.6539 -0.0145 0.081 -0.795 0.601 148 95 56 0 0
-0.9661 0.6558 -0.0158 0.457 -0.739 0.495 145 90 55 0 0
-0.9634 0.6365 -0.0136 -0.157 -0.432 0.888 144 86 57 0 0
-0.9611 0.6344 -0.0142 -0.157 -0.432 0.888 141 84 54 0 0
-0.8166 0.7445 -0.0921 -0.044 -0.826 -0.562 183 157 64 0 0
-0.8055 0.7025 -0.0897 -0.964 -0.245 0.105 209 188 86 0 0
-0.7977 0.6829 -0.0896 0.653 -0.400 0.643 209 187 88 0 0
-0.7813 0.6974 -0.0988 -0.038 -0.988 -0.151 208 203 148 0 0
-0.6244 1.5578 -0.3066 0.953 -0.295 -0.067 187 169 141 0 0
-0.4556 1.6085 -0.3846 -0.325 -0.945 0.044 181 163 148 0 0
-0.4374 1.6133 -0.3930 0.397 -0.872 -0.287 189 173 158 0 0
-0.4291 1.6117 -0.3961 0.389 -0.771 0.504 183 164 150 0 0
-0.4243 1.6140 -0.3985 0.226 -0.823 0.521 184 166 152 0 0
-0.4136 1.6043 -0.4012 -0.853 -0.312 0.418 187 171 156 0 0
-0.4099 1.6019 -0.4024 -0.625 -0.534 0.569 186 169 154 0 0
-0.4067 1.5974 -0.4029 -0.679 -0.642 0.356 187 171 157 0 0
-0.3982 1.5620 -0.4005 0.599 -0.304 0.740 194 180 166 0 0
-0.3887 1.5661 -0.4051 0.321 -0.220 0.921 184 166 152 0 0
-0.3451 1.5862 -0.4265 0.797 -0.490 0.354 183 165 150 0 0
-0.3361 1.5563 -0.4252 -0.170 -0.452 0.876 187 169 155 0 0
-0.3339 1.5488 -0.4248 0.340 -0.675 0.655 188 171 156 0 0
-0.3293 1.5501 -0.4269 0.442 -0.634 0.635 186 168 154 0 0
-0.3246 1.5518 -0.4292 0.646 -0.651 0.400 182 164 150 0 0
-0.3197 1.5542 -0.4316 0.542 -0.478 0.691 182 165 150 0 0
-0.3148 1.5563 -0.4340 0.542 -0.478 0.691 185 168 154 0 0
-0.3114 1.5532 -0.4348 0.654 -0.344 0.674 190 173 160 0 0
-0.2954 1.5642 -0.4433 0.461 -0.257 0.849 187 171 158 0 0
-0.2220 1.5387 -0.4693 0.419 -0.863 0.284 172 154 145 0 0
-0.2014 1.5491 -0.4795 0.382 -0.858 0.342 182 167 157 0 0
-0.1957 1.5531 -0.4825 0.465 -0.838 0.285 182 168 158 0 0
-0.1135 1.5412 -0.5144 0.394 -0.230 0.890 181 168 159 0 0
-0.1094 1.5405 -0.5160 0.241 -0.186 0.953 184 171 162 0 0
0.0023 1.5567 -0.5647 0.565 -0.377 0.734 163 149 138 0 0
0.0251 1.5683 -0.5760 0.325 -0.703 0.633 185 171 162 0 0
0.0293 1.5678 -0.5777 0.448 -0.611 0.653 189 176 168 0 0
0.2100 1.5179 -0.6438 0.713 -0.605 0.353 184 174 172 0 0
0.2335 1.5119 -0.6525 0.363 -0.223 0.905 181 171 168 0 0
0.2707 1.5226 -0.6696 0.265 -0.484 0.834 186 176 174 0 0
0.2759 1.5237 -0.6719 0.425 -0.612 0.668 188 179 176 0 0
0.2835 1.5292 -0.6759 0.608 -0.749 0.264 188 180 177 0 0
0.2933 1.5227 -0.6789 -0.214 -0.487 0.847 190 181 178 0 0
0.3113 1.4994 -0.6825 0.584 -0.452 0.675 177 168 161 0 0
0.3390 1.5084 -0.6954 0.306 -0.465 0.831 179 170 165 0 0
0.3437 1.5087 -0.6974 0.392 -0.429 0.814 183 174 169 0 0
0.3442 1.4945 -0.6952 0.293 -0.950 0.108 184 175 170 0 0
0.4022 1.4865 -0.7178 0.331 -0.205 0.921 182 173 169 0 0
0.4065 1.4862 -0.7195 0.439 -0.319 0.840 183 175 171 0 0
0.4140 1.4910 -0.7234 0.521 -0.371 0.769 185 177 173 0 0
-1.9398 1.6456 0.2161 0.743 -0.401 0.536 184 165 139 0 0
-1.9400 1.6546 0.2147 0.721 -0.233 0.653 181 162 137 0 0
-1.9242 1.6606 0.2072 -0.520 -0.471 0.713 170 149 124 0 0
-1.9166 1.6514 0.2056 -0.265 -0.655 0.708 172 151 126 0 0
-1.8903 1.6683 0.1919 0.128 -0.306 0.943 172 153 128 0 0
-1.8863 1.6675 0.1904 -0.015 -0.294 0.956 174 154 129 0 0
-1.8774 1.6642 0.1873 0.143 -0.290 0.946 182 162 137 0 0
-1.8714 1.6585 0.1858 -0.209 -0.293 0.933 186 167 142 0 0
-1.8666 1.6557 0.1843 -0.352 -0.328 0.877 184 164 140 0 0
-1.8484 1.6566 0.1766 -0.710 -0.649 0.273 178 158 134 0 0
-1.8441 1.6552 0.1751 -0.691 -0.720 0.064 179 159 135 0 0
-1.8323 1.6346 0.1737 -0.436 -0.783 0.442 187 169 144 0 0
-1.8178 1.6546 0.1643 0.444 -0.756 0.481 164 142 118 0 0
-1.8094 1.6425 0.1629 0.394 -0.866 0.307 168 146 123 0 0
-1.7957 1.6455 0.1567 0.417 -0.901 -0.116 185 167 143 0 0
-1.6761 1.6711 0.1031 -0.215 -0.629 0.748 189 174 152 0 0
-1.6579 1.6995 0.0909 -0.026 -0.806 0.591 179 160 136 0 0
-1.6561 1.7061 0.0890 0.312 -0.617 0.722 179 161 136 0 0
-1.5926 1.6346 0.0749 0.020 -0.924 0.381 187 168 144 0 0
-1.5880 1.6319 0.0734 0.340 -0.837 0.429 186 167 142 0 0
-1.5718 1.6844 0.0579 0.330 -0.138 0.934 202 188 168 0 0
-1.5619 1.6766 0.0551 0.109 -0.201 0.973 192 176 155 0 0
-1.5517 1.6674 0.0525 -0.017 -0.228 0.974 192 176 152 0 0
-1.5438 1.6667 0.0493 0.170 -0.147 0.974 197 181 158 0 0
-1.5395 1.6651 0.0478 0.075 -0.154 0.985 195 178 154 0 0
-1.5337 1.6576 0.0467 0.024 -0.206 0.978 192 175 151 0 0
-1.5011 1.6045 0.0422 0.835 -0.247 0.491 181 161 138 0 0
-1.5004 1.6641 0.0319 0.652 -0.414 0.635 184 165 143 0 0
-1.4967 1.6650 0.0302 0.585 -0.437 0.683 186 168 146 0 0
-1.4934 1.6675 0.0284 0.383 -0.622 0.683 188 171 148 0 0
-1.4770 1.6310 0.0278 0.592 -0.206 0.779 196 180 160 0 0
-1.3839 1.6705 -0.0172 0.627 -0.379 0.681 187 169 146 0 0
-1.3502 1.6372 -0.0255 -0.156 -0.959 0.236 186 167 145 0 0
-0.9810 0.6547 -0.0122 -0.246 -0.943 0.226 189 153 67 0 0
-0.9786 0.6547 -0.0131 0.028 -0.998 0.054 167 127 66 0 0
-0.9763 0.6545 -0.0140 -0.063 -0.978 0.198 143 100 54 0 0
-0.9717 0.6553 -0.0161 0.045 -0.993 0.106 149 96 58 0 0
-0.9693 0.6500 -0.0162 -0.327 -0.701 0.635 145 89 57 0 0
-0.9669 0.6486 -0.0169 -0.129 -0.663 0.737 143 85 55 0 0
-0.9646 0.6463 -0.0175 0.059 -0.589 0.806 140 83 53 0 0
-0.9390 0.6764 -0.0331 -0.131 -0.717 0.685 144 91 50 0 0
-0.9367 0.6700 -0.0330 -0.322 -0.825 0.465 147 95 49 0 0
-0.8923 0.7151 -0.0589 -0.487 -0.427 -0.762 255 255 246 0 0
-0.8899 0.7129 -0.0595 -0.286 -0.447 -0.848 255 255 251 0 0
-0.8878 0.7042 -0.0589 -0.520 -0.411 -0.749 255 255 253 0 0
-0.8133 0.7362 -0.0951 -0.969 -0.211 -0.125 202 180 71 0 0
-0.7992 0.6774 -0.0909 0.355 -0.418 0.836 209 187 87 0 0
-0.7961 0.6835 -0.0932 0.676 -0.431 0.598 207 187 92 0 0
-0.7935 0.6848 -0.0945 0.820 -0.489 0.296 207 187 96 0 0
-0.7850 0.6942 -0.0996 0.495 -0.854 0.157 200 182 105 0 0
-0.7821 0.6981 -0.1015 0.261 -0.963 -0.069 199 188 126 0 0
-0.7794 0.6998 -0.1029 0.092 -0.876 -0.474 209 204 152 0 0
-0.7658 0.7084 -0.1099 0.396 -0.895 -0.205 192 174 124 0 0
-0.7632 0.7089 -0.1111 -0.053 -0.922 0.384 188 164 107 0 0
-0.4485 1.6082 -0.3924 -0.185 -0.695 0.695 191 176 161 0 0
-0.4447 1.6061 -0.3936 0.131 -0.730 0.670 192 177 163 0 0
-0.4409 1.6041 -0.3948 0.233 -0.434 0.870 185 168 154 0 0
-0.4320 1.6056 -0.3988 0.501 -0.441 0.745 180 163 148 0 0
-0.4273 1.6072 -0.4010 0.501 -0.441 0.745 183 165 151 0 0
-0.4240 1.6026 -0.4016 -0.045 -0.711 0.702 186 170 155 0 0
-0.4024 1.5508 -0.4018 0.599 -0.304 0.740 199 186 173 0 0
-0.3973 1.5541 -0.4044 0.575 -0.315 0.755 194 181 166 0 0
-0.3929 1.5550 -0.4064 0.416 -0.298 0.859 192 178 162 0 0
-0.3879 1.5579 -0.4089 0.330 -0.291 0.898 193 178 163 0 0
-0.3527 1.5788 -0.4270 0.639 -0.559 0.528 184 166 151 0 0
-0.3485 1.5784 -0.4286 0.749 -0.632 0.197 179 162 145 0 0
-0.3395 1.5487 -0.4273 0.209 -0.555 0.805 187 169 154 0 0
-0.3365 1.5442 -0.4278 0.442 -0.634 0.635 187 170 154 0 0
-0.3320 1.5453 -0.4298 0.442 -0.634 0.635 186 169 154 0 0
-0.3271 1.5475 -0.4322 0.567 -0.664 0.487 185 168 154 0 0
-0.3226 1.5484 -0.4342 0.653 -0.501 0.568 187 170 155 0 0
-0.3182 1.5491 -0.4362 0.630 -0.425 0.650 188 172 160 0 0
-0.3158 1.5424 -0.4360 0.654 -0.344 0.674 191 177 165 0 0
-0.2133 1.5430 -0.4784 0.535 -0.765 0.359 172 154 141 0 0
-0.2088 1.5435 -0.4803 0.552 -0.589 0.591 177 159 148 0 0
-0.2038 1.5458 -0.4828 0.484 -0.736 0.473 181 164 154 0 0
-0.0427 1.5362 -0.5476 0.006 -0.947 -0.321 183 169 160 0 0
-0.0369 1.5395 -0.5505 0.270 -0.951 0.150 184 169 162 0 0
0.0035 1.5519 -0.5693 0.550 -0.735 0.397 176 162 152 0 0
0.1402 1.5049 -0.6177 0.458 -0.861 0.221 184 174 169 0 0
0.1502 1.5074 -0.6223 0.093 -0.960 0.263 191 182 180 0 0
0.1634 1.5244 -0.6306 0.545 -0.339 0.767 194 186 184 0 0
0.1857 1.5076 -0.6369 0.149 -0.193 0.970 187 179 177 0 0
0.2099 1.5114 -0.6476 0.703 -0.481 0.524 187 177 177 0 0
0.2189 1.5199 -0.6527 0.620 -0.354 0.700 186 176 175 0 0
0.2197 1.5130 -0.6519 0.225 -0.234 0.946 186 177 175 0 0
0.2239 1.5042 -0.6521 -0.097 -0.564 0.820 187 179 176 0 0
0.2688 1.5129 -0.6721 0.280 -0.380 0.882 189 179 177 0 0
0.2808 1.5262 -0.6793 0.474 -0.789 0.392 189 179 177 0 0
0.2810 1.5187 -0.6781 0.415 -0.799 0.434 189 180 178 0 0
0.3439 1.4955 -0.7001 0.231 -0.928 -0.291 177 168 163 0 0
0.4089 1.5058 -0.7287 0.374 -0.206 0.904 182 172 170 0 0
0.4122 1.4896 -0.7273 -0.137 -0.149 0.979 185 176 174 0 0
-1.9710 1.6291 0.2273 -0.015 -0.385 0.923 164 141 115 0 0
-1.9593 1.6274 0.2228 0.214 -0.153 0.965 172 152 126 0 0
-1.9403 1.6418 0.2124 0.616 -0.264 0.742 179 159 135 0 0
-1.9373 1.6434 0.2109 0.393 -0.287 0.873 176 156 133 0 0
-1.9176 1.6402 0.2033 0.176 -0.333 0.926 174 154 129 0 0
-1.8677 1.6440 0.1821 -0.209 -0.293 0.933 182 162 137 0 0
-1.8313 1.6267 0.1700 0.399 -0.807 0.434 186 168 143 0 0
-1.8274 1.6550 0.1636 -0.029 -0.614 0.789 161 139 115 0 0
-1.8096 1.6376 0.1592 0.208 -0.840 0.501 167 146 122 0 0
-1.7966 1.6426 0.1530 0.543 -0.836 0.081 181 163 139 0 0
-1.7719 1.6361 0.1439 -0.383 -0.698 0.605 183 163 140 0 0
-1.6149 1.6392 0.0786 -0.634 -0.764 0.118 185 166 142 0 0
-1.5941 1.6330 0.0711 0.020 -0.924 0.381 180 160 135 0 0
-1.5856 1.6297 0.0682 0.145 -0.878 0.456 181 161 137 0 0
-1.5689 1.6663 0.0550 0.399 -0.103 0.911 204 191 170 0 0
-1.5651 1.6666 0.0534 0.399 -0.103 0.911 204 191 172 0 0
-1.5468 1.6560 0.0477 0.274 -0.113 0.955 192 174 151 0 0
-1.5277 1.6418 0.0422 0.035 -0.240 0.970 188 171 149 0 0
-1.4937 1.6605 0.0250 0.666 -0.676 0.316 191 174 155 0 0
-1.4386 1.6058 0.0116 0.293 -0.535 0.792 188 169 149 0 0
-1.3577 1.6254 -0.0251 0.546 -0.838 0.009 184 163 141 0 0
-1.3545 1.6295 -0.0271 0.500 -0.865 -0.037 185 165 144 0 0
-1.3514 1.6336 -0.0291 -0.411 -0.900 -0.145 186 168 145 0 0
-1.1950 1.6473 -0.0960 0.141 -0.173 0.975 190 171 150 0 0
-0.9819 0.6544 -0.0144 -0.246 -0.943 0.226 183 146 65 0 0
-0.9796 0.6542 -0.0154 0.031 -0.995 0.094 166 125 64 0 0
-0.9773 0.6541 -0.0163 0.031 -0.995 0.094 138 90 47 0 0
-0.9750 0.6541 -0.0173 0.031 -0.995 0.094 152 98 59 0 0
-0.9727 0.6551 -0.0184 0.031 -0.989 0.147 144 89 57 0 0
-0.9680 0.6558 -0.0204 0.641 -0.517 0.567 140 83 54 0 0
-0.9610 0.6505 -0.0224 -0.132 -0.957 -0.257 135 77 46 0 0
-0.9586 0.6488 -0.0231 -0.355 -0.859 -0.368 134 77 47 0 0
-0.9563 0.6508 -0.0244 -0.796 -0.504 0.337 134 77 47 0 0
-0.9448 0.6808 -0.0343 0.048 -0.491 0.870 137 82 45 0 0
-0.9424 0.6797 -0.0351 0.048 -0.491 0.870 139 85 48 0 0
-0.9377 0.6638 -0.0343 0.069 -0.917 0.393 144 91 45 0 0
-0.9078 0.7255 -0.0572 -0.729 -0.665 -0.163 254 238 105 0 0
-0.8953 0.7285 -0.0628 -0.763 -0.366 -0.533 254 254 206 0 0
-0.8930 0.7238 -0.0630 -0.387 -0.419 -0.821 255 255 239 0 0
-0.8857 0.7182 -0.0650 -0.374 -0.514 -0.772 255 254 254 0 0
-0.8833 0.7161 -0.0657 0.712 -0.484 -0.509 255 255 249 0 0
-0.8707 0.7217 -0.0718 0.913 -0.273 0.302 251 241 121 0 0
-0.8678 0.7286 -0.0742 0.913 -0.273 0.302 244 231 107 0 0
-0.8187 0.7427 -0.0968 0.947 -0.306 -0.098 178 148 60 0 0
-0.7861 0.6926 -0.1017 0.627 -0.718 -0.303 166 146 71 0 0
-0.7830 0.6980 -0.1039 0.256 -0.905 -0.340 175 156 87 0 0
-0.7667 0.7085 -0.1125 0.414 -0.874 -0.253 185 166 115 0 0
-0.7642 0.7081 -0.1134 -0.162 -0.915 0.369 193 170 114 0 0
-0.7371 0.8707 -0.1524 0.103 -0.659 -0.745 190 164 104 0 0
-0.6339 1.5412 -0.3094 0.812 -0.475 -0.340 177 154 122 0 0
-0.6298 1.5409 -0.3110 0.934 -0.319 -0.162 179 157 126 0 0
-0.4511 1.6033 -0.3954 -0.074 -0.582 0.810 191 174 159 0 0
-0.4469 1.6026 -0.3970 0.131 -0.730 0.670 189 173 158 0 0
-0.4435 1.5988 -0.3978 0.249 -0.470 0.847 184 167 152 0 0
-0.4348 1.5996 -0.4015 0.509 -0.284 0.812 180 161 148 0 0
-0.4275 1.5937 -0.4035 0.210 -0.405 0.890 184 166 152 0 0
-0.4063 1.5404 -0.4032 0.592 -0.329 0.735 199 185 172 0 0
-0.4013 1.5436 -0.4057 0.592 -0.329 0.735 198 184 171 0 0
-0.3968 1.5450 -0.4079 0.405 -0.288 0.868 197 183 170 0 0
-0.3916 1.5486 -0.4106 0.344 -0.360 0.867 196 182 167 0 0
-0.3885 1.5445 -0.4112 0.258 -0.281 0.925 193 179 165 0 0
-0.3515 1.5723 -0.4312 0.698 -0.479 0.532 180 162 146 0 0
-0.3391 1.5708 -0.4361 -0.450 -0.538 0.713 189 171 156 0 0
-0.3421 1.5441 -0.4302 -0.130 -0.609 0.782 191 174 159 0 0
-0.3402 1.5359 -0.4297 0.492 -0.774 0.399 191 175 160 0 0
-0.3360 1.5356 -0.4313 0.509 -0.614 0.604 193 176 161 0 0
-0.3309 1.5390 -0.4340 0.587 -0.538 0.605 192 177 162 0 0
-0.3265 1.5394 -0.4359 0.060 -0.472 0.879 192 178 163 0 0
-0.3216 1.5419 -0.4384 0.549 -0.468 0.692 194 180 168 0 0
-0.3200 1.5325 -0.4374 0.547 -0.336 0.767 197 183 171 0 0
-0.3006 1.5411 -0.4469 0.495 -0.246 0.833 193 180 170 0 0
-0.2261 1.5341 -0.4764 0.611 -0.751 0.251 172 153 141 0 0
-0.2206 1.5376 -0.4793 0.585 -0.739 0.335 171 153 141 0 0
-0.2165 1.5371 -0.4809 0.364 -0.509 0.780 173 155 143 0 0
-0.2089 1.5472 -0.4858 -0.030 -0.299 0.954 177 159 147 0 0
-0.1439 1.5358 -0.5106 0.361 -0.450 0.817 184 170 160 0 0
-0.0632 1.5208 -0.5414 0.510 -0.637 0.578 177 163 154 0 0
-0.0074 1.5396 -0.5676 0.603 -0.789 0.121 184 171 163 0 0
-0.0019 1.5422 -0.5703 0.524 -0.835 -0.170 187 174 165 0 0
0.0173 1.5560 -0.5806 0.305 -0.736 0.604 185 171 161 0 0
0.1483 1.5057 -0.6261 0.319 -0.448 0.835 194 184 183 0 0
0.2051 1.5043 -0.6492 0.635 -0.391 0.667 190 182 180 0 0
0.2121 1.5091 -0.6530 0.625 -0.404 0.668 191 183 181 0 0
0.2140 1.5043 -0.6529 0.207 -0.326 0.922 194 186 184 0 0
0.2209 1.5006 -0.6551 -0.185 -0.375 0.908 192 184 182 0 0
0.2272 1.4879 -0.6556 0.685 -0.496 0.534 180 171 167 0 0
0.2373 1.4982 -0.6615 0.687 -0.578 0.439 181 172 167 0 0
0.2779 1.5229 -0.6824 0.314 -0.934 0.169 189 180 177 0 0
0.3230 1.4846 -0.6945 0.144 -0.768 0.624 181 172 166 0 0
0.3458 1.4707 -0.7015 -0.099 -0.745 0.660 178 169 163 0 0
0.3510 1.4720 -0.7039 0.287 -0.957 0.042 176 167 162 0 0
0.3609 1.4735 -0.7083 0.621 -0.730 0.287 173 162 156 0 0
0.4015 1.4955 -0.7288 0.382 -0.235 0.894 181 170 166 0 0
0.3971 1.4814 -0.7246 0.022 -0.135 0.991 181 171 169 0 0
-2.0457 1.6374 0.2521 -0.561 -0.455 0.692 180 160 136 0 0
-2.0374 1.6502 0.2465 0.071 -0.555 -0.829 178 157 133 0 0
-1.9739 1.6230 0.2250 0.103 -0.406 0.908 173 152 125 0 0
-1.9690 1.6200 0.2235 -0.089 -0.391 0.916 168 146 121 0 0
-1.9633 1.6155 0.2219 -0.105 -0.358 0.928 171 148 124 0 0
-1.9186 1.6292 0.2011 0.243 -0.225 0.944 175 155 130 0 0
-1.8989 1.6431 0.1906 0.110 -0.211 0.971 178 158 133 0 0
-1.8870 1.6411 0.1860 0.432 -0.199 0.880 178 158 134 0 0
-1.8838 1.6422 0.1845 0.248 -0.320 0.914 174 153 129 0 0
-1.8805 1.6433 0.1829 -0.133 -0.405 0.905 173 153 129 0 0
-1.8638 1.6294 0.1784 -0.052 -0.253 0.966 177 157 133 0 0
-1.8342 1.6478 0.1630 0.014 -0.450 0.893 179 159 134 0 0
-1.8293 1.6448 0.1615 -0.084 -0.478 0.874 179 160 134 0 0
-1.7982 1.6412 0.1493 0.543 -0.836 0.081 177 157 133 0 0
-1.7752 1.6293 0.1419 -0.459 -0.685 0.566 183 162 140 0 0
-1.6676 1.6200 0.0991 -0.318 -0.644 0.695 179 162 139 0 0
-1.6552 1.6163 0.0946 0.460 -0.267 0.847 181 161 137 0 0
-1.6559 1.6797 0.0839 0.905 -0.238 0.352 180 160 136 0 0
-1.6266 1.6463 0.0776 -0.524 -0.742 0.417 185 166 143 0 0
-1.5864 1.6258 0.0645 0.169 -0.628 0.760 184 164 139 0 0
-1.5736 1.6205 0.0602 0.183 -0.587 0.789 187 168 143 0 0
-1.5691 1.6182 0.0587 0.258 -0.554 0.791 185 167 142 0 0
-1.5656 1.6191 0.0571 0.265 -0.595 0.759 188 171 148 0 0
-1.5541 1.6469 0.0475 0.211 -0.117 0.970 195 179 157 0 0
-1.5366 1.6387 0.0417 0.242 -0.165 0.956 188 172 149 0 0
-1.5326 1.6385 0.0402 0.670 -0.235 0.704 184 167 144 0 0
-1.5276 1.6337 0.0389 0.012 -0.265 0.964 180 162 140 0 0
-1.5232 1.6316 0.0374 0.442 -0.375 0.815 180 161 138 0 0
-1.5208 1.6374 0.0355 0.185 -0.294 0.938 184 166 143 0 0
-1.5165 1.6352 0.0340 0.462 -0.202 0.863 185 167 144 0 0
-1.4577 1.5977 0.0163 0.285 -0.239 0.928 189 171 150 0 0
-1.4535 1.5957 0.0149 0.061 -0.261 0.963 189 172 151 0 0
-1.4430 1.6000 0.0098 0.582 -0.495 0.645 186 169 146 0 0
-1.3773 1.6570 -0.0272 0.126 -0.769 0.627 190 172 151 0 0
-1.3452 1.6544 -0.0400 0.631 -0.273 0.726 184 166 142 0 0
-1.1290 1.6065 -0.1210 0.258 -0.701 0.665 198 180 157 0 0
-0.9853 0.6550 -0.0159 -0.517 -0.797 0.312 192 153 64 0 0
-0.9829 0.6539 -0.0167 -0.262 -0.889 0.376 180 140 58 0 0
-0.9806 0.6535 -0.0176 -0.108 -0.939 0.326 157 115 53 0 0
-0.9782 0.6529 -0.0184 -0.108 -0.939 0.326 140 93 50 0 0
-0.9759 0.6523 -0.0193 -0.130 -0.927 0.352 152 95 59 0 0
-0.9736 0.6516 -0.0202 -0.168 -0.897 0.410 142 86 55 0 0
-0.9504 0.6639 -0.0318 0.360 -0.805 -0.471 135 79 45 0 0
-0.9434 0.6727 -0.0363 -0.346 -0.573 0.743 140 84 49 0 0
-0.9387 0.6618 -0.0363 0.132 -0.979 0.154 144 90 46 0 0
-0.9166 0.7085 -0.0535 0.743 -0.470 -0.476 237 220 88 0 0
-0.9112 0.7290 -0.0593 -0.544 -0.835 0.086 250 232 105 0 0
-0.9088 0.7256 -0.0597 -0.525 -0.761 0.381 253 235 105 0 0
-0.9064 0.7234 -0.0603 -0.388 -0.851 0.354 250 235 102 0 0
-0.8960 0.7356 -0.0667 0.196 -0.520 0.832 252 249 149 0 0
-0.8939 0.7249 -0.0657 0.070 -0.179 0.981 253 253 189 0 0
-0.8626 0.7488 -0.0827 0.753 -0.195 0.629 216 197 95 0 0
-0.8255 0.7343 -0.0956 -0.808 -0.556 -0.193 165 136 60 0 0
-0.8067 0.6704 -0.0923 0.027 -0.401 0.916 213 195 93 0 0
-0.8044 0.6690 -0.0930 0.036 -0.401 0.915 202 180 87 0 0
-0.7994 0.6707 -0.0954 0.522 -0.631 0.574 175 150 70 0 0
-0.7676 0.7085 -0.1150 0.305 -0.911 -0.278 177 159 107 0 0
-0.7623 0.7103 -0.1175 0.117 -0.929 -0.351 192 168 109 0 0
-0.7360 0.8869 -0.1589 -0.274 -0.521 -0.808 190 165 106 0 0
-0.4516 1.5880 -0.3975 0.268 -0.345 0.900 190 173 157 0 0
-0.4475 1.5872 -0.3990 0.268 -0.345 0.900 187 169 155 0 0
-0.4439 1.5844 -0.4000 0.365 -0.242 0.899 186 170 156 0 0
-0.4387 1.5886 -0.4029 0.509 -0.284 0.812 185 170 155 0 0
-0.4340 1.5904 -0.4052 0.574 -0.347 0.742 186 169 155 0 0
-0.4188 1.5289 -0.4008 0.357 -0.269 0.895 201 187 173 0 0
-0.4123 1.5389 -0.4052 0.413 -0.517 0.749 199 186 171 0 0
-0.4073 1.5421 -0.4078 0.204 -0.644 0.737 198 184 169 0 0
-0.3986 1.5432 -0.4116 0.447 -0.513 0.733 197 184 169 0 0
-0.3949 1.5410 -0.4127 0.239 -0.353 0.904 198 184 169 0 0
-0.3542 1.5673 -0.4341 0.771 -0.471 0.429 186 169 155 0 0
-0.3507 1.5332 -0.4296 0.590 -0.704 0.395 193 178 165 0 0
-0.3453 1.5376 -0.4326 0.506 -0.522 0.687 195 179 165 0 0
-0.3363 1.5395 -0.4367 0.399 -0.604 0.689 194 178 163 0 0
-0.3331 1.5357 -0.4373 0.326 -0.503 0.800 193 179 164 0 0
-0.3290 1.5352 -0.4389 0.267 -0.530 0.805 194 180 166 0 0
-0.3249 1.5349 -0.4406 0.300 -0.484 0.822 197 183 171 0 0
-0.3203 1.5361 -0.4427 0.068 -0.349 0.935 199 186 174 0 0
-0.2746 1.5330 -0.4610 0.510 -0.389 0.767 188 172 160 0 0
-0.2702 1.5333 -0.4629 0.351 -0.296 0.888 191 175 164 0 0
-0.2483 1.5489 -0.4746 0.124 -0.202 0.971 188 174 162 0 0
-0.2332 1.5294 -0.4775 0.082 -0.836 0.543 180 163 150 0 0
-0.2290 1.5291 -0.4792 0.418 -0.813 0.407 176 158 146 0 0
-0.2244 1.5301 -0.4813 0.403 -0.779 0.481 177 159 148 0 0
-0.2173 1.5387 -0.4857 0.086 -0.290 0.953 180 163 151 0 0
-0.2124 1.5405 -0.4880 -0.159 -0.289 0.944 180 163 153 0 0
-0.1603 1.5295 -0.5076 0.386 -0.439 0.812 181 167 158 0 0
-0.0677 1.5128 -0.5430 0.107 -0.649 0.753 176 160 151 0 0
0.1310 1.4996 -0.6227 0.115 -0.323 0.939 176 165 159 0 0
0.1435 1.4983 -0.6277 0.108 -0.110 0.988 188 178 176 0 0
0.1507 1.5037 -0.6315 0.592 -0.375 0.713 186 176 174 0 0
0.1702 1.4819 -0.6358 0.522 -0.258 0.813 190 182 180 0 0
0.2200 1.4766 -0.6555 0.632 -0.444 0.635 188 179 175 0 0
0.2303 1.4873 -0.6616 0.708 -0.534 0.462 188 179 174 0 0
0.2386 1.4943 -0.6662 0.708 -0.534 0.462 188 179 175 0 0
0.3135 1.4778 -0.6943 0.129 -0.853 0.505 185 176 173 0 0
0.3184 1.4785 -0.6964 0.421 -0.597 0.683 180 171 166 0 0
0.3441 1.4696 -0.7055 0.310 -0.951 -0.012 177 168 161 0 0
0.3500 1.4719 -0.7083 0.175 -0.979 -0.100 177 168 163 0 0
0.3584 1.4710 -0.7116 0.436 -0.841 0.322 175 165 159 0 0
0.3971 1.4617 -0.7260 0.205 -0.073 0.976 181 172 167 0 0
-2.0218 1.6282 0.2394 0.915 -0.137 0.379 184 162 138 0 0
-1.9729 1.6161 0.2213 0.132 -0.407 0.904 174 153 126 0 0
-1.9669 1.6108 0.2197 -0.015 -0.385 0.923 171 150 123 0 0
-1.9633 1.6109 0.2182 -0.255 -0.432 0.865 173 151 126 0 0
-1.9559 1.6025 0.2167 0.039 -0.349 0.936 176 156 131 0 0
-1.9418 1.6192 0.2079 0.087 -0.395 0.915 168 146 121 0 0
-1.9349 1.6283 0.2035 0.733 -0.295 0.613 164 143 117 0 0
-1.9229 1.6174 0.2004 0.672 -0.362 0.646 172 152 126 0 0
-1.9202 1.6196 0.1989 0.672 -0.362 0.646 173 152 127 0 0
-1.9158 1.6263 0.1959 0.500 -0.390 0.773 169 148 125 0 0
-1.9119 1.6257 0.1944 0.349 -0.480 0.805 171 151 127 0 0
-1.8778 1.6315 0.1793 -0.202 -0.418 0.886 172 150 127 0 0
-1.8723 1.6271 0.1778 0.005 -0.273 0.962 175 153 130 0 0
-1.8658 1.6203 0.1763 -0.176 -0.380 0.908 174 154 130 0 0
-1.8596 1.6138 0.1748 -0.176 -0.380 0.908 177 157 133 0 0
-1.8327 1.6385 0.1594 0.010 -0.384 0.923 183 163 138 0 0
-1.8139 1.6284 0.1534 0.044 -0.518 0.854 169 148 123 0 0
-1.8034 1.6396 0.1471 0.371 -0.812 0.451 187 168 147 0 0
-1.7965 1.6411 0.1440 0.484 -0.825 0.292 171 150 127 0 0
-1.7764 1.6271 0.1382 -0.493 -0.723 0.485 176 155 131 0 0
-1.6891 1.6338 0.1009 0.487 -0.740 0.464 160 138 115 0 0
-1.6857 1.6350 0.0993 0.487 -0.740 0.464 165 143 120 0 0
-1.6626 1.6099 0.0942 0.135 -0.518 0.845 177 158 134 0 0
-1.6586 1.6091 0.0926 0.324 -0.475 0.818 178 158 134 0 0
-1.6542 1.6070 0.0912 0.447 -0.270 0.853 183 163 139 0 0
-1.6462 1.6665 0.0775 0.385 -0.067 0.921 180 160 136 0 0
-1.6295 1.6491 0.0736 0.203 -0.170 0.964 185 165 143 0 0
-1.5997 1.6256 0.0654 0.328 -0.774 0.541 177 157 132 0 0
-1.5467 1.6262 0.0434 0.188 -0.096 0.977 191 174 153 0 0
-1.4911 1.5869 0.0273 0.520 -0.219 0.826 183 166 143 0 0
-1.4538 1.5889 0.0116 0.361 -0.292 0.886 184 166 144 0 0
-1.4485 1.5825 0.0105 0.837 -0.393 0.382 185 167 145 0 0
-1.4350 1.6244 -0.0024 -0.142 -0.318 0.937 185 167 146 0 0
-1.3460 1.6484 -0.0434 0.295 -0.104 0.950 192 176 155 0 0
-0.9815 0.6527 -0.0198 0.101 -0.925 0.365 145 102 42 0 0
-0.9792 0.6526 -0.0207 0.101 -0.925 0.365 142 96 52 0 0
-0.9769 0.6525 -0.0217 0.101 -0.925 0.365 149 92 57 0 0
-0.9443 0.6686 -0.0379 -0.037 -0.695 0.718 139 82 46 0 0
-0.9073 0.7260 -0.0633 -0.694 -0.713 -0.100 242 226 82 0 0
-0.9046 0.7356 -0.0661 0.827 -0.562 -0.025 237 220 72 0 0
-0.8974 0.7243 -0.0671 0.263 -0.252 0.931 250 237 109 0 0
-0.8952 0.7179 -0.0669 0.070 -0.179 0.981 251 242 122 0 0
-0.8903 0.7164 -0.0686 -0.739 -0.454 0.498 254 251 188 0 0
-0.8879 0.7124 -0.0689 0.380 -0.909 0.171 254 254 176 0 0
-0.8755 0.7135 -0.0742 0.077 -0.970 0.231 227 211 90 0 0
-0.8729 0.7160 -0.0757 0.023 -0.652 0.758 217 196 91 0 0
-0.8705 0.7140 -0.0764 0.574 -0.819 0.012 211 189 83 0 0
-0.8057 0.6653 -0.0946 0.021 -0.721 0.692 171 145 64 0 0
-0.8034 0.6645 -0.0955 0.021 -0.721 0.692 200 177 83 0 0
-0.8007 0.6665 -0.0969 0.444 -0.622 0.645 211 192 87 0 0
-0.7911 0.6872 -0.1045 0.744 -0.559 -0.366 209 189 95 0 0
-0.7664 0.7057 -0.1179 -0.064 -0.862 0.503 195 174 118 0 0
-0.3794 1.5411 -0.4239 0.448 -0.689 0.569 191 177 160 0 0
-0.3763 1.5369 -0.4245 0.645 -0.636 0.424 190 175 160 0 0
-0.3526 1.5311 -0.4333 0.391 -0.432 0.813 192 178 164 0 0
-0.3496 1.5266 -0.4337 0.305 -0.329 0.894 193 178 163 0 0
-0.3396 1.5324 -0.4389 0.560 -0.430 0.709 190 173 158 0 0
-0.3377 1.5240 -0.4382 0.629 -0.504 0.592 190 175 159 0 0
-0.3321 1.5290 -0.4414 0.675 -0.549 0.493 192 177 162 0 0
-0.3279 1.5291 -0.4431 0.016 -0.685 0.729 193 179 166 0 0
-0.3247 1.5255 -0.4438 -0.521 -0.398 0.755 193 179 166 0 0
-0.2836 1.5216 -0.4601 0.309 -0.418 0.854 196 182 173 0 0
-0.2790 1.5227 -0.4622 0.369 -0.574 0.731 196 182 172 0 0
-0.2744 1.5240 -0.4643 0.351 -0.296 0.888 198 184 174 0 0
-0.2500 1.5339 -0.4761 0.271 -0.208 0.940 194 179 170 0 0
-0.2304 1.5416 -0.4856 0.370 -0.515 0.773 190 175 165 0 0
-0.2261 1.5417 -0.4874 0.039 -0.598 0.800 185 170 161 0 0
-0.2240 1.5352 -0.4871 -0.354 -0.364 0.861 186 171 161 0 0
-0.2165 1.5318 -0.4896 -0.659 -0.400 0.637 192 178 169 0 0
-0.2098 1.5265 -0.4915 -0.375 -0.461 0.805 197 185 176 0 0
-0.2037 1.5192 -0.4927 -0.252 -0.551 0.795 193 180 169 0 0
-0.0107 1.5374 -0.5756 0.719 -0.678 -0.155 184 171 162 0 0
0.1118 1.4895 -0.6178 0.620 -0.633 0.463 184 173 167 0 0
0.1296 1.4901 -0.6253 0.230 -0.238 0.944 181 169 163 0 0
0.1344 1.4911 -0.6275 0.108 -0.110 0.988 181 171 165 0 0
0.1373 1.4880 -0.6281 0.108 -0.110 0.988 184 171 168 0 0
0.1419 1.4886 -0.6301 -0.216 -0.189 0.958 182 171 168 0 0
0.1825 1.4741 -0.6444 0.148 -0.245 0.958 189 181 179 0 0
0.1914 1.4825 -0.6495 0.673 -0.394 0.626 189 182 180 0 0
0.1984 1.4874 -0.6533 0.712 -0.561 0.422 193 186 183 0 0
0.2533 1.4906 -0.6765 0.565 -0.300 0.769 188 178 175 0 0
0.3440 1.4709 -0.7105 -0.180 -0.517 0.837 175 166 159 0 0
0.3498 1.4731 -0.7133 0.137 -0.812 0.567 174 165 157 0 0
-2.0250 1.6081 0.2397 0.884 -0.383 0.270 180 161 133 0 0
-2.0243 1.6140 0.2384 0.909 -0.209 0.362 181 162 137 0 0
-2.0284 1.6529 0.2332 -0.129 -0.966 0.226 181 160 134 0 0
-1.9881 1.6134 0.2236 0.645 -0.315 0.696 176 155 128 0 0
-1.9789 1.6089 0.2205 0.696 -0.330 0.638 175 154 127 0 0
-1.9658 1.6038 0.2160 -0.248 -0.419 0.873 170 146 120 0 0
-1.9403 1.6112 0.2042 0.056 -0.400 0.915 167 146 120 0 0
-1.9365 1.6107 0.2027 0.275 -0.506 0.817 168 147 120 0 0
-1.9123 1.6048 0.1937 0.257 -0.717 -0.648 161 139 115 0 0
-1.8972 1.6033 0.1877 -0.580 -0.678 0.452 177 156 132 0 0
-1.8948 1.6061 0.1862 0.052 -0.949 0.311 175 155 130 0 0
-1.8920 1.6081 0.1847 -0.218 -0.586 0.781 173 153 128 0 0
-1.7121 1.6182 0.1086 -0.352 -0.503 0.789 176 155 131 0 0
-1.6894 1.5951 0.1033 -0.284 -0.770 0.571 160 138 114 0 0
-1.6533 1.5980 0.0879 0.447 -0.270 0.853 182 163 140 0 0
-1.6415 1.6446 0.0747 0.175 -0.096 0.980 178 159 136 0 0
-1.6370 1.6423 0.0733 0.044 -0.109 0.993 182 163 139 0 0
-1.6313 1.6358 0.0720 0.175 -0.096 0.980 183 164 141 0 0
-1.6259 1.6305 0.0707 0.198 -0.064 0.978 182 164 140 0 0
-1.6174 1.6532 0.0632 0.766 -0.382 0.517 184 165 140 0 0
-1.5598 1.6252 0.0444 0.560 -0.086 0.824 201 186 164 0 0
-1.5532 1.6291 0.0410 0.246 -0.198 0.949 189 173 150 0 0
-1.5484 1.6254 0.0396 0.370 -0.174 0.913 187 170 146 0 0
-1.5405 1.6242 0.0366 0.123 -0.319 0.940 183 165 141 0 0
-1.5319 1.6207 0.0336 0.745 -0.404 0.531 179 159 135 0 0
-1.5144 1.6120 0.0280 0.403 -0.161 0.901 176 155 134 0 0
-1.4829 1.6236 0.0129 -0.077 -0.285 0.955 185 167 143 0 0
-1.4386 1.6150 -0.0039 0.005 -0.476 0.880 188 171 150 0 0
-1.4345 1.6138 -0.0054 -0.360 -0.424 0.831 186 168 147 0 0
-1.4161 1.5814 -0.0073 -0.731 -0.453 0.511 189 172 153 0 0
-1.4157 1.5976 -0.0103 -0.185 -0.973 0.137 190 173 154 0 0
-1.3927 1.6359 -0.0266 0.537 -0.433 0.724 189 171 150 0 0
-1.3770 1.5959 -0.0260 0.624 -0.610 0.488 186 166 146 0 0
-1.3743 1.6014 -0.0281 0.836 -0.423 0.349 194 177 157 0 0
-1.1316 1.5968 -0.1276 0.678 -0.243 0.694 205 188 168 0 0
-0.9453 0.6665 -0.0399 -0.037 -0.695 0.718 139 80 43 0 0
-0.9430 0.6637 -0.0404 0.170 -0.878 0.447 143 87 44 0 0
-0.9261 0.6950 -0.0529 0.571 -0.465 -0.677 210 176 61 0 0
-0.9056 0.7359 -0.0687 0.564 -0.826 0.026 232 214 73 0 0
-0.9007 0.7322 -0.0700 0.623 -0.406 0.669 233 216 88 0 0
-0.8938 0.7152 -0.0699 -0.549 -0.650 0.525 245 231 123 0 0
-0.8913 0.7136 -0.0706 -0.637 -0.704 0.315 242 231 126 0 0
-0.8890 0.7102 -0.0709 0.504 -0.858 0.100 247 236 132 0 0
-0.8791 0.7115 -0.0753 -0.154 -0.855 0.495 214 196 83 0 0
-0.8740 0.7145 -0.0779 -0.180 -0.288 0.941 196 172 66 0 0
-0.8596 0.7479 -0.0898 -0.383 -0.750 -0.540 191 170 72 0 0
-0.8092 0.6635 -0.0957 -0.443 -0.206 0.872 176 149 70 0 0
-0.8068 0.6633 -0.0966 0.021 -0.721 0.692 208 187 93 0 0
-0.8046 0.6612 -0.0972 -0.261 -0.651 0.713 215 197 94 0 0
-0.8018 0.6646 -0.0989 0.446 -0.707 0.549 212 193 92 0 0
-0.7951 0.6815 -0.1047 0.825 -0.487 -0.288 210 191 90 0 0
-0.7918 0.6886 -0.1073 0.678 -0.541 -0.497 210 190 90 0 0
-0.7564 0.7495 -0.1327 0.820 -0.545 -0.173 189 166 109 0 0
-0.4249 1.5152 -0.4054 0.436 -0.584 0.684 193 177 161 0 0
-0.4169 1.5308 -0.4114 0.533 -0.835 0.141 194 178 163 0 0
-0.4132 1.5290 -0.4126 0.308 -0.825 0.473 194 176 161 0 0
-0.3624 1.5152 -0.4312 0.384 -0.190 0.903 190 176 164 0 0
-0.3568 1.5204 -0.4344 0.369 -0.204 0.907 190 175 161 0 0
-0.3347 1.5243 -0.4442 0.753 -0.440 0.490 186 170 154 0 0
-0.3309 1.5230 -0.4456 0.429 -0.776 0.462 190 174 159 0 0
-0.2910 1.5154 -0.4607 0.585 -0.507 0.633 198 185 174 0 0
-0.2870 1.5148 -0.4623 0.341 -0.485 0.805 199 186 177 0 0
-0.2827 1.5151 -0.4641 0.181 -0.381 0.907 201 188 179 0 0
-0.2396 1.5307 -0.4847 0.546 -0.332 0.769 201 188 180 0 0
-0.2349 1.5318 -0.4868 0.670 -0.507 0.543 199 187 179 0 0
-0.2233 1.5283 -0.4910 -0.665 -0.297 0.685 201 190 184 0 0
-0.1905 1.4877 -0.4974 0.382 -0.434 0.816 188 172 162 0 0
-0.1563 1.5119 -0.5158 0.686 -0.488 0.539 184 169 158 0 0
-0.0297 1.5059 -0.5671 0.785 -0.489 0.380 183 170 162 0 0
-0.0140 1.5220 -0.5764 0.753 -0.447 0.483 179 166 157 0 0
0.0506 1.4821 -0.5961 -0.331 -0.907 -0.262 180 167 158 0 0
0.0573 1.4688 -0.5965 -0.355 -0.852 0.386 170 156 148 0 0
0.0608 1.4672 -0.5976 -0.200 -0.786 0.585 168 154 145 0 0
0.0678 1.4639 -0.6000 -0.217 -0.791 0.572 175 162 155 0 0
0.0646 1.4483 -0.5959 0.361 -0.858 0.364 177 166 159 0 0
0.0690 1.4485 -0.5977 0.475 -0.751 0.459 180 169 163 0 0
0.1131 1.4856 -0.6225 0.374 -0.738 0.562 184 174 169 0 0
0.1233 1.4798 -0.6257 0.242 -0.202 0.949 178 166 162 0 0
0.1317 1.4791 -0.6290 0.142 -0.157 0.977 179 167 161 0 0
0.1340 1.4751 -0.6293 0.086 -0.175 0.981 179 168 162 0 0
0.1917 1.4767 -0.6534 0.625 -0.404 0.668 189 180 177 0 0
0.2405 1.4695 -0.6723 0.497 -0.262 0.827 188 178 176 0 0
0.2737 1.4584 -0.6841 0.619 -0.780 0.091 184 174 172 0 0
0.3394 1.4721 -0.7137 0.447 -0.393 0.803 173 164 155 0 0
0.3414 1.4681 -0.7138 -0.421 -0.585 0.693 172 162 155 0 0
0.3445 1.4659 -0.7147 -0.255 -0.714 0.652 175 165 157 0 0
0.3486 1.4654 -0.7163 0.162 -0.667 0.727 176 166 161 0 0
0.3529 1.4652 -0.7181 0.278 -0.603 0.748 177 168 161 0 0
0.3722 1.4323 -0.7202 -0.428 -0.226 0.875 181 172 165 0 0
0.3850 1.4317 -0.7254 0.416 -0.080 0.906 180 171 166 0 0
0.3899 1.4324 -0.7275 0.459 -0.117 0.881 179 170 163 0 0
-2.0340 1.6074 0.2391 0.480 -0.046 0.876 181 161 136 0 0
-2.0312 1.6238 0.2350 0.718 0.056 0.694 178 158 133 0 0
-2.0266 1.6445 0.2294 0.030 -0.274 0.961 180 158 134 0 0
-2.0042 1.6123 0.2259 0.080 -0.240 0.968 180 160 134 0 0
-1.9917 1.6088 0.2214 -0.278 -0.473 0.836 174 153 125 0 0
-1.9833 1.6061 0.2184 0.462 -0.672 0.578 168 146 117 0 0
-1.9800 1.6067 0.2169 0.781 -0.412 0.469 171 147 119 0 0
-1.9388 1.6030 0.2005 0.056 -0.400 0.915 171 150 124 0 0
-1.9360 1.6049 0.1990 0.220 -0.520 0.826 172 151 124 0 0
-1.8898 1.5981 0.1811 -0.605 -0.748 0.272 172 149 126 0 0
-1.8756 1.6160 0.1720 0.168 -0.480 0.861 171 149 125 0 0
-1.8521 1.5854 0.1678 -0.609 -0.682 0.406 174 154 129 0 0
-1.8264 1.6214 0.1507 0.183 -0.702 0.688 188 170 147 0 0
-1.6905 1.5924 0.0997 -0.302 -0.816 0.494 160 138 115 0 0
-1.6867 1.5922 0.0982 0.487 -0.770 0.413 162 142 119 0 0
-1.6844 1.5962 0.0965 0.692 -0.583 0.427 169 147 123 0 0
-1.6536 1.5928 0.0843 0.546 -0.190 0.816 181 163 139 0 0
-1.6505 1.5947 0.0827 0.530 -0.189 0.826 183 165 142 0 0
-1.6470 1.6314 0.0747 0.015 -0.214 0.977 179 159 135 0 0
-1.6225 1.6127 0.0679 0.360 -0.189 0.913 184 164 143 0 0
-1.5821 1.5901 0.0552 -0.129 -0.269 0.954 195 179 159 0 0
-1.5743 1.5891 0.0522 -0.419 -0.730 0.540 197 183 164 0 0
-1.5734 1.5992 0.0500 0.378 -0.402 0.834 196 181 163 0 0
-1.5649 1.6089 0.0447 0.574 -0.233 0.785 193 177 155 0 0
-1.5618 1.6116 0.0430 0.705 -0.197 0.682 192 177 154 0 0
-1.5585 1.6134 0.0413 0.740 -0.153 0.655 192 176 154 0 0
-1.5517 1.6162 0.0380 0.420 -0.231 0.878 184 166 143 0 0
-1.5481 1.6168 0.0364 0.417 -0.268 0.869 184 165 142 0 0
-1.5431 1.6126 0.0351 0.331 -0.265 0.906 184 165 143 0 0
-1.5402 1.6158 0.0333 0.053 -0.295 0.954 185 166 144 0 0
-1.5355 1.6124 0.0320 0.053 -0.295 0.954 182 163 140 0 0
-1.5273 1.6101 0.0290 0.407 -0.425 0.809 181 163 139 0 0
-1.5195 1.6095 0.0259 0.137 -0.315 0.939 183 163 143 0 0
-1.5130 1.5987 0.0251 0.149 -0.202 0.968 185 166 145 0 0
-1.4862 1.5672 0.0197 0.505 -0.139 0.852 190 173 154 0 0
-1.4915 1.6038 0.0153 0.559 -0.070 0.826 190 172 151 0 0
-1.4883 1.6065 0.0135 0.376 -0.103 0.921 189 171 151 0 0
-1.4854 1.6103 0.0116 -0.462 -0.297 0.835 187 169 149 0 0
-1.4799 1.6029 0.0106 -0.350 -0.289 0.891 186 168 147 0 0
-1.4479 1.5797 0.0016 0.876 -0.461 0.144 186 168 146 0 0
-1.4460 1.5883 -0.0007 0.098 -0.506 0.857 187 170 148 0 0
-1.4420 1.5872 -0.0022 0.040 -0.429 0.902 191 175 153 0 0
-1.4383 1.6047 -0.0069 -0.078 -0.589 0.804 188 171 149 0 0
-1.4356 1.6099 -0.0089 -0.568 -0.648 0.506 187 168 144 0 0
-1.3740 1.5904 -0.0309 0.636 -0.272 0.722 188 170 148 0 0
-1.3641 1.5987 -0.0365 0.631 -0.298 0.717 196 179 159 0 0
-1.3379 1.6256 -0.0522 0.045 -0.131 0.990 189 171 149 0 0
-1.3333 1.6218 -0.0534 0.407 -0.108 0.907 186 167 145 0 0
-1.1358 1.5792 -0.1274 0.721 -0.179 0.670 206 191 171 0 0
-1.0006 0.6737 -0.0211 -0.935 -0.352 0.047 184 153 105 0 0
-0.9295 0.6918 -0.0538 0.549 -0.562 -0.619 184 139 45 0 0
-0.9270 0.6983 -0.0560 0.582 -0.476 -0.660 218 188 70 0 0
-0.9040 0.7365 -0.0723 0.768 -0.635 -0.080 224 205 78 0 0
