ply
format ascii 1.0
element vertex 818
property float x
property float y
property float z
property float nx
property float ny
property float nz
property uchar diffuse_red
property uchar diffuse_green
property uchar diffuse_blue
property uchar class
property uchar detection
end_header
-8.9768 -3.4379 -4.1700 0.518 -0.148 0.843 219 195 142 0 0
-8.9645 -3.4520 -4.1723 0.479 -0.042 0.877 220 197 146 0 0
-8.9578 -3.4705 -4.1774 0.475 0.014 0.880 219 196 144 0 0
-8.7617 -3.6510 -4.1982 0.140 0.188 0.972 217 191 137 0 0
-8.6152 -3.8273 -4.2283 -0.080 0.401 0.913 222 196 146 0 0
-6.4155 -2.4723 -3.2732 -0.520 0.776 0.355 212 164 31 0 0
-6.4318 -2.6365 -3.3345 -0.308 0.874 -0.376 219 182 40 0 0
-4.8982 -3.5500 -3.3220 0.232 0.675 0.701 225 228 186 0 0
-4.8760 -3.5423 -3.3145 0.453 0.891 -0.016 248 251 237 0 0
-4.8647 -3.5530 -3.3158 0.513 0.747 0.423 215 214 172 0 0
-4.8650 -3.7703 -3.3923 0.442 -0.305 0.844 184 164 112 0 0
-4.9262 -4.3546 -3.6110 0.807 0.560 0.186 113 81 31 0 0
-4.8926 -4.3983 -3.6191 0.662 0.750 -0.019 249 252 230 0 0
-4.8918 -4.4332 -3.6312 0.854 0.364 -0.372 126 126 65 0 0
-4.8808 -4.4485 -3.6342 0.716 0.540 -0.442 114 100 40 0 0
-4.9026 -7.1977 -4.6055 0.537 0.125 0.834 224 219 223 0 0
-4.7583 -7.2984 -4.6096 -0.006 0.361 0.933 217 208 208 0 0
-4.6414 -7.4148 -4.6251 0.228 0.079 0.970 221 215 217 0 0
-4.6254 -7.4339 -4.6283 -0.061 0.246 0.967 222 216 218 0 0
-4.6080 -7.4488 -4.6297 0.035 0.248 0.968 223 217 219 0 0
-4.1688 -7.6661 -4.6106 0.546 0.108 0.831 220 215 216 0 0
-4.1304 -7.6832 -4.6083 0.199 0.321 0.926 213 207 207 0 0
-4.0195 -7.7501 -4.6077 0.403 0.417 0.815 218 214 214 0 0
-3.9997 -7.7563 -4.6055 0.050 0.576 0.816 216 212 212 0 0
-3.9451 -7.7924 -4.6063 0.354 0.508 0.785 216 211 215 0 0
-3.6897 -7.9605 -4.6099 0.351 0.409 0.843 215 211 212 0 0
-3.6710 -7.9706 -4.6093 0.607 0.294 0.738 218 213 216 0 0
-3.6551 -7.9927 -4.6137 0.607 0.294 0.738 218 214 216 0 0
-3.6378 -8.0090 -4.6156 0.492 0.351 0.797 217 213 214 0 0
-3.5808 -8.0352 -4.6124 0.236 0.473 0.849 215 209 211 0 0
-3.5606 -8.0381 -4.6090 0.221 0.525 0.822 217 213 214 0 0
-3.1118 -8.5035 -4.6751 0.410 0.474 0.779 212 207 209 0 0
-3.0802 -8.5609 -4.6884 0.323 0.155 0.934 213 208 209 0 0
-2.7376 -8.7198 -4.6697 -0.091 0.073 0.993 215 213 217 0 0
-2.5536 -8.8499 -4.6754 0.215 0.155 0.964 210 208 213 0 0
-2.5328 -8.8420 -4.6681 0.322 -0.002 0.947 211 208 214 0 0
-2.5157 -8.8661 -4.6728 0.161 0.077 0.984 211 209 214 0 0
-2.4795 -8.8988 -4.6765 0.342 0.184 0.922 212 210 215 0 0
-2.3716 -9.0049 -4.6903 0.518 0.152 0.842 211 209 214 0 0
-2.3545 -9.0324 -4.6962 0.718 -0.017 0.696 211 209 214 0 0
-2.1154 -9.2283 -4.7131 -0.097 0.469 0.878 212 211 217 0 0
-2.0991 -9.2740 -4.7256 0.875 0.135 0.466 212 211 217 0 0
-2.0832 -9.3260 -4.7405 0.875 0.135 0.466 212 211 217 0 0
-2.0235 -9.3129 -4.7228 0.190 0.185 0.964 211 210 216 0 0
-1.9345 -9.4519 -4.7524 -0.343 0.937 0.071 211 210 216 0 0
-1.9145 -9.4451 -4.7456 -0.344 0.938 0.054 211 210 216 0 0
-1.8982 -9.5025 -4.7623 -0.473 0.844 0.252 211 210 217 0 0
-9.8452 -2.3613 -3.9601 0.636 0.043 0.770 211 187 137 0 0
-9.5771 -2.6558 -4.0051 0.177 0.277 0.945 212 185 134 0 0
-9.5720 -2.6730 -4.0100 0.386 0.255 0.886 210 184 133 0 0
-9.4906 -2.7652 -4.0246 -0.042 0.751 0.659 215 191 141 0 0
-9.3942 -2.9340 -4.0628 -0.065 0.181 0.981 217 191 140 0 0
-9.1411 -3.2183 -4.1075 0.352 -0.207 0.913 219 196 146 0 0
-9.0094 -3.4430 -4.1576 0.329 0.105 0.938 214 187 132 0 0
-8.9212 -3.5892 -4.1896 0.212 0.048 0.976 214 186 131 0 0
-8.7204 -3.8198 -4.2268 0.281 0.019 0.960 220 194 142 0 0
-8.6364 -3.8489 -4.2188 -0.064 0.390 0.919 220 193 140 0 0
-8.5910 -3.8602 -4.2129 0.382 -0.047 0.923 217 187 134 0 0
-6.4297 -2.5300 -3.2802 0.887 0.461 -0.026 214 168 33 0 0
-6.1669 -2.7085 -3.2857 0.537 0.301 -0.788 76 48 7 0 0
-4.8876 -3.5617 -3.3073 0.643 0.455 0.616 211 211 157 0 0
-4.8773 -3.5743 -3.3095 0.656 0.428 0.622 184 176 118 0 0
-4.8783 -3.6064 -3.3209 0.938 0.296 0.177 159 133 82 0 0
-4.9284 -4.3577 -3.5945 0.744 0.591 0.312 114 86 34 0 0
-4.9081 -4.3908 -3.6017 0.580 0.800 0.153 240 244 233 0 0
-4.8944 -4.4007 -3.6022 0.580 0.800 0.153 231 235 206 0 0
-4.8806 -4.4104 -3.6026 0.807 0.561 -0.186 104 99 50 0 0
-4.8842 -4.4540 -3.6186 0.893 0.423 -0.152 114 100 56 0 0
-5.2690 -6.9589 -4.5778 0.349 0.008 0.937 225 217 215 0 0
-4.9437 -7.1815 -4.5852 0.090 0.449 0.889 224 219 222 0 0
-4.9297 -7.2050 -4.5904 0.278 0.231 0.932 223 218 221 0 0
-4.9171 -7.2322 -4.5972 0.415 0.103 0.904 223 218 221 0 0
-3.9555 -7.8230 -4.5958 0.243 0.428 0.871 216 212 214 0 0
-3.7000 -7.9934 -4.6001 0.374 0.251 0.893 216 212 213 0 0
-3.6626 -8.0137 -4.5991 0.607 0.294 0.738 218 214 214 0 0
-3.6467 -8.0362 -4.6035 0.373 0.392 0.841 217 213 214 0 0
-3.1581 -8.5146 -4.6651 0.444 0.115 0.889 215 209 210 0 0
-2.5611 -8.8843 -4.6652 0.392 0.113 0.913 211 209 214 0 0
-2.5459 -8.9261 -4.6765 0.316 0.269 0.910 210 208 212 0 0
-2.5277 -8.9420 -4.6782 0.316 0.269 0.910 209 207 211 0 0
-2.4530 -8.9883 -4.6782 0.478 0.336 0.812 211 209 215 0 0
-2.3956 -9.0103 -4.6735 -0.283 0.457 0.843 209 206 212 0 0
-2.3791 -9.0433 -4.6814 0.678 0.281 0.679 211 208 214 0 0
-2.1043 -9.2914 -4.7087 0.794 -0.014 0.608 212 211 217 0 0
-2.0890 -9.3522 -4.7267 0.797 0.087 0.598 211 208 216 0 0
-2.0159 -9.4354 -4.7400 0.595 0.084 0.799 211 209 216 0 0
-1.8520 -9.6664 -4.7853 0.147 -0.048 0.988 211 210 216 0 0
-1.8338 -9.6968 -4.7920 -0.021 -0.012 1.000 212 211 217 0 0
-10.0682 -2.2051 -3.9335 0.378 0.337 0.862 203 175 124 0 0
-9.7564 -2.4690 -3.9581 0.569 0.030 0.822 213 189 138 0 0
-9.6727 -2.5976 -3.9849 0.188 0.760 0.623 212 189 139 0 0
-9.5992 -2.6735 -3.9955 0.211 0.355 0.911 209 182 130 0 0
-9.5850 -2.6850 -3.9964 0.381 0.343 0.859 209 182 131 0 0
-9.5766 -2.7002 -3.9999 0.497 0.174 0.850 209 182 131 0 0
-9.5324 -2.7545 -4.0093 0.229 0.763 0.604 214 189 137 0 0
-9.3855 -2.9315 -4.0392 -0.123 0.603 0.788 215 190 139 0 0
-9.3992 -3.0061 -4.0681 0.825 -0.028 0.565 216 192 138 0 0
-9.2973 -3.2004 -4.1138 0.008 0.069 0.998 216 191 137 0 0
-9.1334 -3.4009 -4.1482 0.210 0.059 0.976 212 185 131 0 0
-8.9368 -3.6050 -4.1769 0.420 0.018 0.908 214 188 132 0 0
-8.8121 -3.6994 -4.1829 0.230 -0.004 0.973 219 192 142 0 0
-8.6316 -3.8733 -4.2046 0.026 0.401 0.916 217 187 133 0 0
-6.4598 -2.6043 -3.2961 0.404 0.500 -0.766 216 173 37 0 0
-4.9092 -4.3919 -3.5842 0.453 0.826 0.335 254 254 251 0 0
-4.8961 -4.4030 -3.5852 0.574 0.799 0.177 181 189 147 0 0
-4.8854 -4.4186 -3.5883 0.769 0.636 0.067 135 128 86 0 0
-5.2863 -6.9967 -4.5711 0.263 0.031 0.964 225 217 215 0 0
-5.2660 -7.0040 -4.5693 0.305 0.413 0.858 225 217 215 0 0
-5.2560 -7.0359 -4.5783 0.415 0.634 0.652 224 216 214 0 0
-5.1807 -7.0789 -4.5770 0.682 0.078 0.728 225 217 215 0 0
-4.9539 -7.2649 -4.5929 0.139 0.079 0.987 221 215 217 0 0
-4.9267 -7.3148 -4.6044 0.102 0.207 0.973 222 214 215 0 0
-4.4901 -7.5529 -4.5933 -0.037 0.398 0.917 220 212 212 0 0
-4.3315 -7.6840 -4.6048 -0.009 0.387 0.922 222 216 218 0 0
-3.9146 -7.9040 -4.5916 0.534 0.285 0.796 217 212 216 0 0
-3.6923 -8.0394 -4.5909 0.339 0.202 0.919 217 213 214 0 0
-3.6752 -8.0570 -4.5933 0.305 0.288 0.908 216 212 213 0 0
-2.6720 -8.7800 -4.6289 0.757 0.269 0.596 210 208 213 0 0
-2.5530 -8.9571 -4.6649 0.316 0.269 0.910 207 205 210 0 0
-2.5165 -8.9890 -4.6682 0.316 0.269 0.910 211 209 214 0 0
-2.4593 -9.0145 -4.6648 0.613 0.451 0.649 210 208 214 0 0
-2.3849 -9.0654 -4.6664 0.678 0.281 0.679 210 208 214 0 0
-2.3685 -9.1008 -4.6752 0.664 -0.084 0.743 213 210 216 0 0
-2.1293 -9.3107 -4.6968 -0.009 0.293 0.956 214 213 219 0 0
-2.1108 -9.3281 -4.6988 0.757 0.043 0.652 212 211 216 0 0
-2.0945 -9.3739 -4.7112 0.823 0.127 0.553 209 207 214 0 0
-2.0786 -9.4289 -4.7270 -0.128 0.869 0.478 208 207 213 0 0
-2.0391 -9.4285 -4.7183 0.576 0.306 0.758 211 210 217 0 0
-2.0035 -9.4873 -4.7311 0.680 0.038 0.732 207 206 212 0 0
-1.9839 -9.4883 -4.7272 0.630 -0.045 0.775 204 202 208 0 0
-1.9677 -9.5458 -4.7438 0.630 -0.045 0.775 204 203 208 0 0
-1.9492 -9.5660 -4.7468 0.344 0.039 0.938 206 205 211 0 0
-1.9310 -9.5931 -4.7523 0.344 0.039 0.938 209 208 215 0 0
-1.8987 -9.7249 -4.7912 0.186 0.048 0.981 211 210 216 0 0
-1.8800 -9.7462 -4.7946 0.083 0.112 0.990 212 211 217 0 0
-1.8568 -9.6798 -4.7665 0.228 -0.107 0.968 211 210 216 0 0
-1.8387 -9.7131 -4.7742 0.259 -0.143 0.955 212 211 217 0 0
-10.0806 -2.2159 -3.9196 0.546 0.417 0.727 208 182 134 0 0
-9.9978 -2.3218 -3.9385 0.509 0.075 0.858 212 189 140 0 0
-9.7622 -2.5359 -3.9622 0.591 -0.201 0.781 215 192 144 0 0
-9.6163 -2.6881 -3.9836 0.141 0.194 0.971 209 183 133 0 0
-9.6099 -2.7047 -3.9880 0.195 0.280 0.940 211 183 132 0 0
-9.3888 -3.1125 -4.0817 0.452 0.108 0.885 215 191 137 0 0
-9.3862 -3.1329 -4.0882 0.635 0.654 0.411 216 191 135 0 0
-9.3712 -3.1446 -4.0890 0.269 0.244 0.932 213 188 134 0 0
-9.0654 -3.4936 -4.1444 0.172 0.324 0.930 216 191 136 0 0
-8.9677 -3.6089 -4.1633 0.727 0.106 0.679 218 192 141 0 0
-8.7757 -3.8737 -4.2138 0.508 0.274 0.816 214 184 130 0 0
-4.9297 -3.4834 -3.2563 0.896 0.256 0.362 200 177 55 0 0
-4.9290 -3.5117 -3.2659 0.896 0.113 0.429 195 161 44 0 0
-4.9120 -3.5727 -3.2834 0.729 0.262 0.633 184 143 58 0 0
-4.9117 -4.3958 -3.5680 0.496 0.791 0.358 252 254 250 0 0
-4.8979 -4.4054 -3.5683 0.574 0.799 0.177 135 144 100 0 0
-4.8847 -4.4163 -3.5693 0.409 0.900 0.151 165 154 114 0 0
-4.8764 -4.4367 -3.5746 0.855 0.488 0.175 167 153 143 0 0
-4.8979 -4.7434 -3.6852 0.977 -0.178 0.114 190 110 112 0 0
-4.9225 -7.3609 -4.5957 0.179 0.267 0.947 216 206 203 0 0
-4.5451 -7.5789 -4.5904 0.382 0.348 0.856 221 213 213 0 0
-4.5234 -7.5809 -4.5865 0.114 0.506 0.855 221 213 212 0 0
-4.5103 -7.6097 -4.5936 -0.035 0.313 0.949 221 212 213 0 0
-4.4287 -7.7050 -4.6091 0.005 0.372 0.928 222 216 217 0 0
-3.9137 -7.9750 -4.5923 0.548 0.107 0.829 218 214 215 0 0
-3.8805 -8.0142 -4.5988 0.433 0.102 0.895 219 214 216 0 0
-3.4465 -8.2488 -4.5871 0.212 0.081 0.974 218 216 221 0 0
-3.4292 -8.2663 -4.5895 0.239 0.047 0.970 219 217 220 0 0
-2.8018 -8.8206 -4.6470 0.219 0.187 0.958 216 212 217 0 0
-2.7620 -8.8262 -4.6404 -0.107 0.236 0.966 216 213 216 0 0
-2.7466 -8.8631 -4.6499 0.206 0.680 0.703 215 213 217 0 0
-2.6149 -8.9408 -4.6486 0.456 0.179 0.872 212 210 215 0 0
-2.4648 -9.0315 -4.6478 0.613 0.451 0.649 212 210 216 0 0
-2.3396 -9.1763 -4.6712 0.951 -0.005 0.309 210 207 214 0 0
-2.2917 -9.3071 -4.7061 0.126 0.662 0.739 212 209 216 0 0
-2.1346 -9.3302 -4.6805 0.033 0.294 0.955 215 213 218 0 0
-2.1164 -9.3506 -4.6837 0.869 0.110 0.483 212 211 217 0 0
-2.1002 -9.3990 -4.6969 0.823 0.127 0.553 210 209 215 0 0
-2.0840 -9.4499 -4.7111 0.244 0.720 0.649 209 208 214 0 0
-2.0647 -9.4562 -4.7091 0.224 0.312 0.923 210 209 216 0 0
-2.0460 -9.4721 -4.7106 0.330 0.125 0.936 211 210 218 0 0
-2.0301 -9.5307 -4.7275 0.608 -0.029 0.793 211 210 216 0 0
-2.0119 -9.5556 -4.7322 0.513 -0.072 0.855 209 208 213 0 0
-1.9918 -9.5519 -4.7267 0.515 -0.105 0.851 207 206 212 0 0
-1.9756 -9.6097 -4.7432 0.443 -0.108 0.890 207 206 212 0 0
-1.9058 -9.7800 -4.7871 0.186 0.048 0.981 211 210 216 0 0
-1.8863 -9.7883 -4.7859 0.226 0.191 0.955 211 210 216 0 0
-1.8486 -9.8287 -4.7918 0.310 -0.036 0.950 210 209 215 0 0
-10.1261 -2.2260 -3.9125 0.398 0.018 0.917 213 190 141 0 0
-10.0156 -2.3358 -3.9268 0.409 0.236 0.881 211 188 138 0 0
-10.0041 -2.3486 -3.9287 0.409 0.236 0.881 211 187 136 0 0
-9.7875 -2.5351 -3.9468 0.635 -0.225 0.739 214 191 142 0 0
-9.7868 -2.5546 -3.9534 0.635 -0.225 0.739 214 192 142 0 0
-9.7762 -2.5682 -3.9558 0.587 0.444 0.677 215 192 143 0 0
-9.7588 -2.5777 -3.9553 0.602 0.133 0.787 215 191 143 0 0
-9.7528 -2.5942 -3.9597 0.275 0.648 0.711 215 192 142 0 0
-9.7089 -2.6277 -3.9619 0.810 0.583 -0.067 213 190 141 0 0
-9.6829 -2.6725 -3.9718 0.981 0.185 -0.062 215 191 142 0 0
-9.6752 -2.6882 -3.9756 0.967 0.216 0.138 215 191 142 0 0
-9.6551 -2.6960 -3.9740 0.201 0.528 0.825 215 192 143 0 0
-9.6364 -2.7047 -3.9730 0.223 0.584 0.781 216 192 144 0 0
-9.6301 -2.7212 -3.9773 0.324 0.614 0.720 214 190 140 0 0
-9.3982 -3.1449 -4.0737 0.483 0.567 0.667 215 190 134 0 0
-9.3460 -3.2656 -4.1041 -0.216 0.296 0.930 215 190 135 0 0
-9.1944 -3.3372 -4.0965 0.043 0.163 0.986 218 193 141 0 0
-8.9901 -3.6302 -4.1539 0.564 -0.147 0.812 218 194 143 0 0
-8.9783 -3.6452 -4.1565 0.406 -0.045 0.913 219 194 141 0 0
-8.9800 -3.6959 -4.1743 0.352 -0.031 0.936 219 195 143 0 0
-4.9496 -3.5164 -3.2555 0.291 0.399 0.869 217 191 66 0 0
-4.9368 -3.7684 -3.3395 0.648 -0.358 0.672 200 157 44 0 0
-4.9287 -4.3913 -3.5520 0.642 0.654 0.400 254 255 253 0 0
-4.9140 -4.3993 -3.5516 0.444 0.826 0.348 241 245 235 0 0
-4.9008 -4.4099 -3.5524 0.611 0.662 0.435 130 130 76 0 0
-4.8870 -4.4196 -3.5528 0.443 0.858 0.259 157 134 91 0 0
-4.9885 -7.3481 -4.5816 0.205 0.077 0.976 221 212 209 0 0
-4.9148 -7.3974 -4.5829 0.107 0.418 0.902 217 207 205 0 0
-4.8948 -7.4056 -4.5815 0.107 0.418 0.902 220 212 212 0 0
-4.8757 -7.4158 -4.5809 0.229 0.312 0.922 221 215 215 0 0
-4.8644 -7.4480 -4.5895 0.130 0.330 0.935 221 213 214 0 0
-4.8268 -7.4709 -4.5894 0.123 0.040 0.992 219 213 213 0 0
-4.7907 -7.4980 -4.5911 0.098 -0.001 0.995 221 215 217 0 0
-3.8323 -8.0692 -4.5837 0.087 0.174 0.981 216 209 213 0 0
-3.8135 -8.0800 -4.5834 0.082 0.188 0.979 216 210 212 0 0
-3.7981 -8.1054 -4.5889 0.013 0.222 0.975 217 212 213 0 0
-3.7568 -8.1114 -4.5822 0.142 0.196 0.970 217 213 214 0 0
-2.8765 -8.8911 -4.6631 0.238 0.567 0.788 215 211 215 0 0
-2.7705 -8.8646 -4.6315 -0.188 0.179 0.966 216 211 217 0 0
-2.7556 -8.9054 -4.6424 0.363 0.170 0.916 216 212 217 0 0
-2.6810 -8.9569 -4.6442 0.255 0.242 0.936 211 208 214 0 0
-2.6237 -8.9848 -4.6416 -0.034 0.319 0.947 213 211 216 0 0
-2.6042 -8.9906 -4.6395 0.414 0.181 0.892 213 210 215 0 0
-2.5681 -9.0272 -4.6444 0.262 0.172 0.950 213 211 215 0 0
-2.5284 -9.0314 -4.6374 0.255 0.485 0.837 215 213 217 0 0
-2.4702 -9.0485 -4.6309 0.613 0.451 0.649 213 211 216 0 0
-2.2957 -9.3103 -4.6838 0.457 0.888 -0.058 212 209 216 0 0
-2.0703 -9.4815 -4.6948 0.642 0.132 0.756 208 206 212 0 0
-2.0539 -9.5311 -4.7083 0.585 -0.023 0.811 209 208 214 0 0
-2.0199 -9.6183 -4.7311 0.526 -0.059 0.849 212 210 217 0 0
-1.9294 -9.7710 -4.7644 0.020 0.035 0.999 214 213 218 0 0
-1.9121 -9.8191 -4.7772 -0.017 0.046 0.999 212 211 217 0 0
-1.8929 -9.8350 -4.7786 0.145 0.073 0.987 210 209 215 0 0
-1.8749 -9.8732 -4.7879 0.139 -0.091 0.986 209 208 215 0 0
-10.0489 -2.3781 -3.9279 -0.060 0.186 0.981 212 189 140 0 0
-9.7917 -2.5614 -3.9362 0.707 0.170 0.686 214 191 141 0 0
-9.7869 -2.5786 -3.9410 0.703 0.208 0.681 213 190 140 0 0
-9.7732 -2.5903 -3.9422 0.602 0.133 0.787 212 189 140 0 0
-9.7622 -2.6037 -3.9444 0.410 0.557 0.722 212 187 138 0 0
-9.7291 -2.6440 -3.9512 0.368 0.102 0.924 214 191 140 0 0
-9.7053 -2.6699 -3.9550 0.779 -0.047 0.626 215 192 142 0 0
-9.6872 -2.6790 -3.9543 0.356 -0.056 0.933 215 192 143 0 0
-9.5446 -3.0296 -4.0441 0.085 0.203 0.975 217 191 140 0 0
-9.4977 -3.0631 -4.0456 -0.259 0.878 0.402 216 191 138 0 0
-9.4391 -3.0444 -4.0268 -0.285 0.716 0.637 212 186 133 0 0
-9.3495 -3.2945 -4.0934 0.064 0.271 0.960 216 192 139 0 0
-9.2364 -3.3723 -4.0961 0.181 0.083 0.980 217 194 141 0 0
-8.9199 -3.7240 -4.1495 0.013 -0.169 0.986 220 194 142 0 0
-8.9115 -3.8174 -4.1797 0.015 0.263 0.965 221 197 147 0 0
-8.8035 -3.9038 -4.1864 0.508 0.274 0.816 220 194 140 0 0
-4.9438 -3.5361 -3.2446 0.618 0.056 0.784 210 180 63 0 0
-4.9323 -4.3972 -3.5367 0.642 0.654 0.400 254 254 253 0 0
-4.9175 -4.4050 -3.5362 0.457 0.806 0.376 199 206 183 0 0
-4.9047 -4.6391 -3.6136 0.688 0.127 0.714 184 55 69 0 0
-4.9262 -7.4238 -4.5705 0.120 0.492 0.862 220 213 211 0 0
-4.8584 -7.4903 -4.5789 0.183 0.177 0.967 220 214 215 0 0
-4.3153 -7.8296 -4.5802 0.156 0.157 0.975 219 213 214 0 0
-4.2804 -7.8618 -4.5838 0.050 0.198 0.979 219 213 214 0 0
-4.1873 -7.9224 -4.5848 0.179 0.320 0.930 221 216 218 0 0
-4.0873 -7.9573 -4.5756 0.115 0.352 0.929 219 213 215 0 0
-3.6703 -8.1861 -4.5657 0.154 0.126 0.980 216 210 212 0 0
-3.6528 -8.2029 -4.5677 0.320 0.077 0.944 216 210 212 0 0
-3.4708 -8.3396 -4.5760 0.021 0.233 0.972 217 212 214 0 0
-3.4302 -8.3461 -4.5696 0.032 0.475 0.879 215 210 209 0 0
-3.3739 -8.3786 -4.5689 0.145 0.331 0.932 210 204 203 0 0
-3.2584 -8.6580 -4.6400 0.169 0.144 0.975 217 213 215 0 0
-2.7626 -8.9318 -4.6288 -0.056 0.190 0.980 214 212 216 0 0
-2.7273 -8.9742 -4.6359 0.452 0.098 0.886 213 211 216 0 0
-2.7075 -8.9784 -4.6331 0.218 0.103 0.970 213 211 215 0 0
-2.6336 -9.0377 -4.6378 0.043 0.097 0.994 212 210 215 0 0
-2.5345 -9.0538 -4.6223 0.522 0.422 0.741 214 212 217 0 0
-2.2997 -9.3117 -4.6609 0.559 0.365 0.745 212 209 216 0 0
-1.9916 -9.7396 -4.7421 0.535 -0.124 0.835 212 211 217 0 0
-1.9382 -9.8542 -4.7700 0.082 -0.134 0.988 214 213 219 0 0
-1.9207 -9.9017 -4.7825 0.182 0.004 0.983 211 210 216 0 0
-10.0609 -2.4083 -3.9202 0.191 -0.114 0.975 214 191 142 0 0
-9.7906 -2.5846 -3.9234 0.981 0.028 0.190 213 190 140 0 0
-9.7665 -2.6101 -3.9270 0.679 0.290 0.674 212 189 138 0 0
-9.7514 -2.6617 -3.9414 0.413 0.049 0.909 212 188 137 0 0
-9.7126 -2.6988 -3.9458 0.356 -0.056 0.933 213 189 138 0 0
-9.5520 -2.8027 -3.9474 0.526 0.805 0.275 215 191 139 0 0
-9.6049 -3.0526 -4.0435 0.934 0.339 0.114 214 189 136 0 0
-9.5727 -3.0745 -4.0442 -0.074 0.872 0.484 216 192 139 0 0
-9.5070 -3.0731 -4.0299 -0.245 0.865 0.438 214 191 140 0 0
-9.4643 -3.0655 -4.0183 -0.254 0.909 0.330 213 189 134 0 0
-9.2212 -3.5534 -4.1332 -0.102 0.390 0.915 218 195 144 0 0
-9.2001 -3.5610 -4.1313 -0.113 0.240 0.964 218 195 144 0 0
-9.0915 -3.5000 -4.0877 0.147 0.150 0.978 219 194 144 0 0
-9.0212 -3.8113 -4.1789 -0.168 0.231 0.958 221 195 145 0 0
-8.9930 -3.8130 -4.1735 -0.168 0.231 0.958 221 196 146 0 0
-8.9694 -3.8186 -4.1704 -0.033 0.177 0.984 220 197 147 0 0
-8.9417 -3.8460 -4.1739 0.058 0.265 0.963 220 196 146 0 0
-8.9165 -3.8501 -4.1700 0.163 0.220 0.962 221 197 147 0 0
-8.6213 -4.0854 -4.1880 0.049 0.358 0.932 221 194 144 0 0
-6.5655 -2.6538 -3.2690 0.001 0.686 -0.727 213 170 37 0 0
-4.9221 -4.4127 -3.5218 0.643 0.591 0.487 152 157 118 0 0
-4.9056 -4.4172 -3.5199 0.444 0.826 0.348 186 160 110 0 0
-4.9113 -4.6509 -3.6005 0.648 0.296 0.702 186 52 62 0 0
-5.3445 -7.1783 -4.5511 0.072 0.334 0.940 227 219 218 0 0
-4.9369 -7.4480 -4.5572 0.235 0.305 0.923 222 216 216 0 0
-4.5066 -7.7904 -4.5832 0.244 0.704 0.667 223 217 218 0 0
-4.4817 -7.7827 -4.5753 0.078 0.851 0.519 221 213 214 0 0
-4.2635 -7.9489 -4.5860 -0.176 0.531 0.829 220 214 216 0 0
-4.2144 -7.9317 -4.5698 0.317 0.394 0.863 223 219 220 0 0
-4.1957 -7.9436 -4.5699 0.333 0.532 0.779 223 217 220 0 0
-4.1174 -7.9786 -4.5654 -0.011 0.367 0.930 215 209 209 0 0
-3.6826 -8.2283 -4.5589 0.164 0.091 0.982 216 210 212 0 0
-3.6643 -8.2416 -4.5596 0.358 0.062 0.932 216 211 212 0 0
-3.5408 -8.3576 -4.5731 0.234 0.277 0.932 216 211 214 0 0
-3.5216 -8.3672 -4.5723 -0.106 0.580 0.808 214 208 209 0 0
-3.4800 -8.3703 -4.5646 -0.106 0.580 0.808 213 207 208 0 0
-3.4593 -8.3718 -4.5608 -0.106 0.580 0.808 214 208 208 0 0
-3.4221 -8.3958 -4.5611 0.040 0.331 0.943 215 209 209 0 0
-2.8873 -8.9194 -4.6268 0.361 0.583 0.728 214 209 214 0 0
-2.8491 -8.9402 -4.6258 0.430 0.391 0.814 211 208 213 0 0
-2.8308 -8.9564 -4.6275 0.323 0.357 0.876 212 208 212 0 0
-2.7956 -9.0003 -4.6350 -0.433 0.191 0.881 212 210 214 0 0
-2.7529 -8.9874 -4.6217 0.016 0.129 0.992 212 210 214 0 0
-2.4210 -9.2798 -4.6513 -0.111 0.274 0.955 213 210 216 0 0
-2.0334 -9.7033 -4.7139 0.594 0.010 0.804 210 209 216 0 0
-2.0163 -9.7488 -4.7258 0.710 -0.039 0.703 209 208 214 0 0
-2.0018 -9.8384 -4.7532 0.855 -0.014 0.518 210 209 215 0 0
-1.9844 -9.8853 -4.7655 0.710 -0.039 0.703 211 210 216 0 0
-1.9655 -9.9064 -4.7687 0.202 -0.026 0.979 212 211 217 0 0
-1.9465 -9.9273 -4.7718 0.179 -0.040 0.983 212 211 218 0 0
-9.8569 -2.5887 -3.9181 -0.256 0.501 0.827 212 189 139 0 0
-9.7914 -2.5889 -3.9045 0.975 0.168 0.143 214 191 141 0 0
-9.8008 -2.6148 -3.9152 0.686 -0.121 0.717 214 191 142 0 0
-9.7508 -2.7061 -3.9356 0.577 -0.035 0.816 213 189 140 0 0
-9.6079 -3.0583 -4.0249 0.061 0.543 0.837 212 186 133 0 0
-9.5841 -3.0640 -4.0218 0.190 0.355 0.915 215 190 137 0 0
-9.5736 -3.0787 -4.0246 0.340 0.575 0.744 219 196 145 0 0
-9.5491 -3.0838 -4.0212 -0.010 0.463 0.886 218 196 146 0 0
-9.5021 -3.0954 -4.0153 -0.169 0.530 0.831 216 192 140 0 0
-9.3210 -3.3495 -4.0634 0.477 -0.045 0.878 217 192 141 0 0
-9.3031 -3.3593 -4.0630 0.333 -0.091 0.939 218 194 142 0 0
-9.2755 -3.5748 -4.1301 -0.102 0.390 0.915 219 196 147 0 0
-9.1181 -3.5241 -4.0801 0.147 0.150 0.978 218 195 143 0 0
-4.9593 -3.5320 -3.2137 0.849 0.312 0.427 219 192 66 0 0
-4.9542 -3.5830 -3.2299 0.680 -0.034 0.733 222 195 76 0 0
-4.9493 -4.3919 -3.5024 0.873 0.439 0.213 238 242 207 0 0
-4.9132 -4.4308 -3.5080 0.667 0.656 0.353 185 148 97 0 0
-4.9187 -4.6643 -3.5881 0.648 0.296 0.702 188 53 63 0 0
-5.4258 -7.1431 -4.5324 0.260 0.103 0.960 225 219 220 0 0
-5.3746 -7.1903 -4.5377 0.093 0.260 0.961 223 213 209 0 0
-5.3575 -7.2062 -4.5395 0.127 0.350 0.928 224 215 211 0 0
-5.3174 -7.2234 -4.5369 0.255 0.249 0.934 220 210 207 0 0
-5.2113 -7.3100 -4.5440 0.055 0.467 0.883 225 216 217 0 0
-5.1171 -7.4286 -4.5644 0.096 0.357 0.929 224 215 216 0 0
-5.1014 -7.4488 -4.5680 -0.152 0.545 0.825 223 215 215 0 0
-4.9631 -7.5148 -4.5614 0.332 -0.031 0.943 223 217 218 0 0
-4.5133 -7.8048 -4.5655 0.244 0.704 0.667 222 216 217 0 0
-4.4724 -7.8181 -4.5614 0.191 0.394 0.899 219 211 210 0 0
-4.4538 -7.8306 -4.5618 0.178 0.404 0.897 218 209 209 0 0
-4.4344 -7.8405 -4.5611 0.211 0.387 0.898 218 210 208 0 0
-4.4128 -7.8430 -4.5574 0.107 0.547 0.830 218 210 208 0 0
-4.3932 -7.8520 -4.5563 0.060 0.194 0.979 218 209 209 0 0
-4.3762 -7.8698 -4.5588 0.441 0.099 0.892 219 212 212 0 0
-4.3573 -7.8812 -4.5587 0.437 0.109 0.893 220 214 214 0 0
-4.3416 -7.9035 -4.5630 0.227 0.173 0.958 220 214 214 0 0
-4.3231 -7.9164 -4.5635 0.173 0.203 0.964 219 213 215 0 0
-4.3046 -7.9294 -4.5640 0.173 0.203 0.964 220 214 215 0 0
-4.2496 -7.9699 -4.5662 -0.008 0.505 0.863 223 218 222 0 0
-4.2242 -7.9583 -4.5570 0.169 0.357 0.918 223 219 220 0 0
-3.9655 -8.1392 -4.5641 0.338 -0.001 0.941 217 212 216 0 0
-3.6736 -8.2709 -4.5476 0.216 0.106 0.971 216 212 213 0 0
-3.6581 -8.2970 -4.5532 0.156 0.084 0.984 217 213 214 0 0
-3.5509 -8.3920 -4.5630 0.075 0.713 0.697 215 209 213 0 0
-3.5309 -8.3982 -4.5609 0.004 0.574 0.819 210 204 205 0 0
-3.5080 -8.3895 -4.5531 -0.226 0.623 0.749 209 203 203 0 0
-2.7828 -9.0320 -4.6189 -0.423 0.199 0.884 212 210 214 0 0
-10.1093 -2.4834 -3.9146 0.359 0.109 0.927 207 180 127 0 0
-9.8621 -2.6361 -3.9146 0.057 0.267 0.962 214 191 141 0 0
-9.8352 -2.6398 -3.9102 0.520 -0.149 0.841 215 191 143 0 0
-9.7753 -2.7459 -3.9335 0.395 -0.139 0.908 213 188 137 0 0
-9.5720 -3.1033 -4.0114 0.087 0.409 0.908 215 192 142 0 0
-9.0355 -3.8549 -4.1527 0.016 0.252 0.967 213 185 131 0 0
-8.6562 -4.1229 -4.1640 -0.017 0.462 0.887 223 199 150 0 0
-4.9586 -3.5307 -3.1967 0.753 0.624 0.208 219 191 66 0 0
-4.9443 -3.5662 -3.2057 0.984 -0.029 0.175 220 192 77 0 0
-4.9487 -3.6337 -3.2293 0.890 -0.356 0.286 218 190 80 0 0
-4.9707 -3.7014 -3.2566 0.611 -0.363 0.703 219 192 84 0 0
-4.9579 -4.4073 -3.4914 0.702 0.573 0.423 214 224 155 0 0
-4.9260 -4.6777 -3.5757 0.648 0.296 0.702 191 61 66 0 0
-5.4457 -7.1867 -4.5274 0.300 0.096 0.949 226 221 223 0 0
-5.3656 -7.2221 -4.5226 -0.031 0.647 0.762 220 207 201 0 0
-5.3341 -7.2604 -4.5289 0.378 0.229 0.897 221 210 208 0 0
-5.1653 -7.4277 -4.5501 0.214 0.247 0.945 221 211 207 0 0
-5.1525 -7.4553 -4.5568 0.462 0.432 0.775 220 208 203 0 0
-5.1313 -7.4611 -4.5543 0.169 0.673 0.720 219 208 204 0 0
-5.1109 -7.4692 -4.5528 -0.010 0.554 0.833 221 211 209 0 0
-4.8949 -7.6417 -4.5659 0.162 0.102 0.982 221 215 215 0 0
-4.5424 -7.8188 -4.5523 0.064 0.629 0.775 217 211 211 0 0
-4.4815 -7.8405 -4.5469 0.167 0.562 0.810 220 212 210 0 0
-4.4615 -7.8485 -4.5454 0.167 0.562 0.810 219 210 211 0 0
-4.4444 -7.8660 -4.5478 0.211 0.387 0.898 219 210 211 0 0
-4.3892 -7.9057 -4.5497 0.456 0.155 0.876 219 213 214 0 0
-4.3734 -7.9280 -4.5539 0.456 0.155 0.876 220 214 215 0 0
-4.3563 -7.9457 -4.5563 0.110 0.260 0.959 221 215 215 0 0
-4.3381 -7.9597 -4.5572 0.142 0.291 0.946 220 214 214 0 0
-4.3189 -7.9704 -4.5568 0.142 0.291 0.946 219 212 213 0 0
-4.2799 -7.9899 -4.5553 0.112 0.342 0.933 219 213 213 0 0
-3.9947 -8.1579 -4.5525 0.243 0.068 0.968 218 213 217 0 0
-3.9575 -8.1834 -4.5534 0.608 0.044 0.793 218 213 217 0 0
-3.9428 -8.2120 -4.5599 0.431 0.150 0.890 217 213 216 0 0
-3.8428 -8.2476 -4.5511 0.146 0.161 0.976 215 209 210 0 0
-3.6415 -8.4032 -4.5616 -0.221 0.320 0.921 218 214 215 0 0
-3.5585 -8.4146 -4.5482 0.008 0.558 0.830 216 211 213 0 0
-3.5381 -8.4188 -4.5454 -0.168 0.797 0.580 213 208 210 0 0
-3.5152 -8.4105 -4.5378 -0.226 0.623 0.749 213 208 208 0 0
-3.4950 -8.4150 -4.5351 -0.167 0.570 0.804 214 208 208 0 0
-3.4997 -8.6490 -4.6148 0.271 0.292 0.917 215 210 212 0 0
-3.4670 -8.7003 -4.6253 0.516 0.233 0.824 217 213 214 0 0
-3.4500 -8.7232 -4.6294 0.516 0.233 0.824 217 213 216 0 0
-2.8694 -9.0365 -4.6142 0.042 -0.056 0.998 214 212 217 0 0
-2.6083 -9.2506 -4.6319 0.514 0.175 0.839 213 211 216 0 0
-2.5908 -9.2769 -4.6371 0.514 0.175 0.839 212 210 215 0 0
-2.5547 -9.3209 -4.6444 0.629 0.062 0.775 212 210 215 0 0
-2.5391 -9.3653 -4.6562 0.576 0.070 0.815 213 211 216 0 0
-2.5208 -9.3857 -4.6592 -0.079 0.681 0.728 212 210 215 0 0
-2.4204 -9.4029 -4.6441 0.624 0.012 0.782 213 211 215 0 0
-1.2562 -11.5350 -5.1193 -0.273 0.863 0.425 193 188 194 0 0
-1.2350 -11.5063 -5.1052 0.574 0.691 0.439 189 183 189 0 0
-1.2138 -11.5519 -5.1162 0.707 0.673 0.218 191 187 194 0 0
-1.1928 -11.5292 -5.1041 -0.007 0.814 -0.581 199 196 206 0 0
-10.1864 -2.4530 -3.8997 0.117 0.604 0.788 208 183 132 0 0
-10.1391 -2.4848 -3.9006 0.674 0.197 0.712 210 186 132 0 0
-10.1236 -2.4956 -3.9010 0.666 0.448 0.596 208 180 126 0 0
-9.8567 -2.6569 -3.8998 0.318 -0.231 0.920 214 191 140 0 0
-9.8378 -2.7065 -3.9125 0.212 -0.023 0.977 214 189 139 0 0
-9.8066 -2.7695 -3.9271 0.474 -0.120 0.872 215 190 138 0 0
-9.7673 -2.9340 -3.9740 0.316 0.032 0.948 216 191 143 0 0
-9.6226 -2.9884 -3.9623 0.749 -0.094 0.656 214 190 140 0 0
-9.5708 -3.1061 -3.9909 0.020 0.923 0.385 217 191 140 0 0
-9.4200 -3.4771 -4.0839 -0.089 0.410 0.908 214 189 135 0 0
-9.4004 -3.4860 -4.0828 -0.137 0.638 0.757 215 190 138 0 0
-9.3361 -3.6286 -4.1172 0.325 0.352 0.878 216 190 139 0 0
-9.0614 -3.8796 -4.1444 -0.040 0.332 0.942 213 185 132 0 0
-4.9630 -4.4160 -3.4773 0.490 0.729 0.477 200 211 141 0 0
-5.4677 -7.2348 -4.5241 0.315 0.096 0.944 224 219 221 0 0
-5.4490 -7.2472 -4.5244 0.019 0.303 0.953 220 212 210 0 0
-5.3086 -7.3681 -4.5358 0.335 0.085 0.938 223 217 216 0 0
-5.1578 -7.4648 -4.5370 0.117 0.976 0.184 215 202 193 0 0
-5.1381 -7.4745 -4.5362 -0.101 0.911 0.400 217 206 200 0 0
-5.1154 -7.4765 -4.5321 -0.029 0.963 0.268 220 211 208 0 0
-5.1067 -7.5150 -4.5432 0.574 0.190 0.797 221 212 210 0 0
-4.7011 -7.7414 -4.5352 -0.262 0.191 0.946 221 215 215 0 0
-4.6544 -7.8074 -4.5476 0.006 0.277 0.961 223 217 217 0 0
-4.4984 -7.8879 -4.5423 0.380 0.108 0.919 218 212 211 0 0
-4.3887 -7.9718 -4.5477 -0.031 0.449 0.893 222 216 217 0 0
-4.3511 -7.9963 -4.5481 -0.038 0.695 0.718 220 214 214 0 0
-4.3128 -8.0186 -4.5477 0.476 0.367 0.800 215 207 205 0 0
-4.0104 -8.2096 -4.5491 0.432 0.212 0.877 219 214 217 0 0
-3.9937 -8.2299 -4.5524 0.432 0.212 0.877 219 214 217 0 0
-3.9675 -8.2130 -4.5413 0.742 0.099 0.663 218 214 218 0 0
-3.8183 -8.3152 -4.5447 0.364 0.081 0.928 215 210 211 0 0
-3.6728 -8.4352 -4.5548 -0.016 0.484 0.875 217 212 213 0 0
-3.5457 -8.4411 -4.5305 0.008 0.558 0.830 217 211 213 0 0
-3.5232 -8.4353 -4.5239 -0.012 0.669 0.743 216 210 212 0 0
-3.2624 -8.8470 -4.6077 0.371 0.402 0.837 214 209 209 0 0
-3.2414 -8.8486 -4.6039 0.471 0.441 0.764 215 209 211 0 0
-2.9005 -9.0853 -4.6127 0.651 0.006 0.759 216 213 219 0 0
-2.8825 -9.1052 -4.6156 0.569 0.004 0.822 215 213 219 0 0
-2.5807 -9.3369 -4.6307 0.536 0.156 0.830 213 211 216 0 0
-2.5275 -9.4140 -4.6456 0.133 0.878 0.460 211 209 214 0 0
-2.5061 -9.4054 -4.6382 -0.343 0.785 0.516 208 206 210 0 0
-2.3681 -9.6729 -4.6992 0.408 0.031 0.912 214 213 218 0 0
-1.9187 -10.3068 -4.8183 0.058 -0.197 0.979 213 212 219 0 0
-1.2611 -11.5201 -5.0883 -0.120 0.907 -0.404 188 185 192 0 0
-1.2400 -11.5219 -5.0845 0.761 0.409 0.504 187 184 191 0 0
-1.2188 -11.5532 -5.0906 0.779 0.347 0.522 194 192 200 0 0
-10.1512 -2.4958 -3.8860 0.674 0.197 0.712 210 186 134 0 0
-10.1408 -2.5095 -3.8885 0.553 0.345 0.758 210 184 133 0 0
-10.1261 -2.5208 -3.8892 0.712 0.064 0.699 209 184 132 0 0
-9.8765 -2.6933 -3.8953 0.183 -0.108 0.977 213 190 139 0 0
-9.8679 -2.7085 -3.8986 0.183 -0.108 0.977 213 190 138 0 0
-9.8733 -2.7531 -3.9145 0.237 -0.178 0.955 213 188 138 0 0
-9.8368 -2.7716 -3.9132 0.625 -0.133 0.770 213 187 137 0 0
-9.8303 -2.7883 -3.9174 0.402 -0.079 0.912 214 188 139 0 0
-9.8084 -2.9647 -3.9716 0.351 0.202 0.914 216 192 143 0 0
-9.6179 -3.1422 -3.9915 -0.010 0.463 0.886 217 193 143 0 0
-9.4334 -3.5143 -4.0773 -0.057 0.352 0.934 211 184 128 0 0
-9.3392 -3.6832 -4.1141 0.330 0.226 0.916 216 191 138 0 0
-9.3276 -3.6986 -4.1169 0.128 0.266 0.955 219 194 142 0 0
-9.2957 -3.7226 -4.1183 0.651 0.191 0.735 220 197 145 0 0
-9.0681 -3.9139 -4.1352 0.184 0.370 0.911 218 193 142 0 0
-8.8084 -4.1062 -4.1458 0.372 -0.013 0.928 222 198 149 0 0
-8.7428 -4.1539 -4.1482 -0.008 0.598 0.802 218 190 140 0 0
-6.2673 -2.5915 -3.1205 0.162 0.919 0.360 212 169 29 0 0
-5.4967 -7.2434 -4.5089 0.179 0.232 0.956 224 216 216 0 0
-5.4221 -7.2933 -4.5102 0.022 0.186 0.982 219 207 202 0 0
-5.4019 -7.3021 -4.5090 0.006 0.178 0.984 220 209 205 0 0
-5.3342 -7.3690 -4.5173 0.635 0.076 0.768 223 217 217 0 0
-5.3177 -7.3867 -4.5198 0.560 0.014 0.828 223 218 217 0 0
-5.3103 -7.4272 -4.5317 0.297 0.087 0.951 224 217 217 0 0
-5.2890 -7.4334 -4.5294 0.080 0.063 0.995 223 217 217 0 0
-5.2412 -7.4923 -4.5392 -0.313 0.705 0.636 221 214 211 0 0
-5.1453 -7.4888 -4.5184 -0.308 0.898 0.315 219 208 204 0 0
-5.1413 -7.5396 -4.5344 0.365 0.028 0.930 221 212 210 0 0
-5.1065 -7.5721 -4.5381 0.299 0.007 0.954 223 215 215 0 0
-4.7190 -7.7887 -4.5306 -0.262 0.191 0.946 222 216 216 0 0
-4.6087 -7.8709 -4.5353 -0.163 0.622 0.766 219 210 211 0 0
-4.5814 -7.8569 -4.5250 -0.337 0.509 0.792 219 210 211 0 0
-4.0059 -8.2678 -4.5434 0.237 0.316 0.918 219 215 219 0 0
-3.9491 -8.3043 -4.5439 0.156 0.573 0.805 216 210 212 0 0
-3.9290 -8.3114 -4.5421 0.093 0.538 0.838 212 206 207 0 0
-3.2518 -8.8896 -4.5954 0.501 0.249 0.829 215 210 210 0 0
-2.7536 -9.2018 -4.5969 -0.225 0.626 0.746 209 207 213 0 0
-2.6066 -9.3514 -4.6164 0.457 0.318 0.830 212 210 215 0 0
-2.5129 -9.4343 -4.6247 0.082 0.806 0.586 207 205 210 0 0
-2.3775 -9.7328 -4.6962 0.427 -0.058 0.903 212 211 216 0 0
-1.4994 -11.4095 -5.0734 0.693 0.041 0.719 209 208 219 0 0
-1.4780 -11.4100 -5.0691 0.754 0.101 0.649 210 208 219 0 0
-1.4574 -11.4588 -5.0812 0.805 0.278 0.525 210 209 219 0 0
-1.2237 -11.6403 -5.0935 0.823 0.200 0.532 202 201 211 0 0
-1.0980 -11.5060 -5.0231 0.738 0.427 -0.523 207 207 217 0 0
-10.1623 -2.5061 -3.8711 0.710 0.200 0.675 211 185 133 0 0
-10.1547 -2.5216 -3.8746 0.651 0.264 0.712 212 187 134 0 0
-10.1512 -2.5394 -3.8798 0.649 0.028 0.761 211 188 136 0 0
-9.9036 -2.7759 -3.9075 0.292 -0.150 0.944 214 190 140 0 0
-9.8970 -2.7926 -3.9116 0.275 -0.109 0.955 213 189 138 0 0
-9.8858 -2.8063 -3.9139 -0.069 0.134 0.989 213 189 138 0 0
-9.8845 -2.8265 -3.9203 0.231 0.039 0.972 211 187 134 0 0
-9.8820 -2.8459 -3.9262 0.576 -0.090 0.812 213 189 137 0 0
-9.8398 -2.9460 -3.9507 0.209 0.439 0.874 214 191 141 0 0
-9.4808 -3.5297 -4.0704 0.001 0.359 0.933 216 190 139 0 0
-9.4580 -3.5363 -4.0679 0.001 0.359 0.933 216 190 137 0 0
-9.1406 -3.9010 -4.1237 0.095 0.483 0.870 224 199 148 0 0
-9.1258 -3.9142 -4.1250 0.091 0.419 0.903 223 201 151 0 0
-9.0849 -3.9311 -4.1223 0.256 0.289 0.922 218 193 142 0 0
-9.0718 -3.9458 -4.1245 0.452 0.295 0.842 211 181 128 0 0
-8.8346 -4.1326 -4.1378 0.373 0.140 0.917 223 201 155 0 0
-8.7620 -4.1743 -4.1367 0.022 0.509 0.861 217 190 139 0 0
-5.0913 -3.4848 -3.1597 -0.147 0.876 -0.460 160 144 65 0 0
-5.4877 -7.2752 -4.4936 0.206 0.440 0.874 221 210 204 0 0
-5.4152 -7.3304 -4.4971 0.097 0.185 0.978 223 215 213 0 0
-5.3202 -7.4481 -4.5166 0.451 0.029 0.892 225 218 218 0 0
-5.3086 -7.4784 -4.5242 0.528 -0.004 0.849 224 217 215 0 0
-5.2305 -7.5215 -4.5225 -0.275 0.668 0.691 219 209 208 0 0
-5.1823 -7.5192 -4.5119 -0.181 0.736 0.653 220 210 207 0 0
-5.1591 -7.5203 -4.5076 -0.077 0.518 0.852 221 212 210 0 0
-5.1580 -7.5788 -4.5267 0.365 0.028 0.930 223 214 213 0 0
-5.1432 -7.6020 -4.5313 0.213 0.162 0.964 223 217 218 0 0
-5.1191 -7.6007 -4.5260 0.561 0.066 0.825 223 217 218 0 0
-5.1119 -7.6443 -4.5389 0.227 0.249 0.941 224 216 219 0 0
-5.0945 -7.6607 -4.5408 0.263 0.254 0.931 223 216 218 0 0
-5.0750 -7.6718 -4.5405 0.405 0.256 0.878 222 216 218 0 0
-4.3188 -8.1007 -4.5280 0.278 0.192 0.941 216 211 210 0 0
-4.2996 -8.1119 -4.5277 0.566 0.168 0.807 215 209 209 0 0
-4.2833 -8.1336 -4.5316 0.237 0.197 0.951 214 208 208 0 0
-4.1677 -8.1999 -4.5299 -0.066 0.169 0.983 219 213 215 0 0
-4.0219 -8.3205 -4.5400 -0.059 0.752 0.656 219 216 220 0 0
-3.7304 -8.4745 -4.5314 0.211 0.442 0.872 219 214 215 0 0
-3.7100 -8.4803 -4.5292 -0.086 0.459 0.885 216 211 213 0 0
-3.6892 -8.4837 -4.5261 0.023 0.471 0.882 211 206 207 0 0
-3.5493 -8.5329 -4.5138 0.127 0.236 0.963 218 213 214 0 0
-3.2830 -8.9273 -4.5898 0.415 0.104 0.904 215 209 210 0 0
-2.9568 -9.1379 -4.5929 0.150 0.087 0.985 217 213 219 0 0
-2.9410 -9.1739 -4.6015 0.431 0.009 0.902 216 214 218 0 0
-2.5188 -9.4547 -4.6082 -0.121 0.644 0.755 211 209 214 0 0
-1.5046 -11.4286 -5.0537 0.620 0.018 0.784 213 211 222 0 0
-1.4838 -11.4641 -5.0612 0.400 0.036 0.916 212 212 220 0 0
-1.2499 -11.5675 -5.0477 0.932 0.209 0.296 204 202 212 0 0
-1.0824 -11.4902 -4.9880 0.762 0.413 -0.499 207 207 216 0 0
-10.3136 -2.3807 -3.8399 0.596 0.086 0.798 214 192 143 0 0
-10.2318 -2.4908 -3.8595 0.130 0.665 0.736 211 187 137 0 0
-10.2119 -2.5189 -3.8647 0.228 0.694 0.683 210 184 132 0 0
-10.1654 -2.5119 -3.8529 0.865 0.007 0.502 209 185 132 0 0
-9.9369 -2.8006 -3.9015 0.244 -0.217 0.945 213 190 139 0 0
-9.9053 -2.8435 -3.9092 0.334 0.144 0.931 213 189 139 0 0
-9.4760 -3.5534 -4.0554 -0.291 0.558 0.777 219 195 144 0 0
-9.1669 -3.9260 -4.1152 0.060 0.431 0.900 222 200 150 0 0
-9.1466 -3.9347 -4.1139 0.088 0.417 0.905 223 200 152 0 0
-8.7956 -4.1808 -4.1236 0.117 0.662 0.740 222 199 150 0 0
-5.0815 -3.4693 -3.1363 -0.284 0.826 -0.486 145 127 42 0 0
-5.5024 -7.3063 -4.4828 0.209 0.525 0.825 221 209 204 0 0
-5.4800 -7.3103 -4.4796 -0.015 0.406 0.914 221 210 205 0 0
-5.4774 -7.3607 -4.4956 0.697 0.077 0.713 222 212 210 0 0
-5.2868 -7.5394 -4.5157 -0.104 0.337 0.936 216 206 202 0 0
-5.1801 -7.5705 -4.5043 0.199 0.320 0.926 222 212 211 0 0
-5.1628 -7.5871 -4.5062 0.301 0.203 0.932 224 216 216 0 0
-5.1557 -7.6305 -4.5190 0.185 0.196 0.963 224 218 219 0 0
-5.1327 -7.6321 -4.5149 0.580 0.078 0.811 224 218 219 0 0
-4.3095 -8.1384 -4.5143 0.676 0.222 0.702 216 210 210 0 0
-4.2947 -8.1653 -4.5202 0.394 0.377 0.838 214 208 208 0 0
-4.2591 -8.1985 -4.5238 0.552 0.494 0.672 216 210 212 0 0
-4.0613 -8.2917 -4.5143 0.024 0.323 0.946 218 213 216 0 0
-4.0281 -8.3345 -4.5217 -0.167 0.786 0.595 217 212 215 0 0
-4.0086 -8.3448 -4.5211 -0.178 0.955 0.237 217 214 217 0 0
-3.9413 -8.3396 -4.5057 -0.187 0.941 0.281 215 210 214 0 0
-3.8889 -8.3944 -4.5131 0.170 0.228 0.959 217 213 214 0 0
-3.8203 -8.4746 -4.5256 0.200 0.710 0.676 218 213 215 0 0
-3.8002 -8.4819 -4.5239 0.200 0.710 0.676 217 212 214 0 0
-3.7582 -8.4889 -4.5177 0.004 0.985 0.171 215 210 210 0 0
-3.7366 -8.4896 -4.5135 -0.124 0.864 0.488 217 212 214 0 0
-3.6963 -8.5032 -4.5098 0.227 0.468 0.854 214 209 211 0 0
-3.5799 -8.5628 -4.5058 0.026 0.049 0.998 218 214 215 0 0
-3.5393 -8.6790 -4.5358 -0.465 0.578 0.671 220 215 219 0 0
-3.3690 -8.9107 -4.5774 -0.294 0.533 0.794 215 209 208 0 0
-3.3492 -8.9204 -4.5765 0.173 0.450 0.876 215 209 210 0 0
-3.3334 -8.9514 -4.5835 0.454 0.123 0.883 214 208 210 0 0
-3.0246 -9.1459 -4.5848 0.176 0.215 0.961 217 212 217 0 0
-10.2700 -2.4772 -3.8421 0.573 0.265 0.775 212 189 140 0 0
-10.2661 -2.4947 -3.8470 0.551 0.371 0.748 212 189 139 0 0
-10.2521 -2.5065 -3.8480 0.551 0.536 0.640 211 188 138 0 0
-10.1724 -2.5397 -3.8428 0.290 0.016 0.957 210 185 132 0 0
-9.9436 -2.8505 -3.8983 0.293 -0.065 0.954 216 192 143 0 0
-9.9378 -2.8679 -3.9028 0.211 0.193 0.958 215 192 142 0 0
-9.9194 -2.9624 -3.9299 0.812 -0.049 0.581 215 192 142 0 0
-9.7031 -3.2799 -3.9901 0.162 0.445 0.881 216 193 140 0 0
-9.5072 -3.5804 -4.0488 -0.178 0.365 0.914 218 195 145 0 0
-9.4765 -3.5811 -4.0428 -0.326 0.468 0.822 217 192 139 0 0
-9.2040 -3.9345 -4.1034 0.432 0.246 0.868 221 197 148 0 0
-9.1825 -3.9422 -4.1016 0.311 0.471 0.825 221 199 149 0 0
-9.1606 -3.9496 -4.0996 0.189 0.545 0.817 224 202 154 0 0
-9.1198 -3.9668 -4.0970 0.168 0.729 0.664 222 200 152 0 0
-9.0999 -3.9758 -4.0959 0.208 0.645 0.735 219 197 147 0 0
-9.0830 -3.9874 -4.0962 0.272 0.518 0.811 216 192 142 0 0
-9.0727 -4.0045 -4.0997 0.582 0.187 0.792 216 190 140 0 0
-9.0424 -4.0046 -4.0937 0.454 0.652 0.608 216 190 139 0 0
-9.0355 -4.0247 -4.0988 0.415 0.675 0.609 218 192 144 0 0
-8.9221 -4.1364 -4.1125 0.481 0.277 0.832 221 198 150 0 0
-8.7820 -4.1982 -4.1044 0.303 0.534 0.790 222 199 153 0 0
-5.9287 -2.4462 -2.9565 -0.062 0.642 0.764 109 98 14 0 0
-5.8579 -2.4522 -2.9442 -0.168 0.625 0.762 78 54 14 0 0
-5.7208 -2.4883 -2.9283 0.130 0.678 -0.724 45 26 9 0 0
-5.7021 -2.4881 -2.9245 0.132 0.699 -0.703 55 31 4 0 0
-5.6790 -2.4829 -2.9181 0.062 0.830 -0.554 100 71 13 0 0
-5.6598 -2.5904 -2.9494 0.337 0.604 -0.722 219 193 38 0 0
-5.2390 -7.5955 -4.5002 0.228 -0.009 0.974 224 214 212 0 0
-5.2011 -7.6206 -4.5008 -0.086 0.141 0.986 224 216 216 0 0
-5.1809 -7.6299 -4.4997 0.167 0.094 0.981 224 218 218 0 0
-4.8249 -7.8795 -4.5095 0.090 0.190 0.978 222 216 217 0 0
-4.7474 -7.9247 -4.5086 0.160 0.084 0.983 218 209 210 0 0
-4.2798 -8.2639 -4.5252 0.274 0.189 0.943 219 213 215 0 0
-4.2567 -8.2618 -4.5198 0.496 0.008 0.868 218 212 213 0 0
-4.0987 -8.3401 -4.5135 0.293 0.345 0.892 218 213 216 0 0
-4.0780 -8.3462 -4.5114 0.045 0.732 0.680 217 211 213 0 0
-4.0357 -8.3543 -4.5055 -0.174 0.719 0.673 212 206 208 0 0
-4.0125 -8.3499 -4.4994 -0.091 0.671 0.736 214 208 210 0 0
-3.8294 -8.5019 -4.5121 -0.074 0.815 0.574 218 212 214 0 0
-3.8078 -8.5028 -4.5080 -0.074 0.815 0.574 215 209 210 0 0
-3.7851 -8.4993 -4.5023 0.266 0.698 0.665 213 206 208 0 0
-3.7238 -8.5168 -4.4957 0.187 0.514 0.837 216 211 211 0 0
-3.6851 -8.5375 -4.4947 0.168 0.436 0.884 216 210 212 0 0
-3.5658 -8.6885 -4.5199 -0.302 0.585 0.752 220 216 218 0 0
-3.0970 -9.1799 -4.5860 -0.032 0.139 0.990 214 209 212 0 0
-2.9832 -9.2711 -4.5929 0.094 0.152 0.984 215 210 216 0 0
-2.9392 -9.2595 -4.5802 0.520 0.256 0.815 214 211 216 0 0
-2.7838 -9.3528 -4.5793 0.292 0.164 0.942 214 212 218 0 0
-2.3388 -10.1018 -4.7344 0.145 -0.038 0.989 211 210 216 0 0
-10.2785 -2.5454 -3.8453 0.472 0.278 0.836 209 186 135 0 0
-10.2000 -2.5797 -3.8407 0.434 0.416 0.799 213 191 141 0 0
-10.0041 -2.6849 -3.8356 -0.433 0.653 0.622 213 188 136 0 0
-9.6258 -3.5770 -4.0496 -0.310 0.798 0.516 218 195 145 0 0
-9.5783 -3.5655 -4.0364 -0.373 0.678 0.634 217 195 144 0 0
-9.5282 -3.6237 -4.0453 -0.263 0.347 0.900 217 194 141 0 0
-9.2209 -3.9517 -4.0902 0.521 0.181 0.834 219 197 147 0 0
-9.2002 -3.9601 -4.0888 0.265 0.310 0.913 219 196 146 0 0
-9.0988 -4.0038 -4.0827 0.295 0.433 0.852 220 196 148 0 0
-9.0524 -4.0163 -4.0774 0.362 0.640 0.678 217 192 144 0 0
-9.0390 -4.0308 -4.0795 0.595 0.680 0.428 219 193 146 0 0
-8.9514 -4.1654 -4.1056 0.365 0.512 0.778 221 197 149 0 0
-8.7948 -4.2127 -4.0896 0.253 0.552 0.795 219 195 147 0 0
-8.7766 -4.2232 -4.0894 0.858 0.445 0.256 220 196 150 0 0
-8.7663 -4.2409 -4.0930 0.858 0.445 0.256 222 199 155 0 0
-5.8568 -2.4735 -2.9356 -0.218 0.477 0.852 55 32 7 0 0
-5.7868 -2.4585 -2.9167 0.833 0.266 -0.485 21 13 5 0 0
-5.6695 -2.4731 -2.8979 -0.110 0.774 0.624 17 8 2 0 0
-5.6519 -2.4740 -2.8947 -0.274 0.462 0.844 45 25 3 0 0
-5.6411 -2.4828 -2.8954 -0.365 0.345 0.865 112 78 10 0 0
-5.6407 -2.5689 -2.9232 0.332 0.697 -0.635 219 192 32 0 0
-4.9491 -3.3703 -3.0450 0.944 0.182 -0.277 182 118 8 0 0
-5.4532 -7.5269 -4.4966 0.385 0.436 0.814 224 216 215 0 0
-5.4316 -7.5333 -4.4943 0.194 0.427 0.883 222 213 211 0 0
-5.4144 -7.5503 -4.4964 -0.116 0.628 0.769 222 212 210 0 0
-5.3922 -7.5550 -4.4935 0.244 0.613 0.752 223 216 214 0 0
-4.8808 -7.9006 -4.5033 0.005 0.284 0.959 221 215 215 0 0
-4.8598 -7.9074 -4.5013 0.285 0.140 0.948 220 215 215 0 0
-4.6890 -8.0224 -4.5044 0.272 -0.049 0.961 219 213 215 0 0
-4.6212 -8.0996 -4.5159 -0.032 0.058 0.998 221 215 216 0 0
-4.5887 -8.1431 -4.5235 -0.082 0.439 0.895 221 215 216 0 0
-4.5424 -8.1422 -4.5139 0.177 0.316 0.932 221 215 216 0 0
-4.2886 -8.2867 -4.5100 0.155 0.148 0.977 218 212 213 0 0
-4.1795 -8.3824 -4.5193 -0.385 0.730 0.564 218 213 216 0 0
-4.1096 -8.3721 -4.5019 0.335 0.477 0.812 216 211 214 0 0
-4.0867 -8.3698 -4.4965 -0.040 0.577 0.816 212 206 209 0 0
-3.9920 -8.4341 -4.4984 0.406 0.098 0.908 217 212 216 0 0
-3.9759 -8.4582 -4.5031 0.406 0.098 0.908 218 213 215 0 0
-3.9248 -8.5211 -4.5133 -0.338 0.452 0.825 219 215 217 0 0
-3.8559 -8.5095 -4.4957 -0.244 0.679 0.692 216 211 215 0 0
-3.8355 -8.5158 -4.4936 -0.075 0.825 0.560 214 208 211 0 0
-2.9742 -9.3306 -4.5857 0.278 0.153 0.948 213 208 213 0 0
-2.9556 -9.3495 -4.5881 0.278 0.153 0.948 213 210 214 0 0
-2.9370 -9.3678 -4.5903 0.116 0.238 0.964 214 211 216 0 0
-2.9159 -9.3691 -4.5866 0.415 0.208 0.886 214 212 217 0 0
-2.8977 -9.3908 -4.5899 0.486 0.168 0.858 214 212 217 0 0
-2.7737 -9.4091 -4.5710 0.542 0.353 0.763 212 210 217 0 0
-2.0197 -10.9685 -4.9266 0.270 -0.157 0.950 214 213 220 0 0
-2.0043 -11.0824 -4.9605 0.738 0.287 0.611 212 211 218 0 0
-1.9859 -11.1445 -4.9770 0.655 0.264 0.708 210 209 217 0 0
-1.9660 -11.1832 -4.9855 0.892 0.196 0.407 209 208 216 0 0
-1.9469 -11.2396 -5.0001 0.892 0.196 0.407 210 208 216 0 0
-1.3926 -11.5748 -4.9979 0.364 0.239 0.900 201 197 202 0 0
-1.3714 -11.5965 -5.0007 0.477 0.311 0.822 201 196 201 0 0
-1.3287 -11.6062 -4.9952 0.647 0.523 0.555 206 202 209 0 0
-10.3737 -2.5047 -3.8303 -0.075 0.389 0.918 213 190 140 0 0
-10.3375 -2.5039 -3.8229 -0.277 0.728 0.627 214 190 142 0 0
-10.3119 -2.5091 -3.8194 -0.245 0.658 0.712 214 191 142 0 0
-10.3037 -2.5440 -3.8291 0.665 0.481 0.570 213 191 141 0 0
-10.2940 -2.5584 -3.8318 0.378 0.690 0.617 212 190 138 0 0
-10.2208 -2.5958 -3.8293 0.277 0.276 0.920 215 193 143 0 0
-9.2322 -3.9642 -4.0744 0.347 0.246 0.905 219 196 146 0 0
-9.0360 -4.0574 -4.0654 0.385 0.702 0.599 219 196 148 0 0
-8.9705 -4.1852 -4.0936 0.154 0.773 0.615 221 198 155 0 0
-8.9574 -4.2004 -4.0959 0.294 0.921 0.256 220 197 151 0 0
-8.8971 -4.2003 -4.0839 -0.126 0.964 0.233 216 192 144 0 0
-8.7872 -4.2087 -4.0647 0.147 0.922 0.358 217 193 148 0 0
-8.7704 -4.2204 -4.0651 0.462 0.787 0.408 220 197 154 0 0
-8.7491 -4.2279 -4.0633 0.316 0.700 0.641 223 200 159 0 0
-5.9199 -2.4605 -2.9287 0.533 0.391 0.750 92 64 18 0 0
-5.8648 -2.4838 -2.9252 -0.325 0.642 0.694 48 29 6 0 0
-5.6959 -2.4411 -2.8778 0.140 0.701 -0.699 14 9 4 0 0
-5.6443 -2.5092 -2.8895 0.584 0.689 -0.428 35 18 3 0 0
-5.6274 -2.5110 -2.8867 0.342 0.932 -0.124 96 66 9 0 0
-5.6285 -2.5557 -2.9014 0.344 0.774 -0.531 217 186 29 0 0
-5.4372 -7.5432 -4.4743 0.006 0.610 0.792 219 209 205 0 0
-5.4008 -7.5724 -4.4766 0.244 0.613 0.752 219 209 206 0 0
-5.3324 -7.6420 -4.4854 0.275 0.264 0.924 225 217 216 0 0
-5.2320 -7.7539 -4.5015 -0.104 0.257 0.961 223 217 217 0 0
-4.9199 -7.9398 -4.4994 -0.297 0.595 0.747 223 217 217 0 0
-4.6217 -8.1676 -4.5136 -0.114 0.647 0.754 220 214 216 0 0
-4.5801 -8.1827 -4.5102 -0.206 0.530 0.823 219 213 215 0 0
-4.5549 -8.1756 -4.5028 0.040 0.486 0.873 220 214 216 0 0
-4.4540 -8.2213 -4.4975 0.083 0.251 0.964 216 208 205 0 0
-4.0042 -8.4721 -4.4889 0.406 0.098 0.908 217 213 214 0 0
-3.9715 -8.5196 -4.4977 0.334 0.115 0.935 219 214 218 0 0
-3.7159 -8.6516 -4.4894 0.289 0.034 0.957 217 212 214 0 0
-3.6247 -8.7345 -4.4980 -0.093 0.473 0.876 217 213 215 0 0
-2.7809 -9.4375 -4.5570 0.457 0.807 0.374 209 206 213 0 0
-2.7623 -9.4568 -4.5596 0.125 0.874 0.470 208 205 212 0 0
-2.7419 -9.4614 -4.5570 -0.038 0.836 0.548 210 207 214 0 0
-2.7234 -9.4811 -4.5597 0.296 0.278 0.914 211 208 215 0 0
-2.7091 -9.5357 -4.5744 0.159 0.109 0.981 212 209 216 0 0
-2.6321 -9.7796 -4.6379 0.554 -0.064 0.830 215 214 220 0 0
-2.5969 -9.8451 -4.6520 0.392 -0.057 0.918 217 216 222 0 0
-1.9921 -11.1752 -4.9612 0.710 0.286 0.644 204 203 209 0 0
-1.9722 -11.2147 -4.9700 0.732 0.170 0.660 204 202 210 0 0
-1.9520 -11.2496 -4.9772 0.868 0.176 0.465 208 206 214 0 0
-1.9353 -11.3550 -5.0080 0.788 0.451 -0.419 211 210 218 0 0
-1.8905 -11.3423 -4.9949 0.515 0.811 -0.277 207 205 212 0 0
-1.8674 -11.3185 -4.9826 0.106 0.987 0.122 205 202 209 0 0
-1.8459 -11.3287 -4.9816 0.216 0.951 0.222 205 202 209 0 0
-1.8045 -11.3870 -4.9922 0.831 0.373 0.413 208 205 212 0 0
-1.4201 -11.6577 -5.0031 -0.345 0.405 0.847 207 205 212 0 0
-1.3765 -11.6074 -4.9781 0.777 0.445 0.446 201 197 201 0 0
-1.3553 -11.6327 -4.9821 0.811 0.441 0.385 201 198 201 0 0
-10.3181 -2.5563 -3.8151 0.460 0.547 0.700 214 192 144 0 0
-10.3032 -2.5677 -3.8159 0.544 0.458 0.703 215 192 143 0 0
-10.2625 -2.6242 -3.8259 0.776 0.631 0.025 215 192 142 0 0
-10.0744 -2.7561 -3.8310 -0.354 0.577 0.736 212 189 137 0 0
-9.7757 -3.4340 -3.9896 0.044 0.649 0.760 218 196 146 0 0
-9.7557 -3.4431 -3.9886 0.080 0.431 0.899 218 196 145 0 0
-9.7742 -3.4797 -4.0040 0.220 0.370 0.903 217 194 144 0 0
-9.2506 -3.9828 -4.0618 0.254 0.336 0.907 217 193 145 0 0
-9.0158 -4.1217 -4.0600 0.777 0.359 0.517 218 196 149 0 0
-9.0027 -4.1367 -4.0622 0.617 0.036 0.786 221 198 154 0 0
-8.9854 -4.1747 -4.0710 0.646 0.107 0.756 224 201 158 0 0
-8.9803 -4.1969 -4.0771 0.137 0.733 0.667 223 201 160 0 0
-8.9634 -4.2087 -4.0775 0.289 0.802 0.524 222 201 158 0 0
-5.8719 -2.4932 -2.9144 0.711 -0.049 0.701 39 23 10 0 0
-5.8692 -2.5113 -2.9197 0.808 -0.080 0.583 31 18 10 0 0
-5.6315 -2.4316 -2.8470 0.517 0.384 -0.765 14 10 5 0 0
-5.6280 -2.4487 -2.8518 0.573 0.360 -0.736 13 11 4 0 0
-5.6239 -2.4652 -2.8563 0.641 0.311 -0.702 13 11 2 0 0
-5.6159 -2.5202 -2.8724 0.620 0.537 -0.572 35 20 1 0 0
-5.6016 -2.5249 -2.8710 0.494 0.754 -0.433 110 81 7 0 0
-4.9433 -3.3608 -3.0091 0.079 0.991 -0.111 191 122 13 0 0
-5.4158 -7.6054 -4.4658 0.241 0.376 0.895 220 210 208 0 0
-5.3311 -7.6954 -4.4779 0.118 0.198 0.973 225 218 218 0 0
-5.3104 -7.7040 -4.4766 0.321 0.229 0.919 226 221 220 0 0
-4.7135 -8.1570 -4.5039 0.526 0.013 0.850 222 216 218 0 0
-4.6796 -8.1969 -4.5100 0.260 0.854 0.451 223 217 218 0 0
-4.6597 -8.2076 -4.5095 0.075 0.825 0.561 220 214 214 0 0
-4.1026 -8.4110 -4.4645 -0.075 0.587 0.806 217 212 214 0 0
-4.0852 -8.4301 -4.4671 0.038 0.335 0.942 217 212 216 0 0
-4.0648 -8.4373 -4.4654 0.038 0.335 0.942 217 213 216 0 0
-4.0509 -8.4703 -4.4733 0.252 0.134 0.959 218 213 216 0 0
-3.7627 -8.6524 -4.4747 0.046 0.113 0.993 217 213 214 0 0
-3.7162 -8.7397 -4.4935 0.149 0.358 0.922 218 213 217 0 0
-3.6579 -8.7744 -4.4931 -0.087 0.859 0.504 218 216 220 0 0
-3.6371 -8.7794 -4.4906 -0.018 0.832 0.555 216 211 213 0 0
-3.5909 -8.7664 -4.4773 -0.193 0.416 0.889 209 203 200 0 0
-3.5490 -8.7739 -4.4714 -0.112 0.423 0.899 214 208 209 0 0
-2.7291 -9.6698 -4.5967 -0.085 0.125 0.988 212 210 216 0 0
-2.7095 -9.6840 -4.5974 0.173 -0.025 0.985 213 211 218 0 0
-2.6925 -9.7192 -4.6053 0.350 -0.060 0.935 212 211 217 0 0
-2.6721 -9.7262 -4.6036 0.675 -0.097 0.732 211 210 216 0 0
-2.6605 -9.8096 -4.6280 0.826 -0.038 0.563 210 209 215 0 0
-2.6433 -9.8460 -4.6363 0.737 -0.007 0.675 212 211 217 0 0
-2.6263 -9.8847 -4.6454 0.500 -0.040 0.865 215 213 219 0 0
-2.4608 -10.1420 -4.6952 0.569 -0.037 0.822 212 211 217 0 0
-2.4224 -10.1885 -4.7026 0.464 0.038 0.885 215 214 221 0 0
-1.9980 -11.2003 -4.9434 0.710 0.286 0.644 205 204 211 0 0
-1.9785 -11.2471 -4.9546 0.732 0.170 0.660 207 205 214 0 0
-1.9577 -11.2714 -4.9583 0.868 0.176 0.465 210 209 217 0 0
-1.9382 -11.3208 -4.9703 0.873 0.238 0.426 212 211 219 0 0
-1.8954 -11.3464 -4.9700 0.081 0.923 -0.376 207 205 214 0 0
-1.8506 -11.3282 -4.9553 0.376 0.464 0.802 202 197 205 0 0
-1.8302 -11.3647 -4.9630 0.762 0.271 0.588 205 201 207 0 0
-1.8098 -11.4009 -4.9706 0.759 0.605 0.241 207 205 211 0 0
-1.7682 -11.4587 -4.9809 0.965 0.232 0.125 209 206 213 0 0
-1.4255 -11.6959 -4.9892 0.012 0.663 0.748 209 208 216 0 0
