ply
format ascii 1.0
element vertex 827
property float x
property float y
property float z
property float nx
property float ny
property float nz
property uchar diffuse_red
property uchar diffuse_green
property uchar diffuse_blue
property uchar class
property uchar detection
end_header
-0.4658 0.5771 -0.7169 0.697 -0.716 0.045 174 152 134 0 0
-0.4651 0.5792 -0.7166 0.701 -0.638 0.318 177 155 136 0 0
-0.4649 0.5815 -0.7166 0.903 -0.043 0.427 173 151 130 0 0
-0.4650 0.5839 -0.7167 0.917 0.313 0.249 163 140 121 0 0
-0.4649 0.5862 -0.7167 0.941 0.197 0.274 157 133 116 0 0
-0.4205 0.6114 -0.6963 0.966 -0.073 -0.248 183 165 151 0 0
-0.4203 0.6159 -0.6964 0.927 0.121 -0.356 174 155 141 0 0
-0.4191 0.6178 -0.6958 0.880 0.467 -0.086 171 151 137 0 0
-0.4316 0.6347 -0.7022 0.938 0.347 -0.001 139 113 95 0 0
-0.4331 0.6377 -0.7030 0.981 0.183 0.060 136 111 91 0 0
-0.4276 0.6449 -0.7006 0.482 -0.674 -0.560 169 147 126 0 0
-0.4133 0.6554 -0.6941 0.891 -0.332 -0.310 184 165 144 0 0
-0.3995 0.6634 -0.6878 0.896 -0.402 -0.190 169 146 129 0 0
-0.4075 0.6815 -0.6921 0.252 0.049 0.966 179 158 140 0 0
-0.4043 0.6849 -0.6907 0.302 -0.679 0.669 172 150 130 0 0
-0.4049 0.6876 -0.6910 0.373 -0.568 0.734 167 142 125 0 0
-0.4037 0.6894 -0.6905 0.495 -0.589 0.638 160 135 117 0 0
-0.3902 0.7022 -0.6844 0.961 -0.223 -0.165 162 139 122 0 0
-0.3898 0.7045 -0.6843 0.939 0.229 -0.255 158 132 117 0 0
-0.3898 0.7069 -0.6844 0.896 0.307 -0.321 158 134 118 0 0
-0.3916 0.7103 -0.6853 0.878 0.377 -0.293 160 136 118 0 0
-0.3943 0.7141 -0.6867 0.910 0.401 -0.107 159 135 116 0 0
-0.3959 0.7199 -0.6876 0.859 0.370 -0.355 163 139 121 0 0
-0.3837 0.7333 -0.6822 0.654 0.550 0.519 153 127 112 0 0
-0.3876 0.7404 -0.6843 0.680 0.514 0.522 158 132 116 0 0
-0.3498 0.8329 -0.6689 0.513 0.434 0.741 188 170 150 0 0
-0.3533 0.8379 -0.6707 0.469 -0.551 0.690 185 165 146 0 0
-0.3498 0.8408 -0.6691 0.415 -0.737 0.534 171 145 129 0 0
-0.3491 0.8429 -0.6688 0.686 -0.498 0.531 178 154 135 0 0
-0.3328 0.8661 -0.6617 0.550 -0.753 0.362 181 162 143 0 0
-0.3320 0.8682 -0.6614 0.693 -0.702 0.164 183 165 146 0 0
-0.3294 0.8690 -0.6602 0.888 -0.048 0.457 181 163 146 0 0
-0.3256 0.8769 -0.6586 0.992 -0.032 0.120 184 166 150 0 0
-0.3178 0.8818 -0.6550 0.363 0.367 0.856 176 157 142 0 0
-0.3196 0.8858 -0.6560 0.363 0.367 0.856 176 158 141 0 0
-0.3214 0.8899 -0.6570 0.363 0.367 0.856 175 154 140 0 0
-0.2846 0.9177 -0.6403 0.191 -0.354 0.915 181 163 149 0 0
-0.2811 0.9257 -0.6389 0.812 -0.048 0.581 182 164 151 0 0
-0.2814 0.9287 -0.6391 0.923 0.203 0.327 181 163 152 0 0
-0.2829 0.9354 -0.6400 0.905 0.289 0.311 175 156 141 0 0
-0.2844 0.9395 -0.6408 0.945 0.218 0.243 169 147 133 0 0
-0.2845 0.9450 -0.6410 0.689 0.159 0.707 171 147 132 0 0
-0.2850 0.9482 -0.6413 0.673 0.054 0.738 173 151 133 0 0
-0.2852 0.9540 -0.6416 0.604 -0.355 0.714 177 154 134 0 0
-0.2847 0.9563 -0.6414 0.690 -0.229 0.686 180 158 140 0 0
-0.2756 0.9734 -0.6375 0.225 -0.972 0.064 160 139 124 0 0
-0.2698 0.9880 -0.6352 0.636 0.457 0.622 178 162 147 0 0
-0.2707 1.0349 -0.6369 0.504 -0.425 0.752 185 170 158 0 0
-0.2608 1.0696 -0.6332 0.941 -0.005 0.337 186 171 156 0 0
-0.2606 1.0725 -0.6332 0.926 0.083 0.367 196 180 164 0 0
-0.2600 1.0749 -0.6330 0.874 -0.437 0.212 181 165 149 0 0
-0.2589 1.0767 -0.6325 0.884 -0.310 0.349 157 138 122 0 0
-0.2582 1.0790 -0.6322 0.884 -0.310 0.349 150 129 113 0 0
-0.2570 1.0807 -0.6317 0.817 -0.490 0.304 147 126 111 0 0
-0.2535 1.0892 -0.6303 0.568 -0.661 0.490 137 117 101 0 0
-0.2514 1.0901 -0.6293 0.734 -0.664 0.143 131 110 94 0 0
-0.2491 1.0937 -0.6283 0.979 -0.028 -0.204 149 127 110 0 0
-0.2482 1.0957 -0.6279 0.949 -0.206 -0.238 154 133 114 0 0
-0.2378 1.0967 -0.6231 0.106 -0.644 -0.758 165 147 133 0 0
-0.2182 1.0963 -0.6137 0.646 -0.294 0.705 162 144 135 0 0
-0.2163 1.0972 -0.6128 0.787 0.188 0.587 167 149 140 0 0
-0.2167 1.1006 -0.6131 0.717 0.160 0.678 170 153 143 0 0
-0.2171 1.1042 -0.6134 0.717 0.160 0.678 176 159 149 0 0
-0.2175 1.1076 -0.6137 0.698 0.113 0.707 173 157 146 0 0
-0.2177 1.1108 -0.6139 0.727 0.055 0.685 171 154 142 0 0
-0.2175 1.1137 -0.6139 0.809 0.025 0.587 170 151 140 0 0
-0.2175 1.1167 -0.6139 0.878 -0.010 0.478 169 150 138 0 0
-0.2171 1.1194 -0.6139 0.916 0.262 0.303 164 145 133 0 0
-0.2188 1.1243 -0.6148 0.890 0.334 0.310 150 131 117 0 0
-0.2198 1.1286 -0.6154 0.933 0.322 0.160 145 125 110 0 0
-0.1934 1.1750 -0.6041 0.942 0.300 0.152 166 147 133 0 0
-0.1933 1.2004 -0.6048 0.234 -0.025 0.972 171 153 139 0 0
-0.1930 1.2032 -0.6047 0.407 0.021 0.913 174 156 144 0 0
-0.1918 1.2049 -0.6042 0.531 -0.130 0.837 179 162 150 0 0
-0.1915 1.2078 -0.6041 0.750 0.039 0.660 178 161 149 0 0
-0.1930 1.2130 -0.6050 0.659 0.201 0.725 176 160 149 0 0
-0.1948 1.2186 -0.6060 0.828 0.307 0.469 172 155 141 0 0
-0.1772 1.2312 -0.5980 0.368 0.256 0.894 174 156 143 0 0
-0.1688 1.2329 -0.5940 0.968 0.027 0.251 173 157 145 0 0
-0.1690 1.2364 -0.5942 0.920 -0.018 0.392 178 164 152 0 0
-0.1691 1.2399 -0.5944 0.818 -0.127 0.561 179 165 154 0 0
-0.1686 1.2425 -0.5942 0.888 0.116 0.445 175 161 150 0 0
-0.1690 1.2464 -0.5945 0.840 0.095 0.534 172 157 145 0 0
-0.1693 1.2501 -0.5947 0.840 0.095 0.534 170 153 141 0 0
-0.1685 1.2524 -0.5945 0.373 -0.254 0.892 167 149 137 0 0
-0.1680 1.2549 -0.5943 0.389 -0.325 0.862 167 149 135 0 0
-0.1651 1.2609 -0.5930 0.489 -0.430 0.759 172 154 140 0 0
-0.1646 1.2636 -0.5929 0.511 -0.270 0.816 182 164 150 0 0
-0.1641 1.2663 -0.5928 0.539 -0.206 0.817 182 165 153 0 0
-0.1631 1.2682 -0.5923 0.485 -0.300 0.821 178 161 147 0 0
-0.1623 1.2704 -0.5920 0.431 -0.406 0.806 183 166 153 0 0
-0.1602 1.2740 -0.5911 0.453 -0.439 0.776 169 153 137 0 0
-0.1559 1.2780 -0.5892 0.802 -0.496 0.332 170 152 137 0 0
-0.1556 1.2809 -0.5891 0.333 -0.828 0.452 169 152 137 0 0
-0.1549 1.2867 -0.5890 0.587 -0.662 0.467 165 148 133 0 0
-0.1542 1.2891 -0.5887 0.836 -0.316 0.447 164 147 131 0 0
-0.1556 1.2946 -0.5895 0.893 0.285 0.348 163 145 130 0 0
-0.1577 1.3011 -0.5907 0.906 0.329 0.268 162 146 129 0 0
-0.1466 1.3051 -0.5855 0.773 0.142 0.618 167 150 135 0 0
-0.1476 1.3100 -0.5861 0.647 0.065 0.760 168 151 135 0 0
-0.1483 1.3146 -0.5866 0.656 0.127 0.744 166 149 132 0 0
-0.1494 1.3197 -0.5872 0.682 0.198 0.704 162 142 125 0 0
-0.1508 1.3253 -0.5881 0.626 0.244 0.740 150 130 112 0 0
-0.1382 1.3303 -0.5822 0.045 -0.439 0.897 157 139 123 0 0
-0.1338 1.3304 -0.5801 0.356 0.035 0.934 160 143 128 0 0
-0.1341 1.3343 -0.5804 0.424 0.093 0.901 163 146 133 0 0
-0.1339 1.3376 -0.5804 0.426 0.066 0.902 161 144 129 0 0
-0.1103 1.3953 -0.5708 0.982 -0.125 -0.140 178 162 146 0 0
-0.1096 1.3978 -0.5705 0.987 -0.114 -0.116 175 160 144 0 0
-0.1044 1.3923 -0.5679 0.260 -0.822 0.506 172 157 141 0 0
-0.6114 0.1768 -0.7773 0.418 -0.315 0.852 148 125 108 0 0
-0.6098 0.1787 -0.7765 0.414 -0.283 0.865 145 123 106 0 0
-0.6198 0.1920 -0.7817 0.046 0.072 0.996 163 143 119 0 0
-0.5926 0.1964 -0.7689 0.278 -0.629 0.726 172 151 128 0 0
-0.5933 0.2060 -0.7694 0.578 -0.785 -0.223 177 156 134 0 0
-0.6027 0.2236 -0.7744 0.959 0.158 -0.235 167 145 123 0 0
-0.6067 0.2276 -0.7765 0.781 -0.617 -0.099 179 160 138 0 0
-0.5859 0.2690 -0.7677 0.967 0.077 0.244 161 136 114 0 0
-0.5927 0.2836 -0.7714 0.176 -0.972 0.154 156 131 112 0 0
-0.5817 0.2850 -0.7662 0.964 -0.263 0.027 150 125 106 0 0
-0.5849 0.2913 -0.7679 0.779 -0.138 0.611 162 138 118 0 0
-0.5731 0.2987 -0.7625 0.573 -0.795 0.200 166 141 121 0 0
-0.5573 0.3077 -0.7552 0.148 -0.900 0.409 163 141 120 0 0
-0.5566 0.3322 -0.7555 0.542 -0.048 0.839 166 145 126 0 0
-0.5558 0.3342 -0.7552 0.610 -0.170 0.774 168 145 127 0 0
-0.5563 0.3363 -0.7555 0.683 0.221 0.697 157 135 115 0 0
-0.5584 0.3427 -0.7567 0.707 0.373 0.601 167 144 126 0 0
-0.5556 0.3592 -0.7559 0.150 -0.964 0.221 158 133 113 0 0
-0.5469 0.3813 -0.7523 0.330 -0.944 0.027 165 142 121 0 0
-0.5357 0.3903 -0.7473 0.705 -0.643 0.300 168 143 125 0 0
-0.5348 0.4202 -0.7477 0.291 -0.927 0.236 148 122 102 0 0
-0.5313 0.4217 -0.7461 0.291 -0.927 0.236 163 136 117 0 0
-0.5218 0.4439 -0.7422 0.557 0.519 0.648 179 158 137 0 0
-0.4975 0.4935 -0.7320 0.010 0.003 1.000 188 168 145 0 0
-0.4926 0.5284 -0.7306 0.396 -0.894 -0.210 152 125 107 0 0
-0.4466 0.5303 -0.7088 0.600 0.118 0.791 162 140 119 0 0
-0.4644 0.5426 -0.7176 0.601 0.178 0.779 160 138 116 0 0
-0.4639 0.5447 -0.7174 0.667 0.124 0.735 165 143 123 0 0
-0.4208 0.6188 -0.6990 0.864 0.497 0.086 171 152 136 0 0
-0.4237 0.6224 -0.7005 0.800 0.598 0.038 172 152 135 0 0
-0.4339 0.6408 -0.7059 0.917 -0.327 0.227 134 110 90 0 0
-0.4331 0.6429 -0.7056 0.837 -0.195 0.511 145 120 103 0 0
-0.4291 0.6483 -0.7038 0.749 -0.624 -0.221 167 145 126 0 0
-0.4092 0.6492 -0.6944 0.970 -0.244 0.015 170 147 127 0 0
-0.3939 0.6659 -0.6875 0.794 -0.553 -0.252 171 148 131 0 0
-0.4035 0.6922 -0.6928 0.283 0.179 0.942 158 132 113 0 0
-0.4038 0.6948 -0.6931 0.362 0.270 0.892 174 152 131 0 0
-0.4008 0.6958 -0.6917 0.076 -0.900 0.428 180 159 139 0 0
-0.3905 0.7004 -0.6869 0.699 -0.674 -0.240 170 148 130 0 0
-0.3898 0.7025 -0.6867 0.996 -0.079 0.028 158 135 120 0 0
-0.3912 0.7081 -0.6875 0.888 0.461 -0.001 147 122 104 0 0
-0.3929 0.7114 -0.6884 0.866 0.499 0.028 154 128 110 0 0
-0.3946 0.7147 -0.6893 0.879 0.470 0.084 157 131 114 0 0
-0.3962 0.7180 -0.6901 0.911 0.412 0.005 161 136 119 0 0
-0.3988 0.7218 -0.6915 0.921 0.349 -0.175 170 147 129 0 0
-0.3869 0.7330 -0.6861 0.689 -0.125 0.714 173 149 132 0 0
-0.3843 0.7365 -0.6850 0.688 0.501 0.525 163 137 121 0 0
-0.3865 0.7402 -0.6861 0.706 0.560 0.433 170 145 127 0 0
-0.3826 0.7431 -0.6844 -0.030 -0.186 0.982 181 159 141 0 0
-0.3470 0.8420 -0.6702 0.847 -0.526 0.069 182 159 142 0 0
-0.3395 0.8422 -0.6667 0.041 -0.915 -0.402 184 163 144 0 0
-0.3257 0.8457 -0.6602 0.117 0.174 0.978 184 165 149 0 0
-0.3276 0.8602 -0.6615 0.898 0.113 0.425 176 155 135 0 0
-0.3315 0.8657 -0.6635 0.735 -0.675 0.060 173 153 133 0 0
-0.3309 0.8679 -0.6633 0.684 -0.711 0.162 174 153 133 0 0
-0.3282 0.8687 -0.6620 0.921 -0.071 0.382 177 155 138 0 0
-0.3281 0.8713 -0.6621 0.736 -0.614 0.286 178 156 139 0 0
-0.3266 0.8728 -0.6614 0.621 -0.635 0.460 179 159 142 0 0
-0.3253 0.8745 -0.6608 0.621 -0.635 0.460 177 158 142 0 0
-0.3185 0.8883 -0.6580 0.194 0.138 0.971 179 158 143 0 0
-0.2817 0.9160 -0.6412 0.647 -0.335 0.685 188 171 159 0 0
-0.2808 0.9179 -0.6408 0.583 -0.257 0.771 179 161 146 0 0
-0.2802 0.9201 -0.6406 0.698 0.030 0.715 175 157 143 0 0
-0.2803 0.9229 -0.6407 0.673 -0.087 0.735 178 161 147 0 0
-0.2799 0.9253 -0.6406 0.877 0.099 0.471 179 161 148 0 0
-0.2807 0.9287 -0.6411 0.923 0.203 0.327 178 160 146 0 0
-0.2813 0.9319 -0.6414 0.923 0.203 0.327 176 157 143 0 0
-0.2823 0.9355 -0.6420 0.940 0.293 0.173 175 156 141 0 0
-0.2835 0.9393 -0.6427 0.979 0.131 0.155 171 150 134 0 0
-0.2839 0.9423 -0.6430 0.979 0.131 0.155 164 142 126 0 0
-0.2834 0.9446 -0.6428 0.937 -0.081 0.340 164 141 125 0 0
-0.2829 0.9470 -0.6427 0.932 0.084 0.352 167 144 127 0 0
-0.2841 0.9508 -0.6433 0.875 0.068 0.478 165 142 124 0 0
-0.2855 0.9548 -0.6441 0.908 0.199 0.369 167 144 125 0 0
-0.2846 0.9568 -0.6438 0.973 0.232 -0.002 173 151 131 0 0
-0.2778 0.9732 -0.6410 0.509 -0.844 -0.169 150 129 114 0 0
-0.2758 0.9743 -0.6401 0.509 -0.844 -0.169 148 125 111 0 0
-0.2677 0.9754 -0.6362 0.389 -0.877 0.281 175 158 145 0 0
-0.2659 0.9766 -0.6354 0.389 -0.877 0.281 171 153 139 0 0
-0.2662 0.9796 -0.6356 0.824 -0.174 0.539 177 159 146 0 0
-0.2661 0.9824 -0.6357 0.821 -0.100 0.561 179 162 147 0 0
-0.2660 0.9851 -0.6357 0.799 0.273 0.536 174 157 143 0 0
-0.2685 0.9902 -0.6370 0.762 0.476 0.440 176 157 143 0 0
-0.2667 0.9914 -0.6362 0.278 0.230 0.933 177 159 145 0 0
-0.2673 1.0353 -0.6378 0.598 -0.268 0.755 182 165 151 0 0
-0.2666 1.0375 -0.6375 0.598 -0.268 0.755 182 165 150 0 0
-0.2560 1.0805 -0.6337 0.820 -0.470 0.326 152 130 114 0 0
-0.2532 1.0805 -0.6323 0.793 -0.609 -0.001 145 123 109 0 0
-0.2524 1.0888 -0.6322 0.498 -0.728 0.472 124 104 86 0 0
-0.2505 1.0898 -0.6313 0.066 -0.994 0.084 128 106 91 0 0
-0.2465 1.0916 -0.6295 0.916 -0.399 -0.037 148 126 109 0 0
-0.2470 1.0952 -0.6298 0.995 0.093 0.036 152 131 112 0 0
-0.2474 1.0986 -0.6301 0.995 0.093 0.036 160 139 122 0 0
-0.2460 1.1002 -0.6295 0.693 -0.720 -0.047 162 140 126 0 0
-0.2463 1.1036 -0.6297 0.844 -0.521 0.128 167 147 132 0 0
-0.2167 1.0923 -0.6153 0.693 -0.213 0.689 155 137 126 0 0
-0.2168 1.0955 -0.6154 0.730 -0.295 0.617 159 141 131 0 0
-0.2152 1.0966 -0.6146 0.803 0.130 0.582 163 146 136 0 0
-0.2154 1.0999 -0.6149 0.781 0.116 0.614 172 155 146 0 0
-0.2153 1.1028 -0.6149 0.796 -0.079 0.600 177 161 152 0 0
-0.2159 1.1065 -0.6153 0.779 0.093 0.620 175 160 150 0 0
-0.2161 1.1097 -0.6155 0.800 0.033 0.599 170 152 142 0 0
-0.2161 1.1128 -0.6156 0.800 0.033 0.599 168 149 139 0 0
-0.2154 1.1151 -0.6153 0.916 0.262 0.303 168 149 137 0 0
-0.2164 1.1193 -0.6159 0.916 0.262 0.303 166 148 134 0 0
-0.2180 1.1242 -0.6168 0.889 0.342 0.305 162 143 128 0 0
-0.2195 1.1290 -0.6177 0.933 0.322 0.160 150 129 112 0 0
-0.2211 1.1339 -0.6185 0.933 0.322 0.160 147 126 112 0 0
-0.1944 1.1865 -0.6073 0.643 -0.761 -0.082 147 129 115 0 0
-0.1907 1.1978 -0.6059 0.344 0.024 0.938 166 148 136 0 0
-0.1902 1.2005 -0.6057 0.535 0.132 0.834 175 157 145 0 0
-0.1927 1.2069 -0.6071 0.767 -0.541 0.346 178 161 148 0 0
-0.1906 1.2074 -0.6061 0.970 0.194 0.147 175 157 144 0 0
-0.1913 1.2116 -0.6066 0.950 0.283 0.131 175 158 144 0 0
-0.1927 1.2166 -0.6074 0.950 0.283 0.131 172 156 143 0 0
-0.1785 1.2306 -0.6010 -0.252 -0.682 0.687 164 146 130 0 0
-0.1736 1.2304 -0.5987 0.045 -0.280 0.959 174 158 143 0 0
-0.1718 1.2346 -0.5979 0.113 -0.314 0.943 176 161 148 0 0
-0.1680 1.2327 -0.5961 0.940 0.068 0.334 173 157 144 0 0
-0.1681 1.2361 -0.5962 0.915 0.037 0.403 175 160 148 0 0
-0.1679 1.2392 -0.5962 0.818 -0.127 0.561 180 165 155 0 0
-0.1677 1.2422 -0.5962 0.881 0.021 0.472 178 164 151 0 0
-0.1677 1.2454 -0.5963 0.877 0.028 0.480 178 163 150 0 0
-0.1669 1.2509 -0.5960 0.604 -0.282 0.745 176 161 148 0 0
-0.1661 1.2532 -0.5958 0.411 -0.319 0.854 176 160 147 0 0
-0.1653 1.2554 -0.5954 0.337 -0.423 0.841 174 159 145 0 0
-0.1631 1.2590 -0.5945 0.264 -0.544 0.797 170 152 139 0 0
-0.1629 1.2620 -0.5945 0.393 -0.297 0.870 174 157 143 0 0
-0.1583 1.2722 -0.5926 0.661 -0.380 0.647 172 154 140 0 0
-0.1559 1.2754 -0.5915 0.738 -0.496 0.456 168 150 136 0 0
-0.1548 1.2772 -0.5910 0.884 -0.327 0.333 165 148 132 0 0
-0.1540 1.2794 -0.5907 0.889 -0.420 0.182 164 146 131 0 0
-0.1542 1.2831 -0.5909 0.978 -0.192 0.080 167 149 134 0 0
-0.1539 1.2860 -0.5908 0.984 -0.141 0.111 166 149 134 0 0
-0.1537 1.2893 -0.5909 0.967 0.115 0.227 166 148 134 0 0
-0.1551 1.2947 -0.5917 0.923 0.287 0.255 166 149 133 0 0
-0.1570 1.3010 -0.5928 0.906 0.329 0.268 166 149 134 0 0
-0.1443 1.2990 -0.5867 0.889 0.203 0.411 170 154 137 0 0
-0.1451 1.3037 -0.5872 0.848 0.199 0.492 171 154 138 0 0
-0.1457 1.3080 -0.5876 0.647 0.065 0.760 172 154 140 0 0
-0.1463 1.3125 -0.5880 0.653 0.175 0.737 172 156 138 0 0
-0.1474 1.3176 -0.5887 0.610 0.236 0.756 169 149 132 0 0
-0.1486 1.3229 -0.5894 0.610 0.236 0.756 159 138 121 0 0
-0.1415 1.3330 -0.5863 -0.274 -0.828 0.489 147 128 113 0 0
-0.1347 1.3257 -0.5828 -0.007 -0.273 0.962 154 136 121 0 0
-0.1305 1.3261 -0.5808 0.510 0.131 0.850 165 147 134 0 0
-0.1313 1.3310 -0.5814 0.576 0.186 0.796 169 153 139 0 0
-0.1304 1.3329 -0.5810 0.540 0.111 0.834 169 153 140 0 0
-0.1114 1.3873 -0.5735 0.622 -0.275 0.733 175 159 143 0 0
-0.1108 1.3898 -0.5733 0.704 -0.236 0.670 177 162 147 0 0
-0.1038 1.3924 -0.5700 -0.035 -0.767 0.640 168 152 137 0 0
-0.6106 0.1751 -0.7791 0.405 -0.422 0.811 154 131 112 0 0
-0.6094 0.1770 -0.7786 0.437 -0.264 0.860 149 126 109 0 0
-0.5919 0.1947 -0.7708 0.105 -0.398 0.911 182 164 141 0 0
-0.5894 0.1966 -0.7696 0.197 -0.586 0.786 185 168 146 0 0
-0.5945 0.2043 -0.7723 0.854 -0.430 0.294 181 160 139 0 0
-0.6036 0.2238 -0.7772 0.969 0.213 -0.124 165 144 122 0 0
-0.6069 0.2278 -0.7789 0.703 -0.710 -0.023 183 165 143 0 0
-0.6043 0.2297 -0.7777 0.642 -0.766 0.035 186 169 147 0 0
-0.6018 0.2317 -0.7766 0.502 -0.865 -0.020 186 169 149 0 0
-0.5897 0.2355 -0.7709 0.320 -0.947 -0.010 171 150 129 0 0
-0.5910 0.2594 -0.7722 0.632 -0.681 0.370 163 140 119 0 0
-0.5885 0.2613 -0.7711 0.529 -0.808 0.259 151 126 106 0 0
-0.5874 0.2835 -0.7712 0.519 -0.850 0.091 153 128 110 0 0
-0.5783 0.2871 -0.7670 0.945 0.224 -0.237 144 118 100 0 0
-0.5699 0.3007 -0.7633 0.431 -0.737 0.521 159 135 115 0 0
-0.5572 0.3242 -0.7580 0.102 0.057 0.993 179 161 144 0 0
-0.5570 0.3263 -0.7579 0.052 0.026 0.998 177 159 139 0 0
-0.5559 0.3282 -0.7574 0.161 -0.186 0.969 177 158 137 0 0
-0.5545 0.3322 -0.7569 0.539 -0.006 0.843 175 156 136 0 0
-0.5534 0.3362 -0.7565 0.935 0.091 0.342 162 140 121 0 0
-0.5576 0.3450 -0.7588 0.771 0.495 0.401 186 167 149 0 0
-0.5429 0.3810 -0.7528 0.384 -0.890 0.245 165 140 121 0 0
-0.5348 0.4054 -0.7497 0.668 -0.743 0.041 137 112 94 0 0
-0.5304 0.4132 -0.7478 0.593 0.478 0.648 140 115 97 0 0
-0.5164 0.4409 -0.7419 0.603 0.345 0.719 172 151 129 0 0
-0.5200 0.4438 -0.7437 0.608 0.601 0.519 173 152 131 0 0
-0.4932 0.4816 -0.7320 0.463 0.553 0.693 163 141 123 0 0
-0.4909 0.5055 -0.7316 0.726 0.620 0.299 163 141 121 0 0
-0.4928 0.5083 -0.7326 0.749 0.544 0.378 159 137 117 0 0
-0.4605 0.5439 -0.7181 0.204 -0.016 0.979 162 139 119 0 0
-0.4121 0.6203 -0.6972 0.606 0.470 0.642 182 165 151 0 0
-0.4141 0.6235 -0.6983 0.587 0.384 0.713 166 145 127 0 0
-0.4161 0.6290 -0.6994 0.543 0.064 0.837 139 115 96 0 0
-0.4157 0.6312 -0.6993 0.506 -0.037 0.862 139 113 96 0 0
-0.4113 0.6434 -0.6975 0.944 -0.304 0.131 165 141 122 0 0
-0.4090 0.6495 -0.6966 0.948 -0.270 -0.170 164 141 121 0 0
-0.4026 0.6585 -0.6938 0.768 -0.628 -0.128 165 142 122 0 0
-0.4011 0.6625 -0.6932 0.855 -0.116 -0.505 164 141 123 0 0
-0.3956 0.6648 -0.6907 0.675 -0.641 -0.365 169 146 128 0 0
-0.3980 0.6851 -0.6924 0.553 0.581 0.597 163 139 121 0 0
-0.3898 0.7053 -0.6891 0.649 0.532 0.544 153 127 110 0 0
-0.3920 0.7089 -0.6902 0.660 0.622 0.422 148 123 105 0 0
-0.3925 0.7116 -0.6906 0.751 0.570 0.334 151 126 109 0 0
-0.3943 0.7150 -0.6915 0.744 0.529 0.408 155 129 112 0 0
-0.4015 0.7237 -0.6952 0.614 0.392 0.685 178 155 138 0 0
-0.4031 0.7270 -0.6961 0.920 0.390 0.049 187 168 151 0 0
-0.4033 0.7297 -0.6963 0.833 0.283 -0.476 183 164 145 0 0
-0.3828 0.7362 -0.6866 0.691 0.474 0.546 171 145 128 0 0
-0.3802 0.7422 -0.6856 -0.020 -0.295 0.955 182 160 143 0 0
-0.3669 0.7423 -0.6792 0.533 -0.696 0.482 179 157 141 0 0
-0.3555 0.7531 -0.6740 -0.156 -0.419 0.895 175 153 134 0 0
-0.3430 0.8164 -0.6700 0.077 -0.214 0.974 190 172 154 0 0
-0.3407 0.8200 -0.6690 0.254 0.093 0.963 191 173 154 0 0
-0.3474 0.8402 -0.6728 0.433 -0.551 0.714 174 151 130 0 0
-0.3460 0.8419 -0.6722 0.517 -0.531 0.671 183 161 142 0 0
-0.3460 0.8445 -0.6722 0.402 0.007 0.915 186 166 148 0 0
-0.3355 0.8399 -0.6670 0.037 -0.975 -0.220 182 163 144 0 0
-0.3285 0.8403 -0.6637 0.351 -0.853 0.387 178 157 137 0 0
-0.3270 0.8420 -0.6631 0.270 -0.736 0.621 180 159 140 0 0
-0.3308 0.8684 -0.6657 -0.057 -0.241 0.969 172 149 131 0 0
-0.2996 0.9202 -0.6522 -0.178 -0.923 0.340 168 143 126 0 0
-0.2796 0.9121 -0.6424 0.786 -0.416 0.458 181 162 148 0 0
-0.2787 0.9167 -0.6421 0.881 -0.221 0.418 183 165 153 0 0
-0.2789 0.9223 -0.6424 0.767 0.164 0.620 174 157 142 0 0
-0.2791 0.9252 -0.6425 0.846 0.254 0.469 176 158 143 0 0
-0.2795 0.9282 -0.6428 0.898 0.203 0.389 175 157 144 0 0
-0.2805 0.9319 -0.6435 0.923 0.203 0.327 174 155 142 0 0
-0.2815 0.9354 -0.6440 0.897 0.332 0.292 175 156 141 0 0
-0.2831 0.9395 -0.6449 0.890 0.299 0.345 172 151 135 0 0
-0.2833 0.9424 -0.6451 0.836 -0.137 0.531 165 142 127 0 0
-0.2818 0.9439 -0.6444 0.784 -0.399 0.475 158 135 120 0 0
-0.2825 0.9473 -0.6449 0.817 -0.154 0.556 160 137 121 0 0
-0.2826 0.9501 -0.6450 0.806 0.012 0.592 159 137 116 0 0
-0.2831 0.9533 -0.6453 0.761 0.190 0.620 162 138 120 0 0
-0.2777 0.9738 -0.6433 0.509 -0.844 -0.169 148 127 113 0 0
-0.2643 0.9785 -0.6370 0.998 -0.057 0.013 174 156 142 0 0
-0.2642 0.9813 -0.6371 0.992 -0.127 -0.002 171 153 139 0 0
-0.2647 0.9846 -0.6374 0.961 0.249 0.120 169 150 136 0 0
-0.2685 1.0341 -0.6407 0.408 -0.799 0.441 171 151 136 0 0
-0.2555 1.0596 -0.6352 0.087 -0.228 0.970 156 137 122 0 0
-0.2550 1.0621 -0.6351 0.253 -0.090 0.963 160 141 127 0 0
-0.2448 1.0935 -0.6311 0.941 0.166 0.294 150 128 112 0 0
-0.2433 1.1010 -0.6306 0.208 -0.570 0.795 171 152 138 0 0
-0.2166 1.0930 -0.6176 0.894 -0.147 0.422 154 134 122 0 0
-0.2161 1.0954 -0.6174 0.806 -0.553 0.211 155 136 124 0 0
-0.2165 1.0988 -0.6177 0.844 -0.218 0.490 162 144 134 0 0
-0.2144 1.0994 -0.6167 0.829 0.033 0.558 169 153 142 0 0
-0.2143 1.1023 -0.6168 0.779 0.093 0.620 173 159 148 0 0
-0.2145 1.1056 -0.6170 0.779 0.093 0.620 176 161 151 0 0
-0.2148 1.1090 -0.6172 0.800 0.033 0.599 172 155 145 0 0
-0.2150 1.1122 -0.6174 0.835 0.093 0.542 164 147 135 0 0
-0.2149 1.1152 -0.6174 0.863 0.090 0.497 163 144 131 0 0
-0.2151 1.1185 -0.6177 0.863 0.090 0.497 162 144 129 0 0
-0.2148 1.1212 -0.6176 0.786 0.204 0.584 162 143 128 0 0
-0.2154 1.1250 -0.6180 0.786 0.204 0.584 157 135 121 0 0
-0.2168 1.1296 -0.6188 0.789 0.307 0.532 150 129 115 0 0
-0.2203 1.1525 -0.6212 -0.045 -0.127 0.991 158 137 123 0 0
-0.2067 1.1488 -0.6145 -0.084 -0.432 0.898 167 148 132 0 0
-0.1980 1.1476 -0.6103 0.141 0.028 0.990 166 146 131 0 0
-0.1919 1.1970 -0.6089 0.111 -0.993 -0.048 166 146 133 0 0
-0.1870 1.1939 -0.6064 0.567 0.100 0.817 166 147 135 0 0
-0.1866 1.1965 -0.6063 0.962 0.030 0.271 173 155 142 0 0
-0.1877 1.2013 -0.6070 0.993 -0.083 0.085 175 157 144 0 0
-0.1906 1.2083 -0.6086 0.986 0.162 0.032 173 155 143 0 0
-0.1698 1.2294 -0.5992 0.097 -0.364 0.926 193 178 165 0 0
-0.1682 1.2305 -0.5985 0.467 -0.129 0.875 180 165 151 0 0
-0.1666 1.2315 -0.5977 0.869 0.075 0.489 169 154 139 0 0
-0.1668 1.2351 -0.5979 0.869 0.075 0.489 171 154 140 0 0
-0.1668 1.2385 -0.5981 0.843 -0.083 0.532 175 161 149 0 0
-0.1667 1.2416 -0.5981 0.834 -0.042 0.551 178 165 154 0 0
-0.1666 1.2448 -0.5982 0.877 0.028 0.480 180 166 155 0 0
-0.1654 1.2497 -0.5977 0.602 -0.313 0.735 182 170 158 0 0
-0.1647 1.2521 -0.5975 0.589 -0.401 0.701 183 170 159 0 0
-0.1573 1.2716 -0.5945 0.581 -0.278 0.765 173 155 141 0 0
-0.1549 1.2748 -0.5934 0.735 -0.525 0.429 172 154 140 0 0
-0.1541 1.2771 -0.5931 0.884 -0.327 0.333 168 151 135 0 0
-0.1533 1.2793 -0.5928 0.941 -0.279 0.190 163 146 130 0 0
-0.1538 1.2835 -0.5932 0.976 -0.062 0.207 166 149 133 0 0
-0.1536 1.2866 -0.5932 0.967 -0.057 0.249 165 147 133 0 0
-0.1533 1.2894 -0.5931 0.967 0.115 0.227 167 149 136 0 0
-0.1443 1.2931 -0.5889 -0.077 -0.640 0.765 170 155 139 0 0
-0.1432 1.2949 -0.5884 0.836 0.208 0.507 172 155 140 0 0
-0.1454 1.3051 -0.5898 0.762 0.175 0.623 173 158 142 0 0
-0.1446 1.3072 -0.5894 0.682 0.069 0.728 176 160 145 0 0
-0.1442 1.3101 -0.5893 0.653 0.175 0.737 180 164 150 0 0
-0.1454 1.3154 -0.5901 0.657 0.208 0.725 168 150 135 0 0
-0.1463 1.3203 -0.5907 0.657 0.208 0.725 162 141 126 0 0
-0.1472 1.3252 -0.5912 0.657 0.208 0.725 158 138 121 0 0
-0.1289 1.3176 -0.5822 0.081 -0.074 0.994 154 135 121 0 0
-0.1273 1.3185 -0.5815 0.205 -0.052 0.977 162 145 130 0 0
-0.1277 1.3227 -0.5818 0.460 0.139 0.877 171 154 140 0 0
-0.1278 1.3298 -0.5821 0.592 0.165 0.789 173 160 145 0 0
-0.1279 1.3334 -0.5822 0.703 0.071 0.707 177 165 151 0 0
-0.1112 1.3843 -0.5757 0.770 -0.250 0.587 174 157 141 0 0
-0.1103 1.3864 -0.5754 0.799 -0.235 0.553 169 151 136 0 0
-0.1097 1.3889 -0.5752 0.770 -0.191 0.609 168 151 136 0 0
-0.1091 1.3916 -0.5750 0.840 -0.197 0.506 168 150 135 0 0
-0.1085 1.3941 -0.5747 0.878 -0.087 0.471 164 147 132 0 0
-0.1038 1.3934 -0.5725 0.156 -0.984 -0.085 161 144 129 0 0
-0.5926 0.1930 -0.7733 0.084 0.027 0.996 169 150 128 0 0
-0.5890 0.1949 -0.7717 0.182 -0.335 0.925 194 178 155 0 0
-0.5857 0.1969 -0.7702 0.175 -0.480 0.860 189 173 150 0 0
-0.5940 0.2025 -0.7743 0.829 -0.230 0.509 178 161 139 0 0
-0.5916 0.2064 -0.7733 0.718 -0.637 0.281 177 156 135 0 0
-0.5902 0.2084 -0.7726 0.743 -0.601 0.296 174 153 132 0 0
-0.5885 0.2103 -0.7719 0.853 -0.500 -0.148 175 154 132 0 0
-0.6058 0.2280 -0.7807 0.711 -0.695 -0.104 178 157 136 0 0
-0.5892 0.2357 -0.7730 0.327 -0.936 -0.129 167 143 121 0 0
-0.5870 0.2575 -0.7726 0.705 -0.276 0.654 185 164 142 0 0
-0.5870 0.2615 -0.7727 0.657 -0.692 0.300 162 139 119 0 0
-0.5838 0.2674 -0.7714 0.842 -0.537 0.039 156 130 112 0 0
-0.5852 0.2694 -0.7721 0.821 -0.571 -0.004 146 123 103 0 0
-0.5796 0.2853 -0.7699 0.971 0.042 -0.237 142 118 99 0 0
-0.5530 0.3323 -0.7586 0.516 -0.073 0.854 181 163 143 0 0
-0.5524 0.3343 -0.7583 0.695 -0.029 0.718 179 161 142 0 0
-0.5530 0.3364 -0.7587 0.963 0.159 0.218 176 157 138 0 0
-0.5543 0.3407 -0.7594 0.946 0.258 0.195 170 147 130 0 0
-0.5307 0.4179 -0.7504 0.760 -0.314 0.569 167 142 119 0 0
-0.5134 0.4758 -0.7439 0.027 -0.999 0.021 177 155 140 0 0
-0.4911 0.4836 -0.7334 0.275 0.286 0.918 189 169 152 0 0
-0.4924 0.5085 -0.7348 0.808 0.534 0.251 156 132 113 0 0
-0.4927 0.5109 -0.7350 0.794 0.582 0.177 162 138 118 0 0
-0.5045 0.5256 -0.7411 0.321 -0.932 -0.166 129 107 89 0 0
-0.4593 0.5439 -0.7199 0.421 0.145 0.895 165 141 121 0 0
-0.4609 0.5535 -0.7210 0.485 0.489 0.725 171 148 129 0 0
-0.4487 0.5884 -0.7162 0.298 -0.929 0.218 163 140 118 0 0
-0.4458 0.5897 -0.7148 0.298 -0.929 0.218 157 132 111 0 0
-0.4374 0.5912 -0.7108 0.633 -0.713 0.303 162 138 115 0 0
-0.4354 0.5928 -0.7099 0.371 -0.789 0.489 170 147 126 0 0
-0.4302 0.5978 -0.7076 0.595 0.103 0.797 172 151 129 0 0
-0.4305 0.6002 -0.7078 0.525 0.154 0.837 176 155 133 0 0
-0.4077 0.6051 -0.6970 0.605 -0.722 0.336 183 165 150 0 0
-0.4108 0.6202 -0.6989 0.649 0.479 0.591 189 174 163 0 0
-0.4126 0.6232 -0.6999 0.638 0.468 0.612 174 155 137 0 0
-0.4138 0.6261 -0.7005 0.593 0.228 0.772 155 133 112 0 0
-0.4151 0.6289 -0.7013 0.737 -0.034 0.675 143 120 99 0 0
-0.4153 0.6314 -0.7014 0.766 -0.080 0.638 141 116 97 0 0
-0.4149 0.6336 -0.7013 0.762 -0.145 0.631 142 116 98 0 0
-0.4113 0.6438 -0.6999 0.931 -0.365 -0.017 154 129 112 0 0
-0.4080 0.6494 -0.6985 0.909 0.247 0.335 158 133 112 0 0
-0.4055 0.6555 -0.6975 0.251 -0.929 0.273 176 155 135 0 0
-0.4031 0.6568 -0.6964 0.329 -0.912 0.246 170 149 128 0 0
-0.3867 0.6634 -0.6887 0.570 0.578 0.584 167 144 126 0 0
-0.3919 0.6706 -0.6914 0.444 0.243 0.862 177 156 140 0 0
-0.3928 0.6734 -0.6919 0.504 0.329 0.798 170 148 131 0 0
-0.3924 0.6756 -0.6918 0.586 0.313 0.748 170 148 131 0 0
-0.3884 0.7051 -0.6908 0.410 0.417 0.811 155 131 115 0 0
-0.3909 0.7088 -0.6921 0.367 0.374 0.852 151 126 109 0 0
-0.3919 0.7118 -0.6927 0.517 0.359 0.777 154 127 110 0 0
-0.3921 0.7143 -0.6928 0.245 0.331 0.911 154 128 111 0 0
-0.3993 0.7230 -0.6965 0.299 0.344 0.890 168 145 125 0 0
-0.4030 0.7274 -0.6985 0.853 0.391 0.345 185 163 148 0 0
-0.3656 0.7421 -0.6809 0.533 -0.696 0.482 176 152 135 0 0
-0.3656 0.7445 -0.6810 0.669 -0.334 0.663 177 153 138 0 0
-0.3649 0.7466 -0.6807 0.659 -0.331 0.675 174 151 136 0 0
-0.3611 0.7519 -0.6791 0.792 0.454 0.408 174 152 137 0 0
-0.3748 0.7878 -0.6868 0.186 -0.929 0.321 172 147 129 0 0
-0.3721 0.7888 -0.6855 0.235 -0.947 0.217 165 139 119 0 0
-0.3510 0.8040 -0.6758 0.525 -0.644 0.556 184 164 147 0 0
-0.3387 0.8089 -0.6700 -0.053 -0.874 0.483 195 177 163 0 0
-0.3390 0.8168 -0.6704 0.103 -0.152 0.983 190 171 153 0 0
-0.3376 0.8211 -0.6699 0.535 0.521 0.665 188 168 149 0 0
-0.3267 0.8396 -0.6652 0.599 -0.138 0.789 181 160 142 0 0
-0.3190 0.8420 -0.6615 0.625 -0.753 0.206 176 157 139 0 0
-0.3155 0.8738 -0.6609 -0.155 -0.621 0.769 191 172 155 0 0
-0.3099 0.8829 -0.6584 0.125 0.178 0.976 173 154 137 0 0
-0.2795 0.9153 -0.6448 0.801 -0.594 -0.069 185 169 157 0 0
-0.2783 0.9170 -0.6443 0.825 -0.487 0.287 189 174 163 0 0
-0.2764 0.9208 -0.6435 0.930 -0.025 0.366 177 158 145 0 0
-0.2773 0.9243 -0.6440 0.898 0.147 0.414 169 151 136 0 0
-0.2786 0.9281 -0.6447 0.898 0.203 0.389 170 151 137 0 0
-0.2797 0.9318 -0.6454 0.946 0.310 0.099 172 150 135 0 0
-0.2818 0.9417 -0.6467 0.938 -0.006 0.346 168 145 131 0 0
-0.2817 0.9444 -0.6468 0.782 -0.613 0.114 161 138 123 0 0
-0.2813 0.9468 -0.6466 0.767 -0.622 0.157 156 132 117 0 0
-0.2812 0.9495 -0.6467 0.839 -0.229 0.493 153 129 113 0 0
-0.2542 1.0325 -0.6362 0.147 0.135 0.980 174 155 141 0 0
-0.2521 1.0628 -0.6361 0.298 0.138 0.944 168 150 135 0 0
-0.2514 1.0801 -0.6363 0.392 -0.162 0.906 147 126 111 0 0
-0.2502 1.0818 -0.6358 0.232 -0.269 0.935 151 131 116 0 0
-0.2504 1.0850 -0.6360 0.060 -0.225 0.972 142 124 108 0 0
-0.2453 1.0887 -0.6337 -0.106 -0.988 0.115 134 113 96 0 0
-0.2219 1.0845 -0.6223 -0.226 -0.963 0.149 153 131 118 0 0
-0.2217 1.0872 -0.6222 -0.155 -0.812 0.563 156 134 120 0 0
-0.2160 1.0839 -0.6194 0.986 0.141 -0.089 154 135 122 0 0
-0.2157 1.0896 -0.6194 0.991 0.040 0.127 151 131 119 0 0
-0.2162 1.0932 -0.6198 0.913 -0.391 0.120 152 132 120 0 0
-0.2156 1.0955 -0.6196 0.777 -0.606 0.173 154 136 123 0 0
-0.2145 1.0973 -0.6191 0.893 -0.355 0.277 156 139 127 0 0
-0.2134 1.0991 -0.6186 0.955 -0.123 0.269 164 147 136 0 0
-0.2131 1.1017 -0.6186 0.955 -0.123 0.269 170 155 144 0 0
-0.2127 1.1043 -0.6185 0.890 -0.044 0.454 176 161 151 0 0
-0.2135 1.1083 -0.6190 0.835 0.093 0.542 173 156 146 0 0
-0.2136 1.1114 -0.6191 0.815 0.189 0.548 166 148 135 0 0
-0.2154 1.1474 -0.6211 -0.058 -0.156 0.986 163 141 127 0 0
-0.1937 1.1557 -0.6109 0.006 -0.130 0.991 162 143 128 0 0
-0.1918 1.1977 -0.6113 0.265 -0.771 -0.579 165 146 135 0 0
-0.1867 1.1943 -0.6087 0.891 -0.331 -0.310 165 146 132 0 0
-0.1851 1.1954 -0.6079 0.845 0.141 0.516 168 150 136 0 0
-0.1844 1.1978 -0.6077 0.824 0.088 0.559 171 154 141 0 0
-0.1860 1.2030 -0.6086 0.828 0.155 0.539 172 154 142 0 0
-0.1859 1.2061 -0.6087 0.622 0.258 0.739 171 153 140 0 0
-0.1894 1.2205 -0.6108 0.726 0.324 0.607 173 155 143 0 0
-0.1911 1.2292 -0.6118 0.018 -0.286 0.958 177 162 148 0 0
-0.1730 1.2247 -0.6030 0.389 -0.855 -0.343 165 146 131 0 0
-0.1707 1.2249 -0.6019 0.476 -0.822 -0.312 163 144 129 0 0
-0.1680 1.2245 -0.6006 0.565 -0.551 0.614 168 151 136 0 0
-0.1673 1.2269 -0.6004 0.660 -0.211 0.721 181 164 150 0 0
-0.1661 1.2285 -0.5998 0.540 0.136 0.830 175 159 144 0 0
-0.1664 1.2321 -0.6001 0.624 0.148 0.767 169 153 139 0 0
-0.1657 1.2344 -0.5998 0.795 0.133 0.592 166 150 136 0 0
-0.1652 1.2371 -0.5997 0.848 0.139 0.511 169 154 139 0 0
-0.1656 1.2408 -0.5999 0.793 -0.056 0.607 173 158 145 0 0
-0.1641 1.2487 -0.5995 0.648 -0.345 0.679 182 170 157 0 0
-0.1637 1.2515 -0.5994 0.718 -0.387 0.578 182 170 158 0 0
-0.1574 1.2626 -0.5967 0.595 -0.147 0.790 157 139 124 0 0
-0.1560 1.2639 -0.5961 0.860 0.062 0.506 161 144 128 0 0
-0.1559 1.2672 -0.5961 0.883 -0.075 0.463 167 150 133 0 0
-0.1554 1.2698 -0.5959 0.859 -0.239 0.454 170 152 139 0 0
-0.1555 1.2733 -0.5961 0.807 -0.584 0.089 174 158 143 0 0
-0.1540 1.2744 -0.5954 0.779 -0.462 0.424 174 157 143 0 0
-0.1534 1.2769 -0.5952 0.884 -0.327 0.333 175 158 143 0 0
-0.1527 1.2793 -0.5949 0.762 -0.122 0.636 169 153 137 0 0
-0.1533 1.2835 -0.5953 0.827 0.024 0.562 163 146 131 0 0
-0.1426 1.2915 -0.5904 0.162 -0.627 0.762 172 154 140 0 0
-0.1425 1.2948 -0.5905 0.594 -0.066 0.802 171 154 140 0 0
-0.1425 1.2982 -0.5906 0.786 0.214 0.580 173 157 141 0 0
-0.1437 1.3033 -0.5913 0.614 0.063 0.787 174 158 142 0 0
-0.1436 1.3066 -0.5914 0.477 -0.153 0.866 177 160 146 0 0
-0.1427 1.3123 -0.5911 0.474 0.033 0.880 170 153 137 0 0
-0.1444 1.3182 -0.5921 0.633 0.195 0.749 159 140 123 0 0
-0.1452 1.3230 -0.5927 0.633 0.195 0.749 157 136 119 0 0
-0.1236 1.3136 -0.5820 0.292 0.058 0.955 167 150 134 0 0
-0.1242 1.3180 -0.5824 0.464 0.174 0.868 172 155 141 0 0
-0.1228 1.3403 -0.5824 0.599 -0.631 0.493 138 121 108 0 0
-0.1217 1.3419 -0.5819 0.364 -0.767 0.528 141 121 107 0 0
-0.1204 1.3434 -0.5814 0.546 -0.660 0.516 147 128 116 0 0
-0.1140 1.3827 -0.5794 0.835 -0.546 0.067 178 160 145 0 0
-0.1105 1.3804 -0.5777 0.956 -0.090 0.278 170 152 136 0 0
-0.1102 1.3836 -0.5777 0.955 -0.061 0.289 167 148 133 0 0
-0.1096 1.3861 -0.5775 0.945 -0.228 0.236 165 146 130 0 0
-0.1089 1.3886 -0.5772 0.922 -0.158 0.355 163 144 130 0 0
-0.1081 1.3908 -0.5769 0.840 -0.197 0.506 164 146 131 0 0
-0.1075 1.3935 -0.5767 0.946 -0.114 0.302 161 143 128 0 0
-0.5920 0.1932 -0.7753 0.070 0.127 0.989 177 157 135 0 0
-0.5930 0.1951 -0.7759 0.088 0.115 0.989 179 161 139 0 0
-0.5844 0.1971 -0.7718 0.233 -0.452 0.861 181 165 142 0 0
-0.5868 0.2105 -0.7734 0.924 0.138 -0.356 175 154 131 0 0
-0.6050 0.2282 -0.7827 0.672 -0.732 0.114 165 143 122 0 0
-0.5832 0.2615 -0.7733 0.504 -0.480 0.718 179 157 137 0 0
-0.5844 0.2636 -0.7739 0.798 -0.426 0.427 171 148 126 0 0
-0.5898 0.2739 -0.7768 0.717 -0.634 -0.291 152 127 106 0 0
-0.5709 0.2972 -0.7684 0.433 -0.876 0.211 165 142 121 0 0
-0.5530 0.3450 -0.7613 0.443 -0.054 0.895 186 167 149 0 0
-0.5531 0.3492 -0.7615 0.278 -0.528 0.802 173 151 132 0 0
-0.5545 0.3577 -0.7624 0.966 -0.259 -0.011 163 140 119 0 0
-0.5226 0.4537 -0.7500 0.306 0.588 0.749 149 125 105 0 0
-0.4945 0.4760 -0.7372 0.095 -0.947 0.308 171 149 129 0 0
-0.4850 0.4846 -0.7328 0.677 -0.243 0.695 200 184 168 0 0
-0.4847 0.4890 -0.7329 0.114 -0.423 0.899 198 182 165 0 0
-0.4903 0.5083 -0.7361 0.710 0.428 0.559 149 123 106 0 0
-0.4914 0.5108 -0.7367 0.710 0.428 0.559 149 125 109 0 0
-0.5122 0.5212 -0.7471 0.409 -0.882 0.234 156 134 113 0 0
-0.5037 0.5257 -0.7432 0.313 -0.941 0.131 134 111 92 0 0
-0.4443 0.5417 -0.7150 0.514 0.136 0.847 176 154 133 0 0
-0.4453 0.5465 -0.7156 0.463 0.146 0.874 174 152 131 0 0
-0.4475 0.5745 -0.7175 0.951 0.303 0.065 135 112 95 0 0
-0.4504 0.5802 -0.7192 0.772 0.405 0.489 155 130 110 0 0
-0.4339 0.5926 -0.7115 0.448 -0.509 0.735 161 135 114 0 0
-0.4282 0.5974 -0.7089 0.500 -0.075 0.863 171 149 127 0 0
-0.4066 0.6050 -0.6988 0.710 -0.641 0.290 180 161 146 0 0
-0.4058 0.6070 -0.6985 0.741 -0.588 0.324 184 168 155 0 0
-0.4140 0.6312 -0.7031 0.842 0.047 0.537 150 124 106 0 0
-0.4138 0.6335 -0.7031 0.857 -0.023 0.515 145 119 104 0 0
-0.4137 0.6358 -0.7032 0.857 -0.023 0.515 143 117 100 0 0
-0.4128 0.6378 -0.7028 0.910 -0.255 0.326 144 118 101 0 0
-0.4083 0.6429 -0.7008 0.650 -0.753 0.105 152 126 109 0 0
-0.4049 0.6485 -0.6993 0.774 0.406 0.486 151 125 108 0 0
-0.4053 0.6510 -0.6996 0.421 -0.217 0.880 148 122 106 0 0
-0.3888 0.6696 -0.6922 0.717 0.260 0.647 166 144 127 0 0
-0.3910 0.6730 -0.6934 0.593 0.354 0.723 167 144 129 0 0
-0.3923 0.6760 -0.6941 0.493 0.167 0.854 168 145 129 0 0
-0.3891 0.7108 -0.6936 0.469 0.232 0.852 149 123 107 0 0
-0.3885 0.7129 -0.6934 0.213 0.286 0.934 151 126 110 0 0
-0.3637 0.7439 -0.6824 0.681 -0.666 0.305 169 143 126 0 0
-0.3619 0.7454 -0.6816 0.805 -0.554 0.214 168 142 122 0 0
-0.3606 0.7471 -0.6810 0.844 -0.504 -0.185 168 142 125 0 0
-0.3549 0.7513 -0.6784 0.917 0.124 -0.379 170 145 127 0 0
-0.3492 0.8007 -0.6772 0.831 -0.333 0.445 173 151 132 0 0
-0.3487 0.8030 -0.6770 0.677 -0.641 0.362 174 151 133 0 0
-0.3241 0.8358 -0.6662 0.784 0.002 0.621 182 161 142 0 0
-0.3249 0.8389 -0.6667 0.599 -0.138 0.789 177 157 138 0 0
-0.3237 0.8407 -0.6661 0.417 -0.597 0.685 176 155 139 0 0
-0.3225 0.8424 -0.6656 0.501 -0.507 0.702 176 156 140 0 0
-0.3207 0.8464 -0.6649 0.970 -0.159 0.186 173 150 133 0 0
-0.3216 0.8496 -0.6654 0.579 0.736 0.349 173 151 131 0 0
-0.3258 0.8552 -0.6676 0.562 0.772 0.298 172 149 131 0 0
-0.3254 0.8629 -0.6677 0.389 -0.485 0.783 162 141 124 0 0
-0.3123 0.8719 -0.6616 -0.127 -0.582 0.803 193 174 157 0 0
-0.3110 0.8736 -0.6611 0.075 -0.547 0.834 192 174 159 0 0
-0.3079 0.8739 -0.6595 0.658 0.140 0.740 191 172 156 0 0
-0.3064 0.8755 -0.6589 0.361 0.005 0.933 186 167 151 0 0
-0.3061 0.8779 -0.6588 0.201 0.151 0.968 186 169 151 0 0
-0.2964 0.9187 -0.6554 -0.187 -0.946 0.265 159 133 115 0 0
-0.2776 0.9170 -0.6463 0.762 -0.645 -0.060 187 172 161 0 0
-0.2762 0.9185 -0.6457 0.762 -0.645 -0.060 190 175 165 0 0
-0.2745 0.9198 -0.6448 0.967 -0.239 0.088 184 166 155 0 0
-0.2757 0.9235 -0.6456 0.950 0.176 0.258 173 154 140 0 0
-0.2762 0.9266 -0.6459 0.960 0.111 0.259 168 148 132 0 0
-0.2783 0.9311 -0.6470 0.955 0.211 0.210 164 143 126 0 0
-0.2798 0.9351 -0.6479 0.932 0.358 0.054 163 141 127 0 0
-0.2809 0.9416 -0.6487 0.997 -0.067 0.026 166 143 129 0 0
-0.2814 0.9447 -0.6490 0.778 -0.626 -0.053 160 137 122 0 0
-0.2811 0.9472 -0.6489 0.680 -0.731 0.046 151 128 113 0 0
-0.2798 0.9489 -0.6484 0.839 -0.520 0.157 148 126 109 0 0
-0.2629 0.9785 -0.6411 0.832 0.264 0.488 172 154 142 0 0
-0.2582 1.0283 -0.6404 -0.142 -0.697 0.703 167 146 130 0 0
-0.2515 1.0247 -0.6370 0.019 -0.134 0.991 169 148 133 0 0
-0.2470 1.0523 -0.6357 0.056 0.025 0.998 181 163 147 0 0
-0.2469 1.0552 -0.6358 0.071 0.062 0.996 179 161 145 0 0
-0.2492 1.0634 -0.6371 0.239 0.183 0.954 164 146 130 0 0
-0.2491 1.0782 -0.6376 0.353 -0.165 0.921 185 169 153 0 0
-0.2476 1.0798 -0.6369 0.247 -0.297 0.922 178 161 145 0 0
-0.2201 1.0862 -0.6238 -0.123 -0.987 0.102 160 138 125 0 0
-0.2167 1.0854 -0.6221 0.703 -0.710 -0.030 155 136 122 0 0
-0.2143 1.0918 -0.6212 0.869 -0.343 0.357 151 131 120 0 0
-0.2136 1.0940 -0.6209 0.821 -0.428 0.378 154 135 122 0 0
-0.2131 1.0964 -0.6208 0.840 -0.250 0.481 157 139 125 0 0
-0.2124 1.0986 -0.6205 0.903 -0.108 0.415 159 142 130 0 0
-0.2118 1.1010 -0.6203 0.900 -0.072 0.430 166 149 138 0 0
-0.2116 1.1038 -0.6203 0.900 -0.072 0.430 170 154 141 0 0
-0.2118 1.1070 -0.6204 0.780 0.002 0.625 171 155 143 0 0
-0.2124 1.1107 -0.6209 0.755 0.198 0.625 160 142 128 0 0
-0.2123 1.1167 -0.6210 0.714 0.056 0.698 152 130 117 0 0
-0.2123 1.1259 -0.6213 0.698 -0.386 0.602 151 132 117 0 0
-0.2124 1.1291 -0.6215 0.671 -0.286 0.684 154 134 119 0 0
-0.2117 1.1314 -0.6212 0.529 0.218 0.820 159 138 124 0 0
-0.1887 1.1534 -0.6108 0.934 -0.342 -0.108 157 134 121 0 0
-0.1897 1.1577 -0.6114 0.932 -0.017 0.363 155 132 119 0 0
-0.1872 1.1578 -0.6102 0.987 0.058 -0.151 155 133 119 0 0
-0.1902 1.1932 -0.6128 0.184 -0.951 -0.248 157 137 125 0 0
-0.1907 1.1970 -0.6131 0.224 -0.970 -0.095 156 136 124 0 0
-0.1880 1.1967 -0.6118 0.939 -0.300 -0.170 158 139 126 0 0
-0.1862 1.1976 -0.6109 0.915 -0.383 0.129 160 142 128 0 0
-0.1834 1.2036 -0.6098 0.613 0.182 0.769 166 149 137 0 0
-0.1849 1.2088 -0.6107 0.568 0.274 0.776 168 151 137 0 0
-0.1862 1.2138 -0.6115 0.568 0.274 0.776 169 152 140 0 0
-0.1867 1.2178 -0.6119 0.641 0.275 0.717 168 150 139 0 0
-0.1876 1.2221 -0.6124 0.616 0.220 0.756 164 146 134 0 0
-0.1871 1.2281 -0.6123 0.213 -0.118 0.970 182 166 151 0 0
-0.1857 1.2295 -0.6117 0.047 -0.270 0.962 193 178 162 0 0
-0.1845 1.2312 -0.6112 0.014 -0.328 0.945 169 151 135 0 0
-0.1732 1.2258 -0.6056 0.266 -0.936 -0.231 163 144 129 0 0
-0.1712 1.2265 -0.6046 0.266 -0.935 -0.236 161 142 127 0 0
-0.1655 1.2252 -0.6018 0.548 -0.243 0.801 170 152 137 0 0
-0.1640 1.2264 -0.6011 0.634 0.068 0.771 172 156 143 0 0
-0.1643 1.2301 -0.6014 0.624 0.148 0.767 172 156 144 0 0
-0.1647 1.2339 -0.6017 0.700 0.163 0.696 165 147 135 0 0
-0.1649 1.2375 -0.6019 0.708 0.161 0.687 162 144 130 0 0
-0.1625 1.2473 -0.6011 0.683 -0.479 0.551 177 164 152 0 0
-0.1618 1.2497 -0.6008 0.727 -0.546 0.417 178 163 153 0 0
-0.1589 1.2555 -0.5996 0.554 -0.801 0.227 169 152 139 0 0
-0.1567 1.2557 -0.5985 0.830 -0.275 0.486 156 138 122 0 0
-0.1565 1.2588 -0.5985 0.898 0.018 0.439 150 131 117 0 0
-0.1558 1.2611 -0.5983 0.948 -0.014 0.318 150 132 116 0 0
-0.1557 1.2644 -0.5983 0.948 -0.014 0.318 151 132 116 0 0
-0.1554 1.2672 -0.5983 0.964 -0.100 0.246 153 136 118 0 0
-0.1545 1.2693 -0.5979 0.859 -0.239 0.454 161 143 129 0 0
-0.1544 1.2725 -0.5979 0.795 -0.547 0.261 169 152 137 0 0
-0.1530 1.2738 -0.5973 0.600 -0.606 0.522 171 155 139 0 0
-0.1521 1.2826 -0.5971 0.755 0.113 0.646 163 146 131 0 0
-0.1407 1.2895 -0.5919 0.379 -0.625 0.682 166 148 133 0 0
-0.1408 1.2931 -0.5921 0.534 -0.155 0.831 168 152 136 0 0
-0.1409 1.2967 -0.5922 0.786 0.214 0.580 173 156 141 0 0
-0.1405 1.2994 -0.5921 0.716 0.201 0.668 174 158 143 0 0
-0.1415 1.3044 -0.5927 0.386 -0.089 0.918 174 158 142 0 0
-0.1405 1.3098 -0.5924 0.368 -0.014 0.930 172 155 140 0 0
-0.1421 1.3156 -0.5934 0.633 0.195 0.749 162 143 125 0 0
-0.1428 1.3203 -0.5939 0.535 0.093 0.840 156 136 119 0 0
-0.1208 1.3102 -0.5829 0.412 0.223 0.883 164 146 130 0 0
-0.1216 1.3149 -0.5835 0.455 0.194 0.869 168 150 136 0 0
-0.1248 1.3304 -0.5855 0.771 -0.165 0.615 182 170 158 0 0
-0.1233 1.3384 -0.5850 0.877 -0.470 0.099 166 150 137 0 0
-0.1221 1.3400 -0.5845 0.687 -0.726 0.012 135 118 105 0 0
-0.1192 1.3423 -0.5831 0.633 -0.750 -0.192 138 118 108 0 0
-0.1099 1.3804 -0.5799 0.996 -0.054 0.075 153 134 119 0 0
-0.1096 1.3835 -0.5798 0.956 -0.090 0.278 153 134 120 0 0
-0.1090 1.3862 -0.5796 0.945 -0.228 0.236 160 140 123 0 0
-0.1086 1.3891 -0.5795 0.946 -0.123 0.301 165 145 130 0 0
-0.1073 1.3904 -0.5789 0.846 -0.184 0.500 160 141 127 0 0
-0.5888 0.1915 -0.7761 0.086 0.131 0.988 159 138 114 0 0
-0.5892 0.1934 -0.7763 0.086 0.131 0.988 174 155 130 0 0
-0.5891 0.1953 -0.7763 0.088 0.115 0.989 179 161 139 0 0
-0.5893 0.1972 -0.7765 0.083 0.073 0.994 180 163 141 0 0
-0.5919 0.2185 -0.7784 0.323 0.304 0.896 156 133 116 0 0
-0.5939 0.2204 -0.7795 0.008 -0.345 0.939 156 134 116 0 0
-0.5901 0.2742 -0.7793 0.765 -0.629 -0.138 157 132 111 0 0
-0.5475 0.3179 -0.7601 0.872 0.176 0.457 193 178 163 0 0
-0.5504 0.3202 -0.7616 0.438 -0.899 -0.004 188 172 156 0 0
-0.5496 0.3428 -0.7619 0.212 -0.301 0.930 180 161 142 0 0
-0.5490 0.3448 -0.7617 0.266 -0.318 0.910 181 162 142 0 0
-0.4885 0.5059 -0.7376 0.863 0.186 0.470 132 109 94 0 0
-0.4891 0.5083 -0.7379 0.685 0.080 0.724 134 110 96 0 0
-0.4905 0.5132 -0.7388 0.343 -0.512 0.788 164 141 122 0 0
-0.4782 0.5187 -0.7330 0.104 -0.896 0.431 152 128 110 0 0
-0.4726 0.5216 -0.7304 0.010 -0.992 0.125 155 128 109 0 0
-0.4432 0.5484 -0.7170 0.493 0.198 0.847 171 148 129 0 0
-0.4494 0.5663 -0.7205 0.736 -0.636 -0.233 159 134 114 0 0
-0.4475 0.5749 -0.7199 0.956 0.212 0.203 135 113 93 0 0
-0.4480 0.5773 -0.7202 0.956 0.212 0.203 145 123 101 0 0
-0.4494 0.5802 -0.7210 0.842 0.250 0.478 152 128 107 0 0
-0.4492 0.5847 -0.7211 0.670 -0.269 0.692 151 129 108 0 0
-0.4060 0.6052 -0.7008 0.626 -0.780 -0.025 176 157 140 0 0
-0.4055 0.6073 -0.7006 0.734 -0.660 0.164 175 156 141 0 0
-0.4050 0.6094 -0.7004 0.736 -0.155 0.659 182 164 152 0 0
-0.4105 0.6255 -0.7036 0.866 -0.008 0.500 167 144 127 0 0
-0.4106 0.6279 -0.7038 0.868 -0.397 0.299 165 140 123 0 0
-0.4120 0.6308 -0.7045 0.877 0.045 0.478 157 131 114 0 0
-0.4121 0.6332 -0.7046 0.834 0.042 0.551 155 129 111 0 0
-0.3846 0.6633 -0.6923 0.678 0.507 0.532 165 144 124 0 0
-0.3873 0.6692 -0.6938 0.717 0.260 0.647 169 148 129 0 0
-0.3891 0.6725 -0.6947 0.542 0.296 0.787 166 144 126 0 0
-0.3900 0.6753 -0.6953 0.443 0.157 0.883 161 139 122 0 0
-0.3904 0.6779 -0.6956 0.390 0.149 0.909 168 145 129 0 0
-0.3881 0.6960 -0.6950 0.683 -0.678 0.272 181 159 140 0 0
-0.3870 0.7004 -0.6947 0.589 -0.741 0.321 170 148 129 0 0
-0.3982 0.7258 -0.7009 0.365 0.365 0.856 164 139 122 0 0
-0.3683 0.7296 -0.6865 0.767 -0.553 0.325 181 159 139 0 0
-0.3605 0.7475 -0.6833 0.601 -0.256 0.757 163 137 120 0 0
-0.3569 0.7479 -0.6816 0.753 0.586 0.298 165 139 120 0 0
-0.3560 0.7499 -0.6812 0.916 0.388 -0.103 167 140 123 0 0
-0.3600 0.7622 -0.6836 0.907 0.422 0.005 167 141 124 0 0
-0.3624 0.7661 -0.6848 0.713 0.639 0.288 167 142 122 0 0
-0.3650 0.7701 -0.6862 0.670 0.608 0.425 169 143 124 0 0
-0.3478 0.7927 -0.6786 0.881 -0.435 -0.186 171 146 127 0 0
-0.3482 0.8006 -0.6791 0.831 -0.333 0.445 164 138 119 0 0
-0.3478 0.8029 -0.6790 0.677 -0.641 0.362 165 140 121 0 0
-0.3378 0.8068 -0.6742 -0.032 -0.779 0.626 199 183 168 0 0
-0.3229 0.8354 -0.6679 0.831 -0.005 0.556 177 156 137 0 0
-0.3231 0.8381 -0.6681 0.741 -0.021 0.672 173 151 134 0 0
-0.3218 0.8398 -0.6675 0.657 -0.535 0.531 170 147 131 0 0
-0.3194 0.8408 -0.6664 0.911 -0.410 0.041 172 150 133 0 0
-0.3184 0.8427 -0.6660 0.837 -0.546 -0.035 172 150 134 0 0
-0.3202 0.8466 -0.6670 0.970 -0.159 0.186 173 151 134 0 0
-0.3081 0.8720 -0.6620 0.026 -0.747 0.664 189 171 155 0 0
-0.3064 0.8733 -0.6611 0.691 -0.058 0.721 190 172 156 0 0
-0.3053 0.8752 -0.6607 0.460 -0.271 0.845 193 174 158 0 0
-0.3043 0.8771 -0.6603 0.419 0.117 0.900 193 175 159 0 0
-0.3042 0.8796 -0.6603 0.337 0.035 0.941 188 171 155 0 0
-0.3049 0.8829 -0.6608 0.211 0.127 0.969 185 167 150 0 0
-0.3019 0.8859 -0.6594 -0.012 0.127 0.992 177 156 140 0 0
-0.2774 0.9174 -0.6485 0.762 -0.645 -0.060 183 165 151 0 0
-0.2758 0.9188 -0.6478 0.773 -0.627 0.096 186 169 157 0 0
-0.2740 0.9200 -0.6470 0.872 -0.487 -0.046 181 163 150 0 0
-0.2730 0.9219 -0.6466 0.937 -0.342 0.070 175 156 142 0 0
-0.2746 0.9259 -0.6475 0.906 0.130 0.403 169 149 132 0 0
-0.2782 0.9398 -0.6496 0.944 0.204 0.259 166 144 129 0 0
-0.2795 0.9437 -0.6504 0.944 -0.280 0.174 161 138 123 0 0
-0.2791 0.9461 -0.6503 0.746 -0.657 0.105 149 126 112 0 0
-0.2794 0.9491 -0.6505 0.888 -0.055 0.456 142 119 101 0 0
-0.2793 0.9518 -0.6506 0.844 0.144 0.517 140 117 101 0 0
-0.2410 1.0179 -0.6341 0.977 -0.210 0.043 168 147 131 0 0
-0.2421 1.0218 -0.6348 0.916 -0.008 0.400 169 148 132 0 0
-0.2427 1.0457 -0.6359 -0.011 -0.142 0.990 187 170 154 0 0
-0.2417 1.0476 -0.6354 0.124 0.031 0.992 182 166 151 0 0
-0.2417 1.0505 -0.6355 0.100 0.011 0.995 181 164 149 0 0
-0.2435 1.0553 -0.6366 0.260 0.184 0.948 174 156 141 0 0
-0.2457 1.0605 -0.6378 0.275 0.167 0.947 167 148 132 0 0
-0.2459 1.0637 -0.6380 0.263 0.147 0.954 159 140 124 0 0
-0.2457 1.0665 -0.6380 0.389 0.277 0.879 162 143 127 0 0
-0.2470 1.0708 -0.6387 0.400 0.277 0.874 171 154 138 0 0
-0.2482 1.0751 -0.6395 0.356 0.153 0.922 184 169 155 0 0
-0.2467 1.0764 -0.6388 0.377 -0.120 0.919 190 176 160 0 0
-0.2457 1.0784 -0.6383 0.178 -0.311 0.934 189 173 158 0 0
-0.2391 1.0895 -0.6355 0.758 0.404 0.511 150 127 111 0 0
-0.2172 1.0837 -0.6247 -0.080 -0.994 -0.069 157 136 122 0 0
-0.2164 1.0858 -0.6244 0.634 -0.772 0.045 160 141 128 0 0
-0.2136 1.0857 -0.6230 0.846 -0.119 0.520 163 144 130 0 0
-0.2102 1.0969 -0.6217 0.628 -0.242 0.740 156 138 124 0 0
-0.2097 1.1023 -0.6217 0.700 0.169 0.693 161 142 128 0 0
-0.2090 1.1045 -0.6214 0.541 -0.024 0.841 161 142 130 0 0
-0.2097 1.1084 -0.6219 0.652 0.170 0.739 155 136 122 0 0
-0.2103 1.1121 -0.6223 0.727 0.182 0.662 146 125 111 0 0
-0.2108 1.1158 -0.6227 0.811 -0.017 0.585 146 123 111 0 0
-0.2102 1.1211 -0.6225 0.872 -0.254 0.419 160 139 123 0 0
-0.2109 1.1250 -0.6230 0.626 -0.566 0.536 161 140 125 0 0
-0.2103 1.1274 -0.6228 0.757 -0.383 0.530 163 141 127 0 0
-0.2090 1.1290 -0.6222 0.693 -0.325 0.643 167 146 132 0 0
-0.2089 1.1320 -0.6223 0.085 -0.353 0.932 171 152 137 0 0
-0.1911 1.1385 -0.6138 0.813 -0.355 0.461 169 151 135 0 0
-0.1904 1.1407 -0.6135 0.813 -0.355 0.461 170 152 138 0 0
-0.1886 1.1416 -0.6127 0.878 -0.475 -0.058 177 159 145 0 0
-0.1870 1.1427 -0.6120 0.961 -0.273 -0.040 174 157 141 0 0
-0.1864 1.1451 -0.6117 0.996 -0.059 -0.064 173 154 139 0 0
-0.1889 1.1513 -0.6132 0.980 0.082 -0.180 166 147 133 0 0
-0.1889 1.1544 -0.6133 0.871 -0.160 -0.464 155 134 120 0 0
-0.1888 1.1605 -0.6134 0.941 0.100 -0.322 152 130 116 0 0
-0.1890 1.1860 -0.6143 0.674 0.282 0.682 156 134 121 0 0
-0.1906 1.1912 -0.6153 0.648 0.209 0.732 155 133 120 0 0
-0.1913 1.1954 -0.6158 0.561 0.140 0.816 151 131 118 0 0
-0.1862 1.1984 -0.6134 0.805 -0.445 0.392 153 135 122 0 0
-0.1833 1.2108 -0.6124 0.647 0.265 0.715 171 154 141 0 0
-0.1845 1.2157 -0.6131 0.621 0.240 0.746 165 147 134 0 0
-0.1852 1.2199 -0.6136 0.616 0.220 0.756 159 142 128 0 0
-0.1849 1.2228 -0.6136 0.361 -0.092 0.928 158 140 126 0 0
-0.1846 1.2255 -0.6135 0.306 -0.078 0.949 166 149 133 0 0
-0.1841 1.2282 -0.6133 0.277 -0.098 0.956 166 149 134 0 0
-0.1733 1.2268 -0.6080 0.411 -0.825 -0.388 158 140 124 0 0
-0.1639 1.2238 -0.6034 0.548 -0.243 0.801 168 149 135 0 0
-0.1625 1.2251 -0.6028 0.605 0.001 0.796 173 157 142 0 0
-0.1622 1.2280 -0.6027 0.628 0.122 0.768 175 159 144 0 0
-0.1626 1.2318 -0.6030 0.708 0.161 0.687 171 153 140 0 0
-0.1628 1.2354 -0.6032 0.766 0.228 0.601 162 144 131 0 0
-0.1630 1.2390 -0.6035 0.717 0.075 0.693 153 136 124 0 0
-0.1567 1.2532 -0.6008 0.860 -0.378 0.344 173 155 140 0 0
-0.1558 1.2553 -0.6005 0.931 -0.049 0.361 155 136 120 0 0
-0.1544 1.2567 -0.5999 0.937 0.174 0.303 147 128 114 0 0
-0.1547 1.2604 -0.6001 0.963 0.093 0.253 145 128 112 0 0
-0.1550 1.2641 -0.6004 0.950 0.078 0.302 152 134 118 0 0
-0.1547 1.2671 -0.6004 0.940 -0.075 0.332 152 136 118 0 0
-0.1533 1.2684 -0.5997 0.680 -0.316 0.662 160 142 127 0 0
-0.1541 1.2729 -0.6002 0.558 -0.641 0.527 167 150 134 0 0
-0.1520 1.2732 -0.5992 0.347 -0.683 0.642 171 154 139 0 0
-0.1493 1.2760 -0.5980 0.563 0.099 0.820 168 151 136 0 0
-0.1394 1.2884 -0.5936 0.379 -0.625 0.682 164 146 131 0 0
-0.1378 1.2894 -0.5928 0.790 -0.009 0.613 166 150 134 0 0
