ply
format ascii 1.0
element vertex 835
property float x
property float y
property float z
property float nx
property float ny
property float nz
property uchar diffuse_red
property uchar diffuse_green
property uchar diffuse_blue
property uchar class
property uchar detection
end_header
-1.5308 1.4614 -0.0022 0.643 0.285 0.711 181 162 145 0 0
-1.5586 1.4829 0.0030 0.465 -0.040 0.884 182 164 147 0 0
-1.5341 1.5349 0.0256 0.320 0.551 0.771 187 170 153 0 0
-1.5550 1.5732 0.0379 0.377 0.097 0.921 193 178 160 0 0
-1.6004 1.6133 0.0483 0.244 -0.808 0.537 189 172 157 0 0
-1.5886 1.6144 0.0500 0.233 -0.213 0.949 190 172 158 0 0
-1.5764 1.6669 0.0715 0.174 -0.030 0.984 185 168 151 0 0
-1.5853 1.6723 0.0726 0.161 0.015 0.987 184 167 150 0 0
-1.5814 1.6749 0.0740 0.167 -0.232 0.958 184 167 149 0 0
-1.5957 1.6987 0.0816 0.218 0.075 0.973 184 167 150 0 0
-1.5989 1.7029 0.0828 0.241 -0.010 0.971 188 172 156 0 0
-1.5998 1.7305 0.0933 0.452 -0.023 0.892 190 173 157 0 0
-1.5996 1.7338 0.0946 0.445 -0.036 0.895 189 172 155 0 0
-1.6056 1.7388 0.0958 0.536 -0.260 0.803 187 171 153 0 0
-1.6072 1.7426 0.0971 0.465 -0.117 0.878 190 174 158 0 0
-1.5911 1.7687 0.1089 0.219 -0.104 0.970 188 171 155 0 0
-1.5712 1.7666 0.1103 0.341 0.201 0.918 185 168 150 0 0
-1.5891 1.7749 0.1114 0.250 -0.608 0.753 184 166 151 0 0
-1.5861 1.7774 0.1127 0.321 -0.683 0.656 183 165 147 0 0
-1.5940 1.7863 0.1153 0.522 0.171 0.836 183 165 148 0 0
-1.5911 1.7888 0.1166 0.177 -0.403 0.898 183 165 148 0 0
-1.5601 1.8809 0.1553 0.821 0.365 0.439 170 150 133 0 0
-1.5626 1.8881 0.1578 0.851 0.479 0.216 168 149 130 0 0
-1.5670 1.8928 0.1591 0.986 0.055 0.160 170 149 130 0 0
-1.5820 1.9107 0.1643 0.338 -0.076 0.938 174 156 136 0 0
-1.5862 1.9153 0.1656 0.390 0.231 0.892 176 158 138 0 0
-1.3511 -0.1521 -0.6052 0.406 -0.194 0.893 199 184 165 0 0
-1.3655 -0.1239 -0.5960 0.556 -0.517 0.650 193 176 157 0 0
-1.3719 -0.0718 -0.5767 0.249 -0.226 0.942 197 182 166 0 0
-1.3803 -0.0583 -0.5725 0.231 -0.103 0.968 202 187 171 0 0
-1.3868 -0.0437 -0.5676 0.708 0.023 0.706 198 182 166 0 0
-1.3851 -0.0380 -0.5652 0.816 -0.164 0.555 199 182 167 0 0
-1.4145 -0.0415 -0.5699 0.097 -0.371 0.923 198 182 167 0 0
-1.4018 0.1176 -0.5074 0.360 0.348 0.865 187 168 151 0 0
-1.4517 0.3352 -0.4295 0.335 -0.420 0.844 201 184 167 0 0
-0.8238 0.6913 -0.2225 0.910 0.253 0.329 167 129 65 0 0
-0.8098 0.7076 -0.2147 0.722 0.130 -0.679 168 122 44 0 0
-0.8100 0.7134 -0.2125 0.736 0.468 -0.489 173 124 52 0 0
-0.7574 0.8458 -0.1558 0.961 -0.050 -0.271 181 138 44 0 0
-0.7571 0.8647 -0.1485 0.625 0.776 -0.088 178 134 42 0 0
-0.7613 0.8665 -0.1483 0.885 0.268 -0.380 175 133 39 0 0
-1.5210 1.2024 -0.1047 0.898 -0.343 0.275 195 177 161 0 0
-1.5238 1.2062 -0.1036 0.946 -0.266 -0.186 197 178 163 0 0
-1.5249 1.2136 -0.1008 0.857 0.375 0.352 198 180 165 0 0
-1.5230 1.2358 -0.0921 0.368 -0.173 0.914 191 174 158 0 0
-1.5250 1.2469 -0.0881 0.357 -0.158 0.921 197 180 166 0 0
-1.5282 1.2544 -0.0855 0.896 -0.396 0.203 194 176 162 0 0
-1.5260 1.2580 -0.0839 0.740 0.579 0.341 192 174 160 0 0
-1.5267 1.2617 -0.0826 0.771 0.401 0.495 189 171 156 0 0
-1.5297 1.2655 -0.0815 1.000 0.012 -0.006 187 168 153 0 0
-1.5223 1.2688 -0.0794 0.669 -0.743 -0.016 184 165 150 0 0
-1.5390 1.2806 -0.0767 0.284 0.179 0.942 185 166 149 0 0
-1.5272 1.2837 -0.0742 0.357 0.101 0.928 181 160 145 0 0
-1.5312 1.2876 -0.0732 0.331 0.139 0.933 184 164 149 0 0
-1.5334 1.2913 -0.0720 0.267 0.186 0.946 187 168 154 0 0
-1.5210 1.3196 -0.0597 0.392 -0.316 0.864 192 172 157 0 0
-1.5205 1.3268 -0.0569 0.368 0.147 0.918 187 168 153 0 0
-1.5245 1.4306 -0.0176 0.331 -0.442 0.834 194 178 164 0 0
-1.5228 1.4339 -0.0161 0.323 -0.424 0.846 194 178 164 0 0
-1.5229 1.4409 -0.0134 0.301 0.054 0.952 190 174 158 0 0
-1.5280 1.4626 -0.0056 0.775 0.185 0.604 181 162 146 0 0
-1.5241 1.5073 0.0119 0.385 0.062 0.921 181 164 147 0 0
-1.5161 1.5301 0.0216 0.320 0.551 0.771 201 187 175 0 0
-1.5272 1.5354 0.0224 0.320 0.551 0.771 198 182 169 0 0
-1.5467 1.5457 0.0241 0.304 0.411 0.859 186 169 152 0 0
-1.5451 1.5627 0.0308 0.409 -0.512 0.755 180 161 144 0 0
-1.5394 1.5651 0.0324 0.605 -0.109 0.789 182 163 146 0 0
-1.5446 1.5729 0.0348 0.494 0.103 0.864 185 168 149 0 0
-1.5679 1.6428 0.0590 0.571 0.573 0.588 188 171 153 0 0
-1.5679 1.6462 0.0603 0.489 0.713 0.502 189 171 156 0 0
-1.5749 1.6512 0.0614 0.433 0.676 0.596 190 173 157 0 0
-1.5659 1.6526 0.0630 0.457 -0.226 0.860 192 175 160 0 0
-1.5701 1.6740 0.0707 0.242 0.040 0.970 184 167 149 0 0
-1.5856 1.7015 0.0795 0.241 -0.010 0.971 191 175 160 0 0
-1.5896 1.7092 0.0820 0.355 -0.554 0.753 191 174 158 0 0
-1.5759 1.7194 0.0875 0.306 -0.022 0.952 191 174 158 0 0
-1.5806 1.7273 0.0900 0.300 0.070 0.951 189 172 156 0 0
-1.5847 1.7318 0.0912 0.312 0.001 0.950 187 170 153 0 0
-1.5897 1.7364 0.0924 0.305 -0.002 0.952 186 170 151 0 0
-1.5936 1.7408 0.0937 0.305 -0.002 0.952 191 174 157 0 0
-1.5734 1.7789 0.1106 0.271 -0.019 0.963 182 164 147 0 0
-1.5759 1.7830 0.1119 0.258 0.062 0.964 182 165 146 0 0
-1.5711 1.7849 0.1131 0.161 -0.244 0.956 183 165 147 0 0
-1.5659 1.8360 0.1333 0.625 -0.485 0.612 186 169 153 0 0
-1.5582 1.8821 0.1518 0.632 0.550 0.546 168 146 128 0 0
-1.3445 -0.1467 -0.6070 0.406 -0.194 0.893 190 173 154 0 0
-1.3439 -0.1416 -0.6050 0.457 -0.180 0.871 190 173 152 0 0
-1.3498 -0.1408 -0.6054 0.153 0.147 0.977 188 171 150 0 0
-1.3714 -0.0519 -0.5737 0.191 -0.092 0.977 199 184 169 0 0
-1.3808 -0.0344 -0.5681 0.644 -0.531 0.551 200 187 171 0 0
-1.3873 0.0538 -0.5349 0.540 -0.021 0.841 194 176 159 0 0
-1.4468 0.3733 -0.4190 0.405 -0.545 0.734 202 185 169 0 0
-1.4423 0.3794 -0.4161 0.425 -0.310 0.851 202 185 167 0 0
-0.8118 0.7137 -0.2157 0.845 0.052 -0.532 157 107 49 0 0
-0.8123 0.7165 -0.2147 0.621 -0.573 0.535 162 112 52 0 0
-0.7627 0.8671 -0.1512 0.885 0.268 -0.380 173 131 35 0 0
-1.5149 1.1064 -0.1452 0.334 -0.256 0.907 191 172 156 0 0
-1.5134 1.1554 -0.1262 0.806 -0.430 0.407 192 175 159 0 0
-1.5048 1.1889 -0.1124 0.506 0.731 0.457 178 157 138 0 0
-1.5148 1.2186 -0.1021 0.437 0.249 0.864 193 176 159 0 0
-1.5037 1.2220 -0.0995 0.927 -0.362 -0.092 187 169 151 0 0
-1.5224 1.2557 -0.0887 0.672 -0.299 0.678 192 174 160 0 0
-1.5231 1.2594 -0.0874 0.723 0.368 0.585 191 173 158 0 0
-1.5259 1.2632 -0.0862 0.723 0.368 0.585 189 172 156 0 0
-1.5286 1.2670 -0.0851 0.912 0.321 0.257 183 164 147 0 0
-1.5223 1.2704 -0.0831 0.767 -0.614 -0.184 181 162 147 0 0
-1.5231 1.2887 -0.0761 0.335 0.113 0.935 194 176 160 0 0
-1.5363 1.3041 -0.0717 0.467 -0.786 0.405 201 185 170 0 0
-1.5146 1.3135 -0.0656 0.435 -0.621 0.652 199 184 170 0 0
-1.5184 1.3282 -0.0604 0.456 0.375 0.807 187 168 153 0 0
-1.5170 1.3640 -0.0465 0.388 -0.124 0.913 194 178 163 0 0
-1.5158 1.3674 -0.0450 0.387 -0.531 0.754 198 182 168 0 0
-1.5223 1.4143 -0.0278 0.238 0.154 0.959 191 175 160 0 0
-1.5195 1.4175 -0.0262 0.306 -0.190 0.933 192 176 161 0 0
-1.5141 1.4379 -0.0178 0.343 -0.165 0.925 197 181 168 0 0
-1.5157 1.4416 -0.0165 0.343 -0.165 0.925 194 178 163 0 0
-1.5172 1.4453 -0.0153 0.343 -0.165 0.925 194 178 162 0 0
-1.5171 1.4488 -0.0139 0.327 -0.184 0.927 190 174 158 0 0
-1.5159 1.4521 -0.0125 0.515 -0.070 0.855 185 168 152 0 0
-1.5098 1.4548 -0.0108 0.735 -0.431 0.524 184 167 150 0 0
-1.5194 1.4596 -0.0101 0.838 -0.287 0.465 184 167 151 0 0
-1.5188 1.5356 0.0192 0.242 0.269 0.932 205 190 181 0 0
-1.5262 1.5403 0.0202 0.215 0.198 0.956 196 180 167 0 0
-1.5365 1.5559 0.0250 0.274 -0.560 0.782 185 167 151 0 0
-1.5366 1.5628 0.0276 0.318 -0.092 0.944 177 159 139 0 0
-1.5375 1.5664 0.0289 0.372 -0.083 0.924 176 157 138 0 0
-1.5341 1.5692 0.0304 0.334 -0.173 0.926 177 158 140 0 0
-1.5360 1.5730 0.0316 0.325 -0.301 0.897 183 166 148 0 0
-1.5562 1.5871 0.0347 0.155 0.122 0.980 186 169 152 0 0
-1.5470 1.6298 0.0522 0.758 -0.439 0.483 194 177 162 0 0
-1.5483 1.6335 0.0534 0.855 0.251 0.454 196 179 163 0 0
-1.5502 1.6373 0.0547 0.801 0.381 0.462 194 178 162 0 0
-1.5633 1.6469 0.0569 0.469 0.700 0.538 194 178 162 0 0
-1.5470 1.6636 0.0652 0.781 -0.468 0.414 192 175 161 0 0
-1.5488 1.6674 0.0664 0.744 -0.057 0.666 188 171 155 0 0
-1.5503 1.6711 0.0677 0.591 0.155 0.791 186 168 151 0 0
-1.5524 1.6750 0.0689 0.639 -0.627 0.445 181 164 147 0 0
-1.5633 1.6910 0.0738 0.277 0.214 0.937 184 167 150 0 0
-1.5698 1.6960 0.0750 0.250 0.155 0.956 188 171 155 0 0
-1.5725 1.7000 0.0762 0.231 0.029 0.973 189 173 157 0 0
-1.5772 1.7045 0.0774 0.241 -0.010 0.971 191 174 158 0 0
-1.5816 1.7090 0.0786 0.259 0.088 0.962 190 174 158 0 0
-1.5877 1.7139 0.0798 0.259 0.088 0.962 190 174 159 0 0
-1.5695 1.7229 0.0854 0.478 -0.678 0.559 190 174 158 0 0
-1.5830 1.7297 0.0864 0.284 -0.023 0.959 189 172 153 0 0
-1.5806 1.7324 0.0878 0.302 -0.155 0.941 185 168 148 0 0
-1.5826 1.7363 0.0890 0.302 -0.155 0.941 186 169 150 0 0
-1.5882 1.7411 0.0902 0.355 0.061 0.933 189 172 155 0 0
-1.5525 1.7716 0.1060 0.317 -0.327 0.890 183 166 150 0 0
-1.5703 1.8030 0.1160 0.246 -0.251 0.936 179 160 145 0 0
-1.5586 1.8355 0.1298 0.517 0.065 0.853 192 176 161 0 0
-1.3223 -0.2011 -0.6300 0.146 -0.244 0.959 190 172 153 0 0
-1.3305 -0.0717 -0.5812 0.797 -0.134 0.589 207 193 178 0 0
-1.3336 -0.0691 -0.5806 0.481 0.063 0.875 212 201 188 0 0
-1.3527 -0.0488 -0.5750 0.236 -0.301 0.924 199 183 167 0 0
-1.3701 -0.0224 -0.5669 0.700 -0.569 0.432 204 190 174 0 0
-1.3816 0.0580 -0.5373 0.595 -0.298 0.747 197 180 160 0 0
-1.3971 0.1671 -0.4971 0.359 -0.301 0.883 204 189 174 0 0
-1.4306 0.3764 -0.4205 0.437 -0.211 0.874 194 176 156 0 0
-1.4353 0.3789 -0.4201 0.466 -0.364 0.806 197 180 161 0 0
-0.8204 0.6971 -0.2263 0.890 0.293 0.350 137 101 52 0 0
-0.8166 0.7043 -0.2231 0.890 -0.456 -0.025 132 87 46 0 0
-0.7905 0.7670 -0.1959 0.534 0.170 0.828 114 55 32 0 0
-0.7858 0.7712 -0.1938 0.875 -0.481 -0.058 115 55 30 0 0
-0.8164 0.8114 -0.1819 0.453 -0.822 -0.345 84 51 21 0 0
-1.4899 1.1829 -0.1172 0.584 0.722 0.370 174 151 134 0 0
-1.5016 1.1904 -0.1157 0.510 0.016 0.860 178 157 139 0 0
-1.4973 1.1940 -0.1138 0.331 0.075 0.941 184 163 146 0 0
-1.4965 1.1977 -0.1123 0.299 -0.118 0.947 187 168 153 0 0
-1.5016 1.2015 -0.1115 0.204 0.173 0.964 191 173 158 0 0
-1.5081 1.2053 -0.1108 0.204 0.173 0.964 192 173 158 0 0
-1.5048 1.2199 -0.1047 0.727 -0.012 0.686 185 165 148 0 0
-1.5013 1.2235 -0.1029 0.721 0.646 0.251 180 159 139 0 0
-1.5027 1.2272 -0.1017 0.956 0.016 0.293 180 159 139 0 0
-1.5019 1.2345 -0.0988 0.537 -0.398 0.744 178 157 140 0 0
-1.5214 1.2573 -0.0923 0.813 -0.180 0.554 181 160 144 0 0
-1.5183 1.2608 -0.0906 0.636 0.712 0.298 181 159 145 0 0
-1.5132 1.2788 -0.0831 0.217 -0.008 0.976 195 177 162 0 0
-1.5147 1.2898 -0.0790 0.397 0.389 0.832 197 180 165 0 0
-1.5204 1.2937 -0.0782 0.397 0.389 0.832 199 181 167 0 0
-1.5193 1.2973 -0.0767 0.379 0.549 0.745 199 183 168 0 0
-1.5102 1.3184 -0.0675 0.968 0.126 0.218 203 189 176 0 0
-1.5110 1.3221 -0.0662 0.968 0.126 0.218 200 185 172 0 0
-1.5113 1.3257 -0.0648 0.663 0.510 0.547 194 177 162 0 0
-1.5087 1.3291 -0.0632 0.563 0.438 0.701 187 169 154 0 0
-1.5017 1.3571 -0.0516 0.337 -0.046 0.940 191 174 158 0 0
-1.5046 1.3609 -0.0505 0.325 0.325 0.888 190 173 158 0 0
-1.4995 1.3816 -0.0419 0.353 -0.493 0.796 193 177 162 0 0
-1.4994 1.3992 -0.0352 0.363 -0.179 0.914 186 169 154 0 0
-1.5010 1.4379 -0.0205 0.411 0.068 0.909 195 178 164 0 0
-1.5073 1.4456 -0.0182 0.411 0.068 0.909 196 180 165 0 0
-1.5112 1.4496 -0.0171 0.313 0.168 0.935 193 176 161 0 0
-1.5125 1.5396 0.0173 0.232 0.264 0.936 196 180 166 0 0
-1.5482 1.5907 0.0328 0.153 0.132 0.979 187 170 153 0 0
-1.5620 1.5969 0.0336 0.191 0.352 0.916 187 171 155 0 0
-1.5476 1.6316 0.0486 0.414 -0.106 0.904 195 177 163 0 0
-1.5546 1.6433 0.0523 0.470 0.517 0.715 198 182 166 0 0
-1.5611 1.6482 0.0534 0.469 0.700 0.538 197 181 165 0 0
-1.5686 1.6532 0.0545 0.426 0.717 0.552 194 177 162 0 0
-1.5438 1.6646 0.0617 0.795 -0.244 0.556 194 178 163 0 0
-1.5447 1.6681 0.0630 0.710 -0.124 0.693 194 178 162 0 0
-1.5458 1.6718 0.0643 0.602 -0.147 0.785 191 174 158 0 0
-1.5465 1.6787 0.0668 0.305 -0.638 0.707 182 164 145 0 0
-1.5562 1.6843 0.0679 0.443 0.044 0.895 183 166 148 0 0
-1.5592 1.6884 0.0691 0.414 -0.004 0.910 186 169 153 0 0
-1.5717 1.7083 0.0753 0.698 0.251 0.671 190 174 158 0 0
-1.5783 1.7133 0.0765 0.586 -0.028 0.810 189 172 156 0 0
-1.5789 1.7169 0.0778 0.334 -0.194 0.922 190 172 157 0 0
-1.5678 1.7309 0.0845 0.364 0.024 0.931 184 167 148 0 0
-1.5821 1.7413 0.0868 0.339 0.213 0.916 191 174 157 0 0
-1.5545 1.8295 0.1239 0.532 0.032 0.846 178 160 142 0 0
-1.5529 1.8355 0.1264 0.517 0.065 0.853 191 175 160 0 0
-1.5548 1.8425 0.1289 0.543 -0.616 0.571 183 166 150 0 0
-1.5291 1.8442 0.1325 0.701 0.356 0.618 175 158 138 0 0
-1.3468 -0.0488 -0.5789 0.333 -0.288 0.898 199 183 167 0 0
-1.3512 -0.0422 -0.5769 0.294 -0.099 0.951 202 187 171 0 0
-1.3625 -0.0031 -0.5632 0.407 -0.305 0.861 195 179 163 0 0
-1.3603 0.0028 -0.5607 0.614 -0.569 0.547 194 179 160 0 0
-1.3882 0.3256 -0.4397 0.423 -0.609 0.671 201 184 169 0 0
-1.4268 0.3834 -0.4220 0.502 -0.309 0.808 196 178 160 0 0
-1.4383 0.4563 -0.3952 0.738 -0.392 0.548 193 170 146 0 0
-1.4420 0.4594 -0.3945 0.823 -0.270 0.500 190 167 141 0 0
-0.7887 0.7684 -0.1982 0.536 0.686 0.492 118 60 34 0 0
-0.7933 0.8761 -0.1573 0.809 -0.508 -0.295 182 142 51 0 0
-0.8004 0.8774 -0.1576 0.238 0.968 -0.078 182 143 55 0 0
-1.4921 1.1101 -0.1498 0.208 -0.174 0.962 197 180 164 0 0
-1.4962 1.1956 -0.1174 0.377 0.277 0.884 186 167 151 0 0
-1.5016 1.2251 -0.1067 0.686 0.485 0.543 170 146 128 0 0
-1.4997 1.2287 -0.1051 0.809 -0.320 0.493 170 146 129 0 0
-1.4976 1.2359 -0.1020 0.653 -0.452 0.607 171 147 128 0 0
-1.5011 1.2579 -0.0940 0.311 -0.235 0.921 179 159 140 0 0
-1.5036 1.2762 -0.0872 0.250 -0.286 0.925 200 182 168 0 0
-1.5023 1.2798 -0.0857 0.283 -0.123 0.951 201 185 171 0 0
-1.4956 1.2938 -0.0795 0.154 0.188 0.970 200 183 169 0 0
-1.5073 1.3270 -0.0681 0.682 0.731 0.043 198 184 171 0 0
-1.5032 1.3302 -0.0664 0.975 -0.189 0.113 197 181 166 0 0
-1.4959 1.3333 -0.0643 0.780 -0.562 0.274 189 170 155 0 0
-1.4834 1.3499 -0.0564 0.834 -0.182 0.521 194 176 162 0 0
-1.4940 1.3544 -0.0560 0.495 0.249 0.832 194 177 162 0 0
-1.5037 1.3766 -0.0486 0.677 -0.095 0.730 198 182 169 0 0
-1.5046 1.3802 -0.0473 0.677 -0.095 0.730 197 181 167 0 0
-1.4931 1.4001 -0.0383 0.471 -0.341 0.813 192 176 160 0 0
-1.4951 1.4352 -0.0250 0.478 -0.263 0.838 190 173 157 0 0
-1.4953 1.4457 -0.0210 0.484 0.394 0.781 193 177 162 0 0
-1.5025 1.4501 -0.0201 0.341 0.532 0.775 192 176 160 0 0
-1.5073 1.5164 0.0048 0.259 -0.074 0.963 192 175 160 0 0
-1.4986 1.5184 0.0066 0.238 -0.394 0.888 193 175 161 0 0
-1.4922 1.5275 0.0109 0.316 0.140 0.938 189 171 156 0 0
-1.5080 1.5473 0.0166 0.209 -0.200 0.957 194 178 163 0 0
-1.5325 1.5859 0.0286 0.185 -0.065 0.981 187 171 154 0 0
-1.5355 1.5933 0.0311 0.273 0.379 0.884 190 174 157 0 0
-1.5496 1.5995 0.0319 0.153 0.132 0.979 190 174 159 0 0
-1.5596 1.6050 0.0328 0.119 0.033 0.992 191 175 159 0 0
-1.5392 1.6247 0.0428 0.255 -0.164 0.953 195 179 163 0 0
-1.5636 1.6470 0.0485 0.183 -0.054 0.982 196 180 165 0 0
-1.5607 1.6532 0.0512 0.363 0.734 0.574 194 178 162 0 0
-1.5597 1.6564 0.0525 0.732 0.514 0.447 190 173 157 0 0
-1.5437 1.6662 0.0582 0.696 0.322 0.642 194 177 161 0 0
-1.5446 1.6833 0.0647 0.616 -0.661 0.430 178 161 142 0 0
-1.5432 1.6863 0.0660 0.835 -0.365 0.412 182 165 148 0 0
-1.5657 1.7354 0.0823 0.273 0.238 0.932 187 170 152 0 0
-1.5707 1.7401 0.0835 0.390 0.333 0.859 192 176 158 0 0
-1.5517 1.7418 0.0864 0.145 -0.690 0.709 196 180 165 0 0
-1.5511 1.7449 0.0877 0.095 -0.679 0.727 195 181 165 0 0
-1.5451 1.7893 0.1055 0.290 -0.086 0.953 173 154 138 0 0
-1.5441 1.8118 0.1143 0.568 0.306 0.764 181 163 146 0 0
-1.5486 1.8294 0.1205 0.625 -0.091 0.775 186 169 154 0 0
-1.5496 1.8330 0.1217 0.625 -0.091 0.775 192 176 160 0 0
-1.5473 1.8355 0.1230 0.517 0.065 0.853 191 175 160 0 0
-1.5266 1.8451 0.1291 0.701 0.356 0.618 174 156 136 0 0
-1.5321 1.8501 0.1304 0.594 0.600 0.536 174 155 136 0 0
-1.5339 1.8538 0.1316 0.645 0.010 0.764 174 155 136 0 0
-1.5498 1.8846 0.1416 0.572 0.525 0.631 154 132 114 0 0
-1.5579 1.8904 0.1429 0.683 0.609 0.403 153 132 111 0 0
-1.3224 -0.1246 -0.6099 -0.024 0.250 0.968 188 170 153 0 0
-1.3279 -0.0636 -0.5870 0.919 0.044 0.392 201 185 170 0 0
-1.3456 -0.0378 -0.5792 0.492 -0.158 0.856 198 184 167 0 0
-1.3537 0.0031 -0.5644 0.361 -0.354 0.863 194 179 160 0 0
-1.3545 0.0072 -0.5629 0.613 -0.621 0.488 193 178 160 0 0
-1.3842 0.1445 -0.5136 0.667 -0.564 0.487 196 180 164 0 0
-1.3651 0.2462 -0.4720 0.603 -0.705 0.373 188 168 149 0 0
-1.3629 0.2689 -0.4630 0.388 -0.045 0.920 197 179 162 0 0
-1.4206 0.3870 -0.4244 0.502 -0.309 0.808 199 182 164 0 0
-1.4228 0.3905 -0.4233 0.531 -0.260 0.806 203 186 170 0 0
-1.4323 0.4597 -0.3978 0.403 -0.360 0.842 192 170 147 0 0
-1.4341 0.4633 -0.3966 0.564 -0.434 0.703 185 160 133 0 0
-1.4313 0.4685 -0.3943 0.382 -0.525 0.760 182 157 129 0 0
-0.7826 0.7597 -0.2040 0.996 0.076 0.046 120 64 38 0 0
-0.7662 0.8637 -0.1619 0.985 -0.040 -0.169 178 138 42 0 0
-1.4750 1.1748 -0.1271 0.561 0.179 0.808 206 191 178 0 0
-1.4892 1.1933 -0.1217 0.371 -0.257 0.892 192 174 157 0 0
-1.4878 1.1970 -0.1202 0.292 -0.048 0.955 191 172 157 0 0
-1.4959 1.2301 -0.1083 0.793 -0.364 0.489 161 135 118 0 0
-1.4951 1.2338 -0.1068 0.818 -0.320 0.477 161 136 117 0 0
-1.4935 1.2374 -0.1053 0.698 -0.518 0.494 169 143 125 0 0
-1.4955 1.2701 -0.0929 0.252 -0.306 0.918 194 176 162 0 0
-1.4932 1.2809 -0.0885 0.388 -0.036 0.921 203 187 174 0 0
-1.4955 1.2846 -0.0873 0.440 -0.050 0.897 202 186 172 0 0
-1.4949 1.2882 -0.0858 0.524 -0.383 0.761 199 182 168 0 0
-1.4967 1.2919 -0.0846 0.410 -0.206 0.888 198 182 168 0 0
-1.4966 1.3134 -0.0763 0.545 -0.018 0.838 202 186 174 0 0
-1.4950 1.3169 -0.0748 0.640 -0.088 0.763 198 182 167 0 0
-1.5056 1.3213 -0.0744 0.773 0.537 -0.336 192 175 161 0 0
-1.5062 1.3249 -0.0730 0.839 0.487 -0.242 189 172 156 0 0
-1.5063 1.3285 -0.0717 0.702 0.689 0.179 192 175 159 0 0
-1.4991 1.3777 -0.0518 0.643 0.010 0.766 198 184 171 0 0
-1.4975 1.3811 -0.0503 0.970 -0.205 0.134 198 183 170 0 0
-1.4870 1.4010 -0.0414 0.492 -0.249 0.835 196 180 166 0 0
-1.4831 1.4041 -0.0397 0.314 0.009 0.950 192 176 162 0 0
-1.4928 1.4365 -0.0284 0.672 -0.353 0.651 184 166 149 0 0
-1.4933 1.4436 -0.0257 0.474 -0.168 0.864 183 164 148 0 0
-1.4913 1.4468 -0.0243 0.532 -0.127 0.837 190 172 157 0 0
-1.4933 1.4505 -0.0231 0.398 0.221 0.890 194 178 163 0 0
-1.5000 1.4548 -0.0222 0.300 0.309 0.902 192 176 160 0 0
-1.4977 1.4580 -0.0207 0.290 -0.046 0.956 192 176 160 0 0
-1.5092 1.4804 -0.0134 0.283 0.346 0.895 188 170 154 0 0
-1.4955 1.5161 0.0020 0.223 -0.080 0.972 184 166 150 0 0
-1.4864 1.5281 0.0077 0.319 0.100 0.943 184 165 150 0 0
-1.5028 1.5446 0.0121 0.312 0.126 0.942 196 179 164 0 0
-1.5052 1.5518 0.0146 0.389 -0.399 0.830 202 186 173 0 0
-1.5090 1.5559 0.0157 0.915 0.004 0.404 196 180 166 0 0
-1.5087 1.5592 0.0170 0.650 0.473 0.595 191 175 159 0 0
-1.5222 1.5890 0.0269 0.154 -0.056 0.986 190 174 157 0 0
-1.5313 1.5976 0.0291 0.133 0.092 0.987 191 174 158 0 0
-1.5457 1.6073 0.0311 0.055 -0.162 0.985 185 168 153 0 0
-1.5123 1.6140 0.0377 0.720 0.528 0.450 186 169 153 0 0
-1.5195 1.6222 0.0400 0.493 0.522 0.696 192 176 160 0 0
-1.5483 1.6555 0.0494 0.271 0.034 0.962 188 172 156 0 0
-1.5489 1.6590 0.0507 0.254 -0.251 0.934 186 169 153 0 0
-1.5531 1.6634 0.0518 0.407 -0.902 -0.146 188 171 154 0 0
-1.5390 1.6669 0.0549 0.592 0.206 0.779 186 168 153 0 0
-1.5416 1.6876 0.0626 0.572 -0.290 0.767 173 154 138 0 0
-1.5320 1.6886 0.0641 0.583 0.421 0.695 175 157 138 0 0
-1.5563 1.7046 0.0674 0.515 0.576 0.635 186 168 152 0 0
-1.5456 1.7220 0.0753 0.449 -0.384 0.807 176 155 137 0 0
-1.5515 1.7268 0.0765 0.378 0.053 0.924 176 155 137 0 0
-1.5549 1.7310 0.0777 0.310 0.202 0.929 182 164 146 0 0
-1.5532 1.7339 0.0790 0.308 0.335 0.891 186 169 150 0 0
-1.5476 1.7358 0.0804 0.334 0.008 0.942 191 173 156 0 0
-1.5430 1.7445 0.0843 0.110 -0.734 0.670 188 172 156 0 0
-1.5218 1.7779 0.0998 0.463 -0.065 0.884 177 158 141 0 0
-1.5319 1.7873 0.1022 0.459 0.089 0.884 173 154 137 0 0
-1.5432 1.8165 0.1121 0.741 -0.482 0.468 169 149 132 0 0
-1.5444 1.8299 0.1171 0.637 -0.090 0.766 190 174 156 0 0
-1.5467 1.8853 0.1382 0.572 0.525 0.631 157 136 116 0 0
-1.5554 1.8914 0.1395 0.792 0.313 0.524 160 138 118 0 0
-1.3350 -0.0350 -0.5815 0.610 -0.271 0.744 191 173 156 0 0
-1.3665 0.2380 -0.4799 0.752 -0.587 0.299 186 167 148 0 0
-1.3579 0.2722 -0.4656 0.506 0.396 0.766 195 176 158 0 0
-1.3594 0.2759 -0.4644 0.581 0.367 0.727 193 175 159 0 0
-1.3633 0.2784 -0.4639 0.688 0.217 0.692 190 171 155 0 0
-1.3639 0.2825 -0.4624 0.572 0.014 0.820 187 167 148 0 0
-1.3753 0.3970 -0.4196 0.376 -0.163 0.912 204 187 170 0 0
-1.3812 0.3989 -0.4196 0.510 -0.374 0.775 202 185 168 0 0
-1.4144 0.3949 -0.4252 0.449 -0.337 0.828 208 192 177 0 0
-1.4166 0.3983 -0.4241 0.466 -0.385 0.797 206 189 174 0 0
-1.4027 0.4501 -0.4024 0.238 0.383 0.893 196 176 158 0 0
-1.4259 0.4631 -0.4002 0.278 -0.343 0.897 193 170 147 0 0
-0.8196 0.7031 -0.2334 0.831 0.103 0.546 133 91 53 0 0
-0.8164 0.7100 -0.2304 0.912 0.313 0.264 120 69 43 0 0
-0.7961 0.7625 -0.2076 0.223 0.873 -0.433 130 72 45 0 0
-0.8005 0.7641 -0.2075 0.252 0.837 -0.485 127 69 41 0 0
-1.4662 1.1396 -0.1440 0.217 -0.165 0.962 204 188 174 0 0
-1.4655 1.1470 -0.1410 0.140 0.194 0.971 198 180 166 0 0
-1.4746 1.1727 -0.1322 0.606 -0.066 0.793 194 176 162 0 0
-1.4705 1.1763 -0.1303 0.487 0.529 0.695 197 180 165 0 0
-1.4807 1.1838 -0.1287 0.481 0.662 0.575 193 175 160 0 0
-1.4860 1.2712 -0.0956 0.345 -0.237 0.908 199 182 168 0 0
-1.4857 1.2784 -0.0927 0.527 0.094 0.845 199 183 168 0 0
-1.4871 1.2821 -0.0915 0.524 0.074 0.848 197 180 166 0 0
-1.4884 1.2858 -0.0902 0.538 -0.208 0.817 196 179 164 0 0
-1.4895 1.2894 -0.0890 0.524 -0.383 0.761 193 176 161 0 0
-1.4890 1.2930 -0.0875 0.524 -0.383 0.761 197 179 165 0 0
-1.4946 1.3149 -0.0798 0.447 0.584 0.678 201 185 171 0 0
-1.4886 1.3180 -0.0778 0.756 0.136 0.640 193 176 161 0 0
-1.4726 1.4010 -0.0438 0.744 -0.452 0.491 199 183 173 0 0
-1.4856 1.4372 -0.0314 0.899 -0.206 0.387 181 162 145 0 0
-1.4863 1.4511 -0.0261 0.427 -0.050 0.903 193 175 161 0 0
-1.4921 1.4554 -0.0252 0.383 0.183 0.906 194 177 162 0 0
-1.4870 1.5095 -0.0037 0.426 -0.102 0.899 187 170 154 0 0
-1.4852 1.5363 0.0069 0.378 0.469 0.798 188 171 155 0 0
-1.5031 1.5565 0.0125 0.877 0.478 0.059 192 175 161 0 0
-1.5074 1.5606 0.0136 0.683 0.658 0.317 192 175 159 0 0
-1.5132 1.5651 0.0146 0.636 0.511 0.578 194 177 162 0 0
-1.5134 1.5686 0.0159 0.739 0.166 0.653 185 167 151 0 0
-1.5160 1.6231 0.0367 0.510 0.503 0.698 187 169 154 0 0
-1.5362 1.6511 0.0450 0.223 0.079 0.972 188 170 156 0 0
-1.5426 1.6559 0.0461 0.223 0.079 0.972 184 167 151 0 0
-1.5404 1.6588 0.0474 0.223 -0.184 0.957 184 165 149 0 0
-1.5394 1.6619 0.0488 0.093 -0.606 0.790 183 166 150 0 0
-1.5286 1.6895 0.0607 0.656 0.300 0.692 177 158 139 0 0
-1.5328 1.6938 0.0619 0.432 0.421 0.798 180 161 144 0 0
-1.5533 1.7056 0.0639 0.390 0.203 0.898 187 170 153 0 0
-1.5433 1.7231 0.0719 0.057 -0.700 0.712 171 149 132 0 0
-1.5445 1.7300 0.0744 0.305 0.152 0.940 175 154 135 0 0
-1.5431 1.8312 0.1137 0.529 0.086 0.844 184 166 149 0 0
-1.5447 1.8864 0.1348 0.538 0.580 0.611 163 142 121 0 0
-1.5485 1.8908 0.1360 0.604 0.201 0.772 166 147 128 0 0
-1.5509 1.8948 0.1373 0.674 -0.043 0.737 174 157 135 0 0
-1.5156 1.9018 0.1443 0.078 -0.529 0.845 171 152 132 0 0
-1.5074 1.9021 0.1454 0.062 -0.475 0.878 173 153 132 0 0
-1.2616 -0.2428 -0.6573 0.006 -0.154 0.988 188 172 152 0 0
-1.3040 -0.1475 -0.6257 0.068 -0.110 0.992 184 166 145 0 0
-1.3229 -0.0585 -0.5937 0.660 0.497 0.563 172 150 129 0 0
-1.3172 0.0533 -0.5497 0.431 -0.538 0.724 200 183 168 0 0
-1.3149 0.1295 -0.5200 0.173 -0.220 0.960 199 182 167 0 0
-1.3542 0.2750 -0.4686 0.447 0.399 0.801 193 174 156 0 0
-1.3537 0.2795 -0.4668 0.500 -0.122 0.857 190 172 153 0 0
-1.3550 0.2832 -0.4655 0.500 -0.122 0.857 191 173 154 0 0
-1.3580 0.2862 -0.4647 0.689 -0.176 0.703 190 171 151 0 0
-1.3665 0.4015 -0.4212 0.373 0.593 0.714 202 184 167 0 0
-1.3688 0.4048 -0.4202 0.723 -0.285 0.629 198 180 162 0 0
-1.3691 0.4089 -0.4187 0.770 -0.582 0.262 203 186 170 0 0
-1.3918 0.4509 -0.4053 0.299 -0.015 0.954 190 169 148 0 0
-1.3957 0.4537 -0.4047 0.285 -0.059 0.957 192 170 149 0 0
-1.4116 0.4650 -0.4023 0.134 0.021 0.991 197 176 155 0 0
-1.4155 0.4679 -0.4017 0.282 -0.272 0.920 198 177 154 0 0
-1.4155 0.4721 -0.4000 0.278 -0.343 0.897 198 176 153 0 0
-0.8177 0.7046 -0.2358 0.900 0.148 0.410 124 81 45 0 0
-0.8153 0.7112 -0.2329 0.578 0.076 0.813 119 67 43 0 0
-0.7923 0.7386 -0.2195 0.963 0.023 0.270 133 82 53 0 0
-0.8320 0.7679 -0.2131 0.571 0.758 0.314 151 91 48 0 0
-0.7818 0.8096 -0.1907 0.444 0.856 -0.266 116 91 54 0 0
-1.4509 1.1486 -0.1429 0.146 0.342 0.928 198 180 166 0 0
-1.4605 1.1522 -0.1427 0.146 0.342 0.928 201 184 169 0 0
-1.4627 1.1559 -0.1415 0.194 -0.243 0.950 205 189 176 0 0
-1.4604 1.1742 -0.1342 0.409 0.146 0.901 194 175 161 0 0
-1.4644 1.1778 -0.1332 0.380 0.360 0.852 194 175 160 0 0
-1.4696 1.1815 -0.1325 0.380 0.360 0.852 196 178 162 0 0
-1.4699 1.1852 -0.1311 0.520 0.060 0.852 198 180 164 0 0
-1.4649 1.1888 -0.1291 0.419 -0.573 0.704 197 180 165 0 0
-1.4638 1.1924 -0.1275 0.430 -0.534 0.727 200 183 168 0 0
-1.4761 1.2543 -0.1051 0.295 -0.328 0.898 195 177 162 0 0
-1.4786 1.2760 -0.0970 0.596 0.231 0.769 201 184 171 0 0
-1.4805 1.2797 -0.0959 0.589 0.094 0.803 198 180 165 0 0
-1.4827 1.2834 -0.0947 0.589 0.094 0.803 193 175 160 0 0
-1.4831 1.2870 -0.0933 0.670 0.039 0.741 190 173 157 0 0
-1.4588 1.2963 -0.0868 0.606 0.030 0.795 199 183 168 0 0
-1.4614 1.3000 -0.0857 0.710 0.206 0.673 199 183 168 0 0
-1.4618 1.3035 -0.0843 0.367 0.236 0.900 198 182 167 0 0
-1.4837 1.3157 -0.0823 0.273 0.358 0.893 190 173 158 0 0
-1.4860 1.3194 -0.0812 0.277 -0.058 0.959 186 169 152 0 0
-1.4648 1.3635 -0.0615 0.163 0.283 0.945 182 164 148 0 0
-1.4823 1.4349 -0.0361 0.865 0.206 0.458 178 159 142 0 0
-1.4838 1.4386 -0.0348 0.899 -0.206 0.387 176 158 139 0 0
-1.4818 1.4521 -0.0293 0.525 0.158 0.837 188 171 154 0 0
-1.4811 1.4589 -0.0266 0.498 -0.269 0.824 193 177 162 0 0
-1.4835 1.5072 -0.0083 0.491 -0.185 0.851 190 173 158 0 0
-1.4785 1.5097 -0.0067 0.322 -0.203 0.925 189 171 156 0 0
-1.4685 1.5283 0.0018 0.508 0.396 0.765 192 174 159 0 0
-1.5021 1.5613 0.0103 0.665 -0.110 0.739 191 174 160 0 0
-1.5017 1.5646 0.0117 0.557 -0.052 0.829 190 173 158 0 0
-1.4882 1.5989 0.0266 0.427 0.367 0.826 174 154 136 0 0
-1.5073 1.6162 0.0309 0.642 0.687 0.340 178 159 143 0 0
-1.5283 1.6544 0.0431 0.216 0.021 0.976 181 163 144 0 0
-1.5258 1.6572 0.0445 0.133 -0.335 0.933 182 163 147 0 0
-1.5293 1.6613 0.0456 0.094 -0.307 0.947 183 164 147 0 0
-1.5225 1.6897 0.0574 0.403 0.279 0.872 187 170 151 0 0
-1.5410 1.7076 0.0621 0.250 -0.803 0.540 185 167 151 0 0
-1.5228 1.7261 0.0715 0.285 -0.302 0.910 171 148 130 0 0
-1.5219 1.7910 0.0967 0.639 -0.610 0.469 171 152 135 0 0
-1.5319 1.8360 0.1128 0.647 0.151 0.747 174 155 137 0 0
-1.5069 1.8630 0.1264 0.528 0.625 0.575 172 153 133 0 0
-1.5127 1.8680 0.1276 0.416 0.606 0.678 176 157 137 0 0
-1.5250 1.8752 0.1289 0.459 0.747 0.481 174 156 136 0 0
-1.5479 1.8892 0.1314 0.498 0.739 0.454 169 149 129 0 0
-1.5445 1.8912 0.1326 0.543 0.312 0.780 176 157 139 0 0
-1.5101 1.8985 0.1397 0.351 -0.143 0.925 170 152 132 0 0
-1.3187 -0.0824 -0.6070 0.521 -0.235 0.821 196 180 163 0 0
-1.3193 -0.0553 -0.5966 0.761 -0.220 0.610 176 153 135 0 0
-1.3237 -0.0443 -0.5929 1.000 -0.019 -0.016 188 170 148 0 0
-1.3203 -0.0150 -0.5811 0.972 -0.124 0.198 197 180 164 0 0
-1.3201 -0.0103 -0.5793 0.960 -0.150 0.235 200 183 167 0 0
-1.3074 0.0643 -0.5488 0.293 -0.334 0.896 198 182 166 0 0
-1.3071 0.0733 -0.5452 0.559 -0.464 0.687 195 178 160 0 0
-1.3027 0.1327 -0.5217 0.446 -0.375 0.813 201 187 174 0 0
-1.3193 0.1458 -0.5187 0.283 -0.018 0.959 196 179 163 0 0
-1.3225 0.1485 -0.5181 0.386 -0.433 0.814 196 180 165 0 0
-1.3645 0.4077 -0.4230 0.413 0.001 0.911 202 184 168 0 0
-1.3617 0.4129 -0.4207 0.636 -0.437 0.636 204 186 171 0 0
-1.3774 0.4489 -0.4087 0.224 -0.061 0.973 197 179 160 0 0
-1.3824 0.4513 -0.4084 0.268 -0.059 0.962 198 179 158 0 0
-1.3845 0.4547 -0.4074 0.285 -0.161 0.945 193 172 151 0 0
-1.3876 0.4578 -0.4066 0.255 -0.099 0.962 188 167 145 0 0
-0.8201 0.6869 -0.2461 0.961 -0.208 -0.182 190 164 136 0 0
-0.7912 0.7399 -0.2220 0.983 0.170 0.073 140 89 58 0 0
-0.8131 0.7537 -0.2194 0.522 -0.114 -0.845 122 65 38 0 0
-0.8317 0.7688 -0.2159 0.571 0.758 0.314 165 114 55 0 0
-0.8500 0.7786 -0.2144 0.465 0.840 0.280 98 71 36 0 0
-0.7910 0.8166 -0.1923 0.389 0.916 -0.097 74 50 22 0 0
-0.7825 0.8215 -0.1893 0.646 0.704 -0.295 73 50 21 0 0
-1.4446 1.1025 -0.1642 0.068 -0.051 0.996 213 200 186 0 0
-1.4536 1.1391 -0.1511 0.550 -0.771 0.322 201 185 170 0 0
-1.4509 1.1428 -0.1494 0.748 -0.629 0.210 202 186 171 0 0
-1.4483 1.1465 -0.1476 0.477 -0.339 0.811 201 185 170 0 0
-1.4458 1.1502 -0.1459 0.160 0.238 0.958 198 181 165 0 0
-1.4536 1.1538 -0.1455 0.160 0.238 0.958 199 182 166 0 0
-1.4521 1.1574 -0.1439 0.206 -0.444 0.872 206 190 175 0 0
-1.4670 1.2555 -0.1078 0.292 -0.251 0.923 199 183 168 0 0
-1.4688 1.2735 -0.1010 0.417 -0.039 0.908 205 189 176 0 0
-1.4722 1.2772 -0.1000 0.483 0.090 0.871 202 185 170 0 0
-1.4749 1.2809 -0.0989 0.476 0.111 0.872 197 180 164 0 0
-1.4750 1.2845 -0.0975 0.562 0.219 0.798 191 172 157 0 0
-1.4783 1.2883 -0.0965 0.679 0.472 0.562 185 167 152 0 0
-1.4853 1.2959 -0.0944 0.679 0.472 0.562 195 177 162 0 0
-1.4672 1.3161 -0.0843 0.086 -0.156 0.984 183 165 146 0 0
-1.4650 1.3194 -0.0828 0.143 -0.130 0.981 181 162 145 0 0
-1.4721 1.3235 -0.0821 0.107 -0.070 0.992 180 163 146 0 0
-1.4620 1.4133 -0.0460 0.562 0.001 0.827 177 158 140 0 0
-1.4720 1.4352 -0.0388 0.625 -0.152 0.766 174 156 136 0 0
-1.4751 1.4391 -0.0377 0.588 -0.111 0.801 174 155 136 0 0
-1.4800 1.4569 -0.0314 0.498 0.245 0.832 189 171 156 0 0
-1.4906 1.4860 -0.0215 0.436 0.141 0.889 189 172 156 0 0
-1.4846 1.4987 -0.0158 0.188 -0.528 0.828 190 173 158 0 0
-1.4622 1.5255 -0.0026 0.520 0.264 0.812 184 167 149 0 0
-1.4659 1.5295 -0.0016 0.520 0.264 0.812 190 172 157 0 0
-1.4950 1.5616 0.0072 0.687 0.533 0.494 190 172 157 0 0
-1.4981 1.5656 0.0084 0.640 0.368 0.675 188 171 155 0 0
-1.4976 1.5689 0.0097 0.665 -0.141 0.733 185 168 152 0 0
-1.4766 1.5949 0.0224 0.427 0.367 0.826 172 151 134 0 0
-1.4826 1.5994 0.0234 0.455 0.383 0.804 173 153 135 0 0
-1.4882 1.6039 0.0244 0.455 0.383 0.804 173 152 132 0 0
-1.4977 1.6092 0.0253 0.620 0.599 0.506 172 151 132 0 0
-1.5099 1.6185 0.0273 0.548 0.662 0.512 175 156 139 0 0
-1.5138 1.6260 0.0298 0.788 0.327 0.522 188 171 155 0 0
-1.5168 1.7197 0.0656 0.062 -0.725 0.686 175 154 137 0 0
-1.5133 1.7253 0.0683 0.285 -0.302 0.910 175 154 135 0 0
-1.4999 1.7445 0.0774 0.587 0.145 0.797 185 168 150 0 0
-1.5029 1.7486 0.0786 0.561 -0.222 0.798 184 167 149 0 0
-1.5159 1.7910 0.0934 0.794 -0.602 0.080 178 160 142 0 0
-1.5043 1.8638 0.1230 0.528 0.625 0.575 167 149 129 0 0
-1.5362 1.8902 0.1292 0.371 -0.009 0.929 181 164 146 0 0
-1.5358 1.8932 0.1304 0.268 -0.182 0.946 183 166 148 0 0
-1.4825 1.8970 0.1386 0.257 0.123 0.959 171 150 130 0 0
-1.2698 -0.2053 -0.6530 0.179 -0.290 0.940 184 165 144 0 0
-1.3104 -0.0761 -0.6081 0.272 -0.195 0.942 202 186 171 0 0
-1.3141 -0.0602 -0.6024 0.628 -0.228 0.744 191 173 156 0 0
-1.3146 -0.0559 -0.6008 0.691 -0.137 0.710 183 163 146 0 0
-1.3154 -0.0519 -0.5994 0.688 -0.233 0.687 183 163 144 0 0
-1.3165 -0.0435 -0.5963 0.789 -0.272 0.551 187 170 151 0 0
-1.3239 -0.0434 -0.5972 0.990 0.037 0.138 190 173 154 0 0
-1.3243 -0.0391 -0.5956 0.781 0.003 0.625 191 174 155 0 0
-1.3225 -0.0289 -0.5914 0.829 -0.357 0.430 198 182 167 0 0
-1.3214 -0.0237 -0.5892 0.829 -0.357 0.430 202 187 174 0 0
-1.2996 0.0697 -0.5502 0.298 -0.273 0.915 193 176 158 0 0
-1.3139 0.1496 -0.5211 0.302 -0.255 0.918 191 174 156 0 0
-1.3787 0.4580 -0.4098 0.281 -0.134 0.950 202 184 165 0 0
-0.8240 0.6895 -0.2488 0.869 0.382 -0.315 164 133 99 0 0
-0.8104 0.7116 -0.2385 0.832 -0.495 0.249 124 73 49 0 0
-0.8194 0.7440 -0.2271 0.543 0.376 -0.751 122 66 40 0 0
-0.8202 0.7467 -0.2262 0.442 0.574 -0.689 123 66 40 0 0
-0.8222 0.7491 -0.2255 0.447 0.534 -0.718 125 67 41 0 0
-0.8245 0.7572 -0.2227 0.835 -0.270 -0.479 124 68 37 0 0
-0.8225 0.7607 -0.2210 0.835 -0.270 -0.479 129 76 39 0 0
-0.8207 0.7641 -0.2195 0.852 -0.311 -0.420 150 103 48 0 0
-0.8471 0.7774 -0.2177 0.983 -0.074 0.170 99 69 31 0 0
-0.7925 0.8171 -0.1953 0.427 0.901 -0.079 71 49 19 0 0
-0.7811 0.8504 -0.1810 0.327 -0.149 0.933 177 133 37 0 0
-0.7760 0.8543 -0.1788 0.636 -0.138 0.759 175 131 36 0 0
-1.4352 1.0970 -0.1694 0.402 -0.517 0.755 198 181 165 0 0
-1.4353 1.1006 -0.1680 0.301 -0.238 0.923 196 179 162 0 0
-1.4380 1.1042 -0.1669 0.251 0.161 0.955 199 182 166 0 0
-1.4423 1.1480 -0.1505 0.477 -0.339 0.811 196 178 163 0 0
-1.4382 1.1517 -0.1485 0.238 0.239 0.941 193 174 159 0 0
-1.4418 1.1735 -0.1406 0.253 -0.245 0.936 194 175 160 0 0
-1.4347 1.2022 -0.1285 0.488 -0.055 0.871 196 178 164 0 0
-1.4375 1.2058 -0.1275 0.548 0.251 0.798 196 179 164 0 0
-1.4404 1.2095 -0.1264 0.702 0.431 0.567 196 179 164 0 0
-1.4446 1.2132 -0.1255 0.602 0.131 0.787 195 177 163 0 0
-1.4497 1.2169 -0.1248 0.417 0.348 0.840 200 183 169 0 0
-1.4533 1.2206 -0.1238 0.467 0.319 0.825 201 185 170 0 0
-1.4568 1.2243 -0.1228 0.842 -0.236 0.485 197 180 166 0 0
-1.4527 1.2528 -0.1112 0.396 -0.191 0.898 202 186 172 0 0
-1.4590 1.2674 -0.1064 0.417 -0.001 0.909 206 191 178 0 0
-1.4606 1.2710 -0.1052 0.427 -0.117 0.897 205 190 179 0 0
-1.4622 1.2747 -0.1040 0.427 -0.117 0.897 201 185 171 0 0
-1.4672 1.2785 -0.1031 0.440 -0.131 0.888 194 177 162 0 0
-1.4695 1.2822 -0.1020 0.459 0.173 0.872 190 172 157 0 0
-1.4709 1.2859 -0.1007 0.562 0.219 0.798 185 165 151 0 0
-1.4750 1.2897 -0.0998 0.605 0.243 0.758 184 164 149 0 0
-1.4589 1.3346 -0.0803 0.475 -0.818 0.326 193 176 161 0 0
-1.4520 1.3375 -0.0783 0.358 -0.477 0.803 191 174 159 0 0
-1.4550 1.4106 -0.0503 0.463 -0.173 0.870 183 164 148 0 0
-1.4574 1.4144 -0.0492 0.562 0.001 0.827 183 164 148 0 0
-1.4577 1.4178 -0.0479 0.438 0.321 0.840 179 161 143 0 0
-1.4698 1.4365 -0.0422 0.629 -0.151 0.763 175 156 138 0 0
-1.4693 1.4468 -0.0381 0.518 -0.080 0.852 178 160 141 0 0
-1.4673 1.4534 -0.0353 0.637 -0.435 0.636 172 151 133 0 0
-1.4720 1.4574 -0.0344 0.868 -0.120 0.482 176 155 138 0 0
-1.4695 1.4605 -0.0328 0.930 -0.281 0.239 181 160 144 0 0
-1.4677 1.4705 -0.0287 0.918 0.149 -0.368 185 167 150 0 0
-1.4615 1.5270 -0.0061 0.719 -0.649 0.247 184 167 150 0 0
-1.4657 1.5310 -0.0050 0.568 0.590 0.574 186 168 152 0 0
-1.4893 1.5656 0.0053 0.370 -0.316 0.874 188 171 155 0 0
-1.4913 1.5693 0.0065 0.328 -0.348 0.878 185 167 150 0 0
-1.5078 1.6230 0.0252 0.655 0.600 0.460 183 164 147 0 0
-1.5102 1.6269 0.0264 0.586 0.265 0.766 189 172 156 0 0
-1.5057 1.6459 0.0344 0.513 0.097 0.853 192 175 160 0 0
-1.4764 1.6688 0.0470 0.744 0.659 0.111 187 169 151 0 0
-1.4811 1.6732 0.0481 0.442 0.784 0.436 190 173 156 0 0
-1.4928 1.6793 0.0490 0.277 0.378 0.883 190 172 155 0 0
-1.5039 1.6885 0.0511 0.239 0.035 0.970 188 170 155 0 0
-1.5097 1.6933 0.0522 0.225 0.059 0.972 189 172 156 0 0
-1.5169 1.6983 0.0533 0.183 0.025 0.983 190 173 157 0 0
-1.5055 1.7217 0.0638 0.292 -0.230 0.929 182 164 145 0 0
-1.5036 1.7310 0.0676 0.606 0.529 0.594 188 171 154 0 0
-1.4911 1.7406 0.0730 0.579 -0.232 0.782 189 173 155 0 0
-1.4910 1.7438 0.0742 0.524 -0.161 0.836 188 171 154 0 0
-1.4895 1.7466 0.0755 0.850 -0.223 0.477 187 170 153 0 0
-1.4895 1.7530 0.0780 0.975 -0.208 0.075 184 167 149 0 0
-1.4923 1.7602 0.0804 0.796 0.347 0.496 186 170 152 0 0
-1.5017 1.7693 0.0827 0.637 0.721 0.273 184 166 149 0 0
-1.5078 1.7742 0.0839 0.637 0.721 0.273 183 165 148 0 0
-1.5139 1.7792 0.0850 0.637 0.721 0.273 184 167 151 0 0
-1.5095 1.7812 0.0863 0.776 0.029 0.630 184 167 151 0 0
-1.5109 1.7848 0.0876 0.832 0.163 0.530 184 167 150 0 0
-1.5125 1.8238 0.1025 0.391 0.064 0.918 175 158 138 0 0
-1.5252 1.8373 0.1061 0.396 0.311 0.864 168 150 129 0 0
-1.5201 1.8834 0.1246 0.294 0.304 0.906 177 160 140 0 0
-1.5038 1.8967 0.1319 0.569 -0.133 0.812 183 166 148 0 0
-1.4841 1.8961 0.1342 0.453 0.117 0.884 175 157 138 0 0
-1.4701 1.8944 0.1353 0.240 0.189 0.952 173 154 134 0 0
-1.2720 -0.0912 -0.6136 0.222 -0.156 0.963 182 162 141 0 0
-1.3011 -0.0738 -0.6106 0.286 -0.287 0.914 195 179 163 0 0
-1.3109 -0.0208 -0.5913 0.358 -0.303 0.883 199 183 167 0 0
-1.2905 0.0759 -0.5511 0.941 -0.280 0.190 189 171 152 0 0
-1.2885 0.0814 -0.5487 0.936 -0.119 0.332 195 178 160 0 0
-1.3043 0.0946 -0.5457 0.455 0.157 0.877 191 174 156 0 0
-1.3055 0.1551 -0.5223 0.280 -0.286 0.917 193 177 160 0 0
-0.8274 0.6922 -0.2514 0.640 0.571 -0.514 160 119 73 0 0
-0.8133 0.7438 -0.2296 0.394 0.488 -0.779 126 68 40 0 0
-0.8339 0.7437 -0.2323 0.677 0.728 0.107 129 70 44 0 0
-0.8337 0.7467 -0.2311 0.797 0.569 -0.203 132 73 47 0 0
-0.8271 0.7574 -0.2261 0.844 -0.352 -0.404 119 69 30 0 0
-0.8245 0.7610 -0.2243 0.782 -0.449 -0.432 119 76 30 0 0
-0.8472 0.7783 -0.2206 0.851 0.224 0.475 100 70 32 0 0
-0.8512 0.7802 -0.2204 0.498 0.639 0.585 96 72 33 0 0
-0.7849 0.8227 -0.1953 0.817 -0.236 -0.526 72 47 19 0 0
-0.7703 0.8510 -0.1824 0.965 0.254 -0.068 180 135 40 0 0
-1.4280 1.0987 -0.1720 0.402 -0.517 0.755 198 180 162 0 0
-1.4268 1.1024 -0.1704 0.372 -0.361 0.855 197 180 163 0 0
-1.4302 1.1533 -0.1511 0.291 0.176 0.940 190 171 155 0 0
-1.4347 1.2073 -0.1308 0.610 0.504 0.611 194 176 162 0 0
-1.4388 1.2110 -0.1299 0.589 0.644 0.488 197 180 164 0 0
-1.4404 1.2146 -0.1287 0.508 0.277 0.815 193 176 161 0 0
-1.4447 1.2183 -0.1278 0.417 0.348 0.840 198 182 167 0 0
-1.4470 1.2219 -0.1267 0.452 0.407 0.794 200 184 170 0 0
-1.4537 1.2257 -0.1261 0.830 0.150 0.536 202 186 173 0 0
-1.4525 1.2293 -0.1245 0.826 -0.457 0.330 203 187 173 0 0
-1.4496 1.2613 -0.1117 0.427 -0.117 0.897 205 188 177 0 0
-1.4527 1.2686 -0.1093 0.427 -0.117 0.897 205 190 177 0 0
-1.4558 1.2759 -0.1069 0.452 -0.153 0.879 198 180 166 0 0
-1.4609 1.2797 -0.1061 0.518 -0.066 0.853 196 178 164 0 0
-1.4636 1.2834 -0.1050 0.441 0.305 0.844 194 177 162 0 0
-1.4660 1.2871 -0.1038 0.480 0.273 0.834 194 176 162 0 0
-1.4327 1.3891 -0.0599 0.227 -0.178 0.958 188 172 158 0 0
-1.4640 1.4408 -0.0439 0.522 -0.056 0.851 178 158 139 0 0
-1.4602 1.4437 -0.0423 0.643 0.413 0.645 178 159 142 0 0
-1.4632 1.4475 -0.0412 0.758 0.479 0.443 174 155 136 0 0
-1.4597 1.4607 -0.0356 0.819 -0.518 0.248 173 150 132 0 0
-1.4639 1.5088 -0.0175 0.457 -0.079 0.886 184 166 150 0 0
-1.4670 1.5127 -0.0164 0.417 0.086 0.905 185 166 151 0 0
-1.4567 1.5311 -0.0079 0.575 0.032 0.817 185 166 149 0 0
-1.4631 1.5356 -0.0070 0.572 0.273 0.773 183 164 148 0 0
-1.4968 1.5517 -0.0052 0.379 -0.779 0.499 176 158 138 0 0
-1.4957 1.5549 -0.0038 0.453 -0.828 0.330 171 152 133 0 0
-1.4829 1.5660 0.0022 0.332 -0.513 0.792 184 166 149 0 0
-1.4832 1.5694 0.0035 0.282 -0.393 0.875 180 161 142 0 0
-1.4778 1.5851 0.0103 0.334 -0.627 0.704 183 164 147 0 0
-1.4694 1.5967 0.0159 0.523 0.851 0.048 187 169 154 0 0
-1.5027 1.6169 0.0194 0.453 0.889 0.066 180 161 144 0 0
-1.5114 1.6221 0.0203 0.561 0.811 0.163 187 169 152 0 0
-1.5015 1.6233 0.0220 0.523 0.162 0.836 188 171 155 0 0
-1.5042 1.6406 0.0284 0.943 0.325 -0.075 193 176 162 0 0
-1.5064 1.6478 0.0309 0.732 0.583 -0.352 192 175 159 0 0
-1.4972 1.6918 0.0492 0.178 -0.000 0.984 186 169 153 0 0
-1.5009 1.6960 0.0503 0.183 0.025 0.983 188 171 155 0 0
-1.4848 1.7438 0.0710 0.505 -0.361 0.784 181 164 147 0 0
-1.4852 1.7471 0.0722 0.486 -0.040 0.873 184 166 149 0 0
-1.4840 1.7564 0.0760 0.520 -0.208 0.828 185 168 150 0 0
-1.4845 1.7597 0.0772 0.446 -0.162 0.880 186 169 153 0 0
-1.4877 1.7638 0.0784 0.346 0.162 0.924 186 169 152 0 0
-1.5140 1.7810 0.0816 0.802 0.535 0.266 188 171 155 0 0
-1.5061 1.7819 0.0830 0.930 -0.098 0.354 187 170 155 0 0
-1.5186 1.7920 0.0853 0.367 -0.405 0.838 187 171 155 0 0
-1.4997 1.8970 0.1285 0.648 0.612 0.454 184 167 149 0 0
-1.4974 1.8994 0.1297 0.671 0.652 0.352 182 164 146 0 0
-1.4817 1.8970 0.1309 0.884 0.371 0.283 176 159 140 0 0
-1.4663 1.8947 0.1320 0.409 0.624 0.666 174 156 136 0 0
-1.2643 -0.0807 -0.6130 0.194 0.219 0.956 185 166 148 0 0
-1.2751 -0.0787 -0.6137 0.509 0.585 0.632 196 179 163 0 0
-1.2887 0.0647 -0.5597 0.989 0.145 -0.033 186 168 148 0 0
-1.2876 0.0742 -0.5559 0.937 -0.349 0.026 185 166 146 0 0
-1.2888 0.0779 -0.5546 0.940 -0.335 0.073 188 170 151 0 0
-1.2882 0.0826 -0.5527 0.941 -0.280 0.190 195 178 160 0 0
-1.2893 0.0864 -0.5514 0.799 0.166 0.578 197 181 164 0 0
-1.2912 0.0897 -0.5504 0.578 0.301 0.758 196 179 162 0 0
-1.3032 0.1006 -0.5477 0.441 -0.302 0.845 192 174 158 0 0
-1.3626 0.4661 -0.4135 0.331 -0.047 0.942 201 183 162 0 0
-1.3648 0.4695 -0.4125 0.420 -0.418 0.806 200 182 163 0 0
-0.8110 0.7161 -0.2432 0.912 -0.004 0.410 134 77 52 0 0
-0.8066 0.7205 -0.2409 0.911 0.224 -0.347 131 74 52 0 0
-0.8455 0.7797 -0.2231 0.945 -0.110 0.307 99 71 31 0 0
-0.7871 0.8231 -0.1985 0.631 0.663 0.403 70 48 18 0 0
-0.7700 0.8520 -0.1850 0.881 0.442 0.166 179 133 35 0 0
-0.7762 0.8698 -0.1789 0.892 -0.349 0.287 174 129 36 0 0
-0.7756 0.8726 -0.1777 0.910 -0.289 0.297 173 127 35 0 0
-0.7750 0.8755 -0.1765 0.910 -0.289 0.297 167 120 29 0 0
-1.4177 1.1078 -0.1714 0.264 0.387 0.884 202 187 171 0 0
-1.4259 1.2015 -0.1361 0.242 -0.013 0.970 191 172 156 0 0
-1.4233 1.2050 -0.1343 0.611 0.548 0.571 190 172 156 0 0
-1.4280 1.2087 -0.1335 0.535 0.600 0.595 199 181 168 0 0
-1.4353 1.2124 -0.1331 0.656 0.474 0.587 200 184 169 0 0
-1.4364 1.2160 -0.1318 0.554 0.287 0.782 198 182 168 0 0
-1.4398 1.2197 -0.1308 0.435 0.293 0.851 201 185 171 0 0
-1.4417 1.2233 -0.1297 0.435 0.487 0.758 205 189 177 0 0
-1.4446 1.2270 -0.1286 0.520 -0.186 0.833 205 188 177 0 0
-1.4440 1.2341 -0.1258 0.434 -0.437 0.788 198 182 167 0 0
-1.4445 1.2839 -0.1065 0.198 0.180 0.963 200 183 169 0 0
-1.4531 1.2879 -0.1061 0.237 0.171 0.956 203 187 173 0 0
-1.4565 1.2917 -0.1050 0.256 0.120 0.959 203 187 174 0 0
-1.4213 1.3587 -0.0743 0.671 0.066 0.739 178 158 141 0 0
-1.4167 1.3617 -0.0726 0.341 0.202 0.918 179 159 142 0 0
-1.4214 1.3656 -0.0717 0.284 0.243 0.927 180 161 144 0 0
-1.4204 1.3689 -0.0702 0.391 -0.098 0.915 179 160 143 0 0
-1.4212 1.3792 -0.0663 0.476 0.170 0.863 195 180 169 0 0
-1.4270 1.3901 -0.0629 0.506 0.246 0.827 199 184 174 0 0
-1.4307 1.3973 -0.0606 0.391 -0.364 0.846 187 169 155 0 0
-1.4550 1.4446 -0.0454 0.602 0.314 0.734 166 145 128 0 0
-1.4572 1.4483 -0.0442 0.680 0.461 0.570 173 152 134 0 0
-1.4631 1.4594 -0.0407 0.680 -0.214 0.701 173 152 133 0 0
-1.4590 1.4724 -0.0351 0.849 0.371 0.376 181 161 143 0 0
-1.4501 1.5215 -0.0149 0.946 -0.211 0.244 188 171 155 0 0
-1.4484 1.5246 -0.0134 0.739 -0.468 0.485 188 171 155 0 0
-1.4472 1.5277 -0.0121 0.738 -0.449 0.504 188 171 155 0 0
-1.4562 1.5359 -0.0101 0.483 -0.179 0.857 176 158 139 0 0
-1.4680 1.5414 -0.0095 0.358 0.358 0.862 175 157 137 0 0
-1.4729 1.5456 -0.0085 0.415 0.315 0.854 175 157 137 0 0
-1.4725 1.5489 -0.0072 0.340 0.105 0.935 173 154 135 0 0
-1.4740 1.5693 0.0005 0.258 -0.358 0.898 178 160 141 0 0
-1.4772 1.6065 0.0146 0.427 0.356 0.831 184 167 150 0 0
-1.4969 1.6240 0.0188 0.306 -0.039 0.951 190 172 157 0 0
-1.5020 1.6285 0.0198 0.247 -0.482 0.841 191 174 159 0 0
-1.5007 1.6315 0.0212 0.327 -0.505 0.799 195 179 164 0 0
-1.5033 1.6421 0.0250 0.623 -0.752 -0.216 190 172 158 0 0
-1.4849 1.6839 0.0437 0.423 0.557 0.715 184 167 151 0 0
-1.4857 1.6874 0.0449 0.472 0.174 0.864 187 170 154 0 0
-1.4808 1.7412 0.0664 0.380 -0.024 0.925 180 162 145 0 0
-1.4861 1.7522 0.0701 0.362 -0.093 0.927 181 162 145 0 0
-1.5034 1.7989 0.0859 0.438 -0.277 0.856 185 169 153 0 0
-1.4765 1.8098 0.0937 0.243 -0.360 0.900 187 171 156 0 0
-1.4785 1.8574 0.1119 0.596 0.160 0.787 175 157 139 0 0
-1.4826 1.8619 0.1131 0.544 0.356 0.759 175 158 141 0 0
-1.4822 1.8679 0.1155 0.346 0.331 0.878 175 157 136 0 0
-1.4883 1.8731 0.1167 0.282 0.020 0.959 176 158 140 0 0
-1.4809 1.8985 0.1276 0.903 0.037 0.428 176 159 141 0 0
-1.4631 1.8953 0.1287 0.436 0.708 0.556 175 156 136 0 0
-1.2830 0.0690 -0.5618 0.814 0.346 0.466 199 183 165 0 0
-1.2887 0.0701 -0.5621 0.906 -0.302 0.295 193 177 156 0 0
-1.2891 0.1872 -0.5166 0.386 -0.354 0.852 194 177 160 0 0
-1.2918 0.1901 -0.5158 0.327 -0.155 0.932 188 171 154 0 0
-1.3073 0.2721 -0.4860 0.538 0.004 0.843 199 180 163 0 0
-1.3535 0.4705 -0.4150 0.502 0.081 0.861 197 179 159 0 0
-1.3546 0.4742 -0.4137 0.686 -0.365 0.630 200 180 159 0 0
-0.8116 0.7198 -0.2450 0.575 0.180 -0.798 146 86 53 0 0
-0.8404 0.7377 -0.2419 0.691 -0.722 -0.001 118 71 37 0 0
-0.8360 0.7479 -0.2374 0.820 0.239 0.520 125 79 42 0 0
-0.7870 0.8240 -0.2012 0.430 0.634 0.643 69 46 19 0 0
-0.7713 0.8553 -0.1869 0.853 0.222 0.473 176 129 33 0 0
-0.7742 0.8711 -0.1811 0.951 0.111 0.290 174 129 36 0 0
-0.7751 0.8737 -0.1802 0.962 0.248 0.110 172 126 34 0 0
-0.7775 0.8759 -0.1797 0.955 -0.188 -0.229 169 123 32 0 0
-0.7774 0.8786 -0.1786 0.925 0.365 0.108 175 130 38 0 0
-1.4272 1.0906 -0.1836 0.695 -0.399 0.599 185 163 145 0 0
-1.4166 1.1993 -0.1399 0.312 -0.048 0.949 200 183 169 0 0
-1.4188 1.2064 -0.1374 0.842 0.185 0.506 197 179 164 0 0
-1.4255 1.2137 -0.1354 0.732 0.404 0.549 202 185 172 0 0
-1.4294 1.2173 -0.1345 0.584 0.453 0.673 202 185 173 0 0
-1.4324 1.2210 -0.1335 0.435 0.487 0.758 202 186 174 0 0
-1.4378 1.2247 -0.1328 0.435 0.487 0.758 206 190 177 0 0
-1.4358 1.2425 -0.1256 0.470 -0.597 0.650 192 173 158 0 0
-1.4304 1.2846 -0.1085 0.143 0.062 0.988 197 179 165 0 0
-1.4367 1.2885 -0.1078 0.143 0.062 0.988 198 181 167 0 0
-1.4428 1.2924 -0.1071 0.151 0.067 0.986 201 185 170 0 0
-1.4095 1.3007 -0.0994 0.462 -0.464 0.756 195 177 162 0 0
-1.4093 1.3042 -0.0980 0.338 -0.153 0.929 193 176 160 0 0
-1.4060 1.3074 -0.0963 0.273 -0.159 0.949 190 172 157 0 0
-1.4179 1.3599 -0.0775 0.663 0.458 0.592 176 156 138 0 0
-1.4162 1.3632 -0.0760 0.499 0.535 0.682 176 156 139 0 0
-1.4194 1.3703 -0.0737 0.588 -0.094 0.803 179 159 142 0 0
-1.4161 1.3802 -0.0694 0.555 0.103 0.825 184 168 152 0 0
-1.4178 1.3872 -0.0669 0.847 0.117 0.519 202 188 178 0 0
-1.4352 1.4164 -0.0578 0.461 0.388 0.798 186 167 152 0 0
-1.4397 1.4238 -0.0556 0.275 0.203 0.940 182 165 147 0 0
-1.4519 1.4458 -0.0486 0.464 0.525 0.714 172 151 133 0 0
-1.4555 1.4497 -0.0476 0.735 0.470 0.488 179 158 141 0 0
-1.4559 1.4736 -0.0384 0.542 0.795 0.273 187 169 153 0 0
-1.4586 1.4774 -0.0373 0.943 0.119 -0.311 185 166 149 0 0
-1.4421 1.4950 -0.0282 0.633 -0.221 0.742 182 164 144 0 0
-1.4590 1.5481 -0.0098 0.240 0.005 0.971 174 154 135 0 0
-1.4631 1.5522 -0.0088 0.261 -0.133 0.956 173 153 134 0 0
-1.4719 1.5605 -0.0067 0.317 -0.610 0.726 176 157 139 0 0
-1.4747 1.5644 -0.0056 0.424 -0.785 0.453 183 166 148 0 0
-1.4671 1.5862 0.0040 0.637 -0.520 0.569 182 162 146 0 0
-1.4658 1.5893 0.0053 0.637 -0.520 0.569 185 167 151 0 0
-1.4650 1.5924 0.0066 0.534 -0.519 0.667 188 171 155 0 0
-1.4722 1.6071 0.0114 0.363 0.594 0.718 183 166 149 0 0
-1.4907 1.6210 0.0143 0.365 0.378 0.851 188 171 155 0 0
-1.4876 1.6237 0.0158 0.306 -0.039 0.951 190 173 158 0 0
-1.4619 1.6638 0.0348 0.814 -0.329 0.479 184 167 150 0 0
-1.4683 1.7106 0.0522 0.730 0.255 0.634 197 183 168 0 0
-1.4678 1.7169 0.0547 0.495 0.586 0.641 189 173 157 0 0
-1.4687 1.7203 0.0559 0.598 0.649 0.470 187 171 154 0 0
-1.4615 1.7216 0.0574 0.556 0.339 0.759 187 170 153 0 0
-1.4662 1.7261 0.0585 0.501 0.308 0.809 185 168 152 0 0
-1.4894 1.7900 0.0803 0.403 0.628 0.666 185 168 152 0 0
-1.4969 1.7955 0.0814 0.567 0.493 0.659 182 165 148 0 0
-1.4954 1.7982 0.0827 0.508 -0.547 0.665 184 167 151 0 0
-1.4637 1.8107 0.0918 0.265 0.313 0.912 187 172 156 0 0
-1.4814 1.8193 0.0928 0.304 0.447 0.841 187 171 156 0 0
-1.4862 1.8240 0.0939 0.355 0.515 0.780 185 169 153 0 0
-1.4990 1.8311 0.0950 0.414 0.632 0.655 182 165 149 0 0
-1.5005 1.8379 0.0974 0.402 -0.363 0.841 181 163 146 0 0
-1.4645 1.8483 0.1063 0.537 0.094 0.839 181 163 145 0 0
-1.4795 1.8594 0.1086 0.563 -0.258 0.786 180 162 144 0 0
-1.4772 1.8618 0.1098 0.633 0.309 0.709 181 164 146 0 0
-1.4775 1.8650 0.1111 0.643 0.533 0.550 183 166 149 0 0
-1.4772 1.8680 0.1123 0.472 0.216 0.855 180 162 145 0 0
-1.4803 1.8721 0.1135 0.451 -0.114 0.885 177 158 142 0 0
-1.4793 1.8749 0.1147 0.329 -0.397 0.857 178 161 143 0 0
-1.4807 1.8939 0.1219 0.713 -0.117 0.692 180 163 144 0 0
-1.4752 1.8951 0.1231 0.522 -0.240 0.819 180 162 142 0 0
-1.4749 1.8981 0.1243 0.412 -0.641 0.648 178 160 141 0 0
-1.4597 1.8959 0.1255 0.420 0.713 0.562 175 157 136 0 0
-1.2530 -0.1030 -0.6292 0.383 -0.327 0.864 190 172 150 0 0
