ply
format ascii 1.0
element vertex 826
property float x
property float y
property float z
property float nx
property float ny
property float nz
property uchar diffuse_red
property uchar diffuse_green
property uchar diffuse_blue
property uchar class
property uchar detection
end_header
-1.6338 0.2385 -0.3679 0.312 -0.479 0.820 186 167 150 0 0
-1.6507 0.2515 -0.3661 0.739 -0.346 0.577 194 177 159 0 0
-1.6512 0.2554 -0.3651 0.670 -0.438 0.600 194 177 159 0 0
-1.6500 0.2597 -0.3638 0.706 -0.414 0.575 189 171 153 0 0
-1.6497 0.2638 -0.3626 0.545 -0.347 0.764 188 170 152 0 0
-1.6494 0.2760 -0.3591 0.387 -0.022 0.922 187 169 151 0 0
-1.6512 0.2798 -0.3582 0.387 -0.022 0.922 187 170 150 0 0
-1.6507 0.3205 -0.3466 0.751 -0.661 -0.008 198 183 166 0 0
-1.6344 0.3595 -0.3338 0.427 -0.087 0.900 195 178 162 0 0
-1.6210 0.3976 -0.3215 0.752 0.179 0.635 196 179 162 0 0
-1.6227 0.4015 -0.3206 0.742 -0.018 0.670 188 170 153 0 0
-1.5942 0.4810 -0.2950 0.375 -0.410 0.831 196 178 160 0 0
-1.6078 0.4839 -0.2957 0.417 -0.764 0.492 195 177 159 0 0
-0.8320 0.6718 -0.1557 0.992 -0.023 0.126 111 83 37 0 0
-0.8323 0.6745 -0.1549 0.984 0.117 0.137 130 102 50 0 0
-0.8203 0.6904 -0.1491 0.849 -0.165 0.501 142 110 58 0 0
-0.8353 0.7067 -0.1462 0.633 -0.392 0.668 127 89 37 0 0
-0.8379 0.7094 -0.1457 0.718 0.145 0.681 129 91 41 0 0
-0.8244 0.7278 -0.1390 0.320 -0.321 0.891 149 114 58 0 0
-0.8237 0.7304 -0.1382 0.317 -0.362 0.877 150 116 61 0 0
-0.8211 0.7330 -0.1371 0.277 -0.600 0.750 128 98 41 0 0
-0.8429 0.7746 -0.1278 0.491 -0.498 0.715 157 136 72 0 0
-0.8115 0.7991 -0.1174 0.979 0.165 0.115 123 88 25 0 0
-0.8121 0.8018 -0.1167 0.970 -0.107 0.219 119 85 23 0 0
-0.8107 0.8071 -0.1151 0.814 0.139 0.564 125 87 20 0 0
-0.8139 0.8100 -0.1146 0.475 0.506 0.720 143 102 22 0 0
-0.7433 0.8518 -0.0949 0.441 0.890 -0.111 176 131 44 0 0
-0.7203 0.8538 -0.0917 0.894 -0.272 -0.356 173 131 46 0 0
-0.7410 0.8720 -0.0889 0.935 -0.058 -0.351 179 153 122 0 0
-1.5661 1.0795 -0.1227 0.597 0.112 0.795 190 171 151 0 0
-1.5647 1.0875 -0.1203 0.473 0.003 0.881 187 168 150 0 0
-1.5633 1.0914 -0.1191 0.471 -0.194 0.861 189 170 152 0 0
-1.5577 1.1193 -0.1106 0.525 -0.494 0.693 175 153 135 0 0
-1.5552 1.1229 -0.1092 0.532 -0.669 0.520 178 158 141 0 0
-1.5508 1.2091 -0.0844 0.901 -0.046 0.431 176 156 140 0 0
-1.5488 1.2127 -0.0832 0.912 -0.300 0.281 179 160 144 0 0
-1.5457 1.2244 -0.0795 0.664 -0.667 -0.337 199 182 169 0 0
-1.5426 1.2319 -0.0770 0.801 -0.141 0.582 186 166 151 0 0
-1.5428 1.2362 -0.0759 0.755 -0.057 0.654 184 166 150 0 0
-1.5472 1.2415 -0.0749 0.506 -0.117 0.855 180 160 144 0 0
-1.5478 1.2458 -0.0737 0.517 0.026 0.855 176 155 140 0 0
-1.5514 1.2509 -0.0727 0.542 0.063 0.838 179 159 142 0 0
-1.5563 1.2606 -0.0705 0.676 0.083 0.732 189 172 156 0 0
-1.5535 1.2640 -0.0692 0.655 0.151 0.741 191 173 158 0 0
-1.5566 1.2690 -0.0681 0.683 0.018 0.730 193 175 161 0 0
-1.5580 1.2736 -0.0670 0.651 -0.042 0.758 194 177 163 0 0
-1.5596 1.2783 -0.0659 0.578 -0.073 0.812 193 175 161 0 0
-1.5632 1.3045 -0.0589 0.484 -0.384 0.786 181 161 144 0 0
-1.5412 1.3148 -0.0535 0.450 -0.824 0.344 171 148 131 0 0
-1.5410 1.3189 -0.0523 0.910 0.397 0.121 177 155 137 0 0
-1.5429 1.3279 -0.0500 0.934 0.346 0.087 188 170 155 0 0
-1.5471 1.3333 -0.0489 0.993 0.119 0.004 185 166 151 0 0
-1.5476 1.3377 -0.0477 0.993 0.119 0.004 176 155 138 0 0
-1.5458 1.3413 -0.0465 0.964 -0.247 0.102 174 154 136 0 0
-1.5410 1.3440 -0.0452 0.617 -0.786 0.044 184 166 150 0 0
-1.5349 1.3505 -0.0427 0.709 -0.590 0.386 186 169 154 0 0
-1.5342 1.3669 -0.0380 0.601 -0.011 0.799 199 182 171 0 0
-1.5341 1.3753 -0.0356 0.928 -0.369 0.056 199 183 171 0 0
-1.5317 1.3787 -0.0344 0.895 -0.440 0.073 196 180 169 0 0
-1.5247 1.4893 -0.0023 0.569 -0.379 0.730 180 161 147 0 0
-1.5232 1.4929 -0.0012 0.552 -0.503 0.665 187 169 155 0 0
-1.5192 1.4956 0.0000 0.464 -0.718 0.519 187 169 155 0 0
-1.5198 1.5000 0.0012 0.273 -0.645 0.713 188 170 156 0 0
-1.4872 1.5163 0.0095 0.264 -0.741 0.617 195 181 169 0 0
-1.4879 1.5415 0.0165 0.347 -0.049 0.937 193 177 166 0 0
-1.5011 1.5719 0.0237 0.907 -0.421 0.030 176 159 143 0 0
-1.4995 1.5838 0.0272 0.876 -0.335 0.347 187 171 155 0 0
-1.4938 1.6651 0.0508 0.300 -0.451 0.841 192 176 162 0 0
-1.4928 1.6688 0.0519 0.297 -0.235 0.925 192 176 163 0 0
-1.4847 1.7826 0.0850 0.713 0.480 0.511 189 173 160 0 0
-1.4993 1.8627 0.1060 0.287 -0.103 0.952 187 171 158 0 0
-1.5042 1.8869 0.1123 0.386 0.024 0.922 184 168 154 0 0
-1.4881 1.9459 0.1308 0.528 -0.367 0.766 169 152 136 0 0
-1.5199 2.0260 0.1498 0.413 0.115 0.904 173 155 138 0 0
-1.5259 2.0342 0.1515 0.949 -0.144 0.281 176 158 141 0 0
-1.5254 2.0383 0.1527 0.867 -0.494 -0.064 179 162 147 0 0
-1.4685 2.1089 0.1790 0.341 -0.316 0.885 183 167 153 0 0
-1.4675 2.1125 0.1801 0.372 -0.236 0.898 181 165 151 0 0
-1.4676 2.1169 0.1814 0.372 -0.236 0.898 177 161 147 0 0
-1.4660 2.1201 0.1824 0.330 -0.202 0.922 181 165 151 0 0
-1.4700 2.1272 0.1840 0.350 -0.101 0.931 185 169 155 0 0
-1.7013 -0.3370 -0.5425 0.461 -0.792 0.401 192 175 156 0 0
-1.7026 -0.3336 -0.5417 0.474 -0.671 0.570 191 174 157 0 0
-1.6970 -0.3272 -0.5393 0.520 -0.629 0.577 191 174 156 0 0
-1.6954 -0.2589 -0.5198 0.998 0.019 -0.058 187 169 150 0 0
-1.6944 -0.2546 -0.5185 0.715 0.498 0.491 185 167 147 0 0
-1.6976 -0.2479 -0.5169 0.687 0.001 0.726 192 176 157 0 0
-1.6999 -0.2448 -0.5163 0.779 -0.471 0.414 189 172 153 0 0
-1.6979 -0.2400 -0.5147 0.779 -0.471 0.414 187 169 148 0 0
-1.6915 -0.1856 -0.4987 0.394 -0.704 0.591 180 159 139 0 0
-1.6837 -0.1788 -0.4958 0.430 -0.749 0.504 183 164 144 0 0
-1.6653 -0.1601 -0.4885 0.740 -0.120 0.662 190 173 155 0 0
-1.6648 -0.1559 -0.4872 0.717 0.194 0.669 189 171 152 0 0
-1.6690 -0.1376 -0.4825 0.664 -0.542 0.516 183 165 144 0 0
-1.6699 -0.1340 -0.4816 0.495 -0.355 0.793 186 168 148 0 0
-1.6577 -0.1257 -0.4779 0.605 -0.280 0.745 186 169 149 0 0
-1.6625 -0.1235 -0.4778 0.262 -0.341 0.903 189 171 152 0 0
-1.6555 -0.1131 -0.4741 0.518 -0.525 0.676 193 177 159 0 0
-1.6318 -0.0579 -0.4558 0.834 -0.484 0.266 196 179 161 0 0
-1.6311 -0.0498 -0.4534 0.982 0.082 0.172 178 160 140 0 0
-1.6309 -0.0458 -0.4523 0.941 -0.191 0.281 176 156 136 0 0
-1.6322 -0.0384 -0.4503 0.745 -0.345 0.571 178 159 140 0 0
-1.6309 -0.0340 -0.4489 0.785 -0.608 0.117 180 162 141 0 0
-1.6261 -0.0247 -0.4458 0.763 -0.405 0.503 183 165 144 0 0
-1.6327 0.1596 -0.3945 0.860 -0.300 0.412 194 177 161 0 0
-1.6318 0.1637 -0.3932 0.815 -0.511 0.273 194 178 162 0 0
-1.6386 0.2627 -0.3661 0.411 -0.348 0.842 191 174 156 0 0
-1.6418 0.2782 -0.3620 0.377 -0.193 0.906 200 184 168 0 0
-1.6179 0.3868 -0.3286 0.747 -0.149 0.648 199 182 164 0 0
-1.6191 0.3907 -0.3277 0.878 -0.063 0.475 198 181 165 0 0
-1.6194 0.3947 -0.3266 0.869 0.172 0.464 196 178 162 0 0
-1.6232 0.4185 -0.3203 0.650 -0.208 0.731 190 171 154 0 0
-1.5986 0.4856 -0.2985 0.463 -0.732 0.499 197 180 164 0 0
-0.8272 0.6645 -0.1600 0.990 0.048 0.131 133 96 49 0 0
-0.8316 0.6698 -0.1590 0.986 0.120 0.116 114 84 38 0 0
-0.8086 0.7068 -0.1460 0.913 -0.305 0.272 118 84 37 0 0
-0.8482 0.7867 -0.1279 0.978 0.148 0.149 125 103 36 0 0
-0.8351 0.7884 -0.1260 0.288 -0.888 0.358 135 112 44 0 0
-0.8114 0.7999 -0.1200 0.997 0.071 0.023 124 88 25 0 0
-0.8116 0.8106 -0.1170 0.670 -0.235 0.704 141 100 21 0 0
-0.7782 0.8178 -0.1112 0.350 -0.863 -0.364 160 116 18 0 0
-0.7655 0.8217 -0.1086 0.151 -0.920 -0.361 188 151 51 0 0
-0.7350 0.8413 -0.0996 0.377 -0.030 0.926 184 140 50 0 0
-0.7411 0.8497 -0.0979 0.412 -0.717 0.562 179 135 46 0 0
-0.7380 0.8519 -0.0970 0.391 -0.865 -0.313 177 133 45 0 0
-0.7210 0.8547 -0.0942 0.894 -0.272 -0.356 175 130 46 0 0
-0.7493 0.8688 -0.0935 0.619 -0.084 0.781 181 148 85 0 0
-0.7491 0.8714 -0.0927 0.612 0.285 0.737 188 161 127 0 0
-0.7587 0.8754 -0.0927 0.289 -0.260 0.922 187 165 139 0 0
-1.5481 1.0980 -0.1199 0.329 -0.685 0.651 189 170 153 0 0
-1.5483 1.1311 -0.1106 0.412 -0.558 0.720 198 179 163 0 0
-1.5465 1.1348 -0.1093 0.425 -0.472 0.772 194 177 161 0 0
-1.5333 1.1978 -0.0900 0.477 0.238 0.846 180 159 143 0 0
-1.5481 1.2139 -0.0872 0.977 -0.148 0.153 178 159 143 0 0
-1.5496 1.2185 -0.0860 0.799 -0.582 -0.154 189 170 156 0 0
-1.5383 1.2322 -0.0809 0.820 -0.254 0.513 186 166 152 0 0
-1.5427 1.2416 -0.0787 0.458 -0.203 0.865 185 166 152 0 0
-1.5472 1.2678 -0.0718 0.648 -0.134 0.750 202 185 172 0 0
-1.5479 1.2847 -0.0671 0.513 -0.004 0.858 192 174 159 0 0
-1.5599 1.3007 -0.0640 0.519 0.032 0.854 190 172 157 0 0
-1.5490 1.3060 -0.0613 0.369 -0.871 0.325 183 163 147 0 0
-1.5373 1.3151 -0.0574 0.403 -0.651 0.643 173 151 135 0 0
-1.5432 1.3377 -0.0516 0.877 -0.049 0.479 176 157 142 0 0
-1.5405 1.3411 -0.0504 0.732 -0.550 0.404 174 154 137 0 0
-1.5386 1.3447 -0.0491 0.588 -0.800 0.118 177 158 142 0 0
-1.5326 1.3512 -0.0466 0.614 -0.613 0.498 180 161 145 0 0
-1.5252 1.3572 -0.0441 0.605 0.216 0.766 175 155 140 0 0
-1.5290 1.3667 -0.0418 0.549 -0.009 0.836 195 179 167 0 0
-1.5321 1.3761 -0.0396 0.710 -0.479 0.516 196 180 167 0 0
-1.5264 1.3783 -0.0382 0.534 -0.491 0.688 193 177 165 0 0
-1.5227 1.4105 -0.0288 0.429 -0.389 0.816 192 176 164 0 0
-1.5204 1.4556 -0.0158 0.585 0.449 0.676 190 173 159 0 0
-1.5227 1.4607 -0.0146 0.745 -0.563 0.358 189 172 157 0 0
-1.4750 1.5211 0.0079 0.391 -0.547 0.740 185 167 154 0 0
-1.4739 1.5289 0.0102 0.516 0.053 0.855 187 169 158 0 0
-1.4988 1.5767 0.0209 0.912 -0.406 0.053 178 159 144 0 0
-1.4901 1.6565 0.0444 0.209 -0.410 0.888 184 167 153 0 0
-1.4866 1.7010 0.0574 0.453 -0.157 0.878 187 171 156 0 0
-1.4842 1.7040 0.0585 0.494 -0.243 0.835 189 175 160 0 0
-1.4714 1.7353 0.0688 0.437 -0.311 0.844 189 173 160 0 0
-1.4791 1.7813 0.0809 0.628 0.341 0.699 188 172 158 0 0
-1.4901 1.8209 0.0908 0.217 -0.308 0.926 190 176 163 0 0
-1.4821 1.8504 0.1001 0.267 -0.201 0.943 188 174 160 0 0
-1.4874 1.8662 0.1039 0.336 -0.125 0.933 187 171 157 0 0
-1.4892 1.8714 0.1052 0.443 0.092 0.892 188 173 161 0 0
-1.5013 1.8998 0.1118 0.311 -0.139 0.940 182 164 150 0 0
-1.4845 1.9326 0.1230 0.868 -0.444 0.223 176 159 143 0 0
-1.4740 2.0801 0.1659 0.528 -0.121 0.841 187 172 159 0 0
-1.4613 2.1143 0.1770 0.355 -0.232 0.906 178 162 149 0 0
-1.4614 2.1187 0.1782 0.417 -0.141 0.898 181 165 150 0 0
-1.4590 2.1213 0.1792 0.350 -0.101 0.931 185 169 155 0 0
-1.6981 -0.3548 -0.5516 0.434 -0.766 0.474 181 165 141 0 0
-1.6980 -0.3350 -0.5460 0.415 -0.715 0.563 191 174 155 0 0
-1.6903 -0.3276 -0.5430 0.394 -0.653 0.647 190 173 153 0 0
-1.6871 -0.2550 -0.5222 0.919 -0.339 0.199 188 170 152 0 0
-1.6880 -0.2514 -0.5213 0.912 0.059 0.407 186 169 148 0 0
-1.6801 -0.1807 -0.5004 0.394 -0.704 0.591 189 172 154 0 0
-1.6737 -0.1744 -0.4979 0.430 -0.749 0.504 190 173 153 0 0
-1.6677 -0.1563 -0.4921 0.518 -0.431 0.739 184 165 142 0 0
-1.6609 -0.1499 -0.4895 0.513 -0.073 0.855 181 161 138 0 0
-1.6605 -0.1458 -0.4883 0.529 0.163 0.833 179 158 138 0 0
-1.6626 -0.1426 -0.4876 0.529 0.163 0.833 179 160 138 0 0
-1.6651 -0.1395 -0.4870 0.587 -0.290 0.756 185 165 145 0 0
-1.6523 -0.1310 -0.4832 0.432 -0.674 0.599 187 169 150 0 0
-1.6546 -0.1279 -0.4826 0.290 -0.540 0.790 190 172 154 0 0
-1.6523 -0.1232 -0.4809 0.246 -0.427 0.870 192 176 157 0 0
-1.6478 -0.1137 -0.4777 0.198 -0.364 0.910 191 174 156 0 0
-1.6425 -0.1079 -0.4755 0.245 -0.213 0.946 188 171 152 0 0
-1.6266 -0.0555 -0.4589 0.828 -0.442 0.344 195 180 162 0 0
-1.6306 -0.0529 -0.4586 0.978 0.030 0.208 187 169 152 0 0
-1.6300 -0.0488 -0.4574 0.953 -0.148 0.264 178 160 140 0 0
-1.6310 -0.0451 -0.4564 0.907 -0.267 0.326 175 154 134 0 0
-1.6257 -0.0199 -0.4487 0.741 -0.239 0.628 181 164 144 0 0
-1.6835 0.0147 -0.4457 0.464 -0.090 0.881 189 171 150 0 0
-1.6390 0.1030 -0.4156 0.783 -0.228 0.579 178 159 140 0 0
-1.6154 0.1247 -0.4067 0.939 -0.185 0.290 175 156 133 0 0
-1.6183 0.1319 -0.4050 0.697 -0.048 0.716 173 153 133 0 0
-1.6206 0.1353 -0.4043 0.639 -0.123 0.760 172 151 132 0 0
-1.6213 0.1391 -0.4033 0.560 0.159 0.813 172 152 131 0 0
-1.6203 0.3190 -0.3525 0.248 0.182 0.951 197 179 163 0 0
-1.6217 0.3268 -0.3504 0.288 -0.506 0.813 198 181 165 0 0
-1.6284 0.3824 -0.3355 0.487 -0.028 0.873 185 166 147 0 0
-1.6193 0.4159 -0.3250 0.767 -0.160 0.622 181 160 140 0 0
-1.6193 0.4199 -0.3239 0.751 -0.288 0.594 180 158 138 0 0
-1.6217 0.4237 -0.3231 0.758 0.244 0.604 183 162 141 0 0
-1.5768 0.4844 -0.3007 0.969 -0.080 0.233 205 188 173 0 0
-1.5931 0.4951 -0.2996 0.762 0.333 0.555 196 176 160 0 0
-0.8109 0.6943 -0.1526 0.813 -0.581 0.042 126 95 34 0 0
-0.8093 0.6969 -0.1517 0.881 -0.463 0.097 148 116 55 0 0
-0.8080 0.6995 -0.1508 0.870 -0.463 0.168 157 126 62 0 0
-0.8078 0.7022 -0.1500 0.992 0.093 0.080 137 109 51 0 0
-0.8304 0.7053 -0.1518 0.804 -0.295 0.516 110 82 36 0 0
-0.8083 0.7075 -0.1486 0.978 0.174 -0.112 104 76 35 0 0
-0.8119 0.7447 -0.1385 0.440 -0.715 0.543 207 194 105 0 0
-0.8456 0.7763 -0.1335 0.986 -0.011 -0.168 163 143 72 0 0
-0.8422 0.7815 -0.1316 0.829 0.542 -0.137 165 143 67 0 0
-0.8500 0.7876 -0.1308 0.801 0.584 -0.132 172 149 70 0 0
-0.8167 0.7957 -0.1247 0.200 -0.967 -0.155 158 125 45 0 0
-0.8121 0.8007 -0.1227 0.943 -0.333 0.018 126 89 24 0 0
-0.8120 0.8114 -0.1197 0.726 0.106 0.680 139 97 21 0 0
-0.7373 0.8525 -0.0994 0.372 -0.910 0.185 176 132 45 0 0
-0.7215 0.8555 -0.0968 0.913 -0.243 -0.328 175 131 49 0 0
-0.7484 0.8721 -0.0952 0.500 -0.126 0.857 192 165 132 0 0
-0.7511 0.8750 -0.0947 0.231 -0.484 0.844 194 172 146 0 0
-0.7541 0.8781 -0.0942 0.270 -0.250 0.930 197 176 152 0 0
-1.5531 1.0920 -0.1265 0.399 0.122 0.909 192 173 155 0 0
-1.5195 1.1876 -0.0957 0.440 0.363 0.821 190 172 154 0 0
-1.5264 1.1975 -0.0937 0.479 0.244 0.843 191 173 156 0 0
-1.5329 1.3401 -0.0542 0.481 -0.339 0.808 187 167 153 0 0
-1.5275 1.3510 -0.0505 0.446 -0.549 0.707 178 159 143 0 0
-1.4711 1.5210 0.0040 0.516 -0.377 0.769 182 163 149 0 0
-1.4795 1.6991 0.0533 0.591 0.084 0.802 194 178 165 0 0
-1.4790 1.7030 0.0545 0.623 -0.270 0.734 197 183 169 0 0
-1.4643 1.7166 0.0600 0.596 -0.090 0.798 198 184 173 0 0
-1.4652 1.7212 0.0612 0.596 -0.090 0.798 193 179 168 0 0
-1.4884 1.8897 0.1061 0.311 -0.139 0.940 181 165 149 0 0
-1.4897 1.8947 0.1073 0.273 -0.221 0.936 180 164 148 0 0
-1.4201 1.8792 0.1110 0.368 -0.507 0.780 173 156 140 0 0
-1.4820 1.9328 0.1190 0.824 -0.161 0.544 172 155 139 0 0
-1.4688 2.0784 0.1616 0.459 -0.311 0.832 189 173 162 0 0
-1.4714 2.0845 0.1630 0.585 0.245 0.773 188 173 160 0 0
-1.4217 2.0719 0.1652 0.398 -0.108 0.911 180 164 150 0 0
-1.4289 2.0810 0.1669 0.300 -0.291 0.908 181 165 152 0 0
-1.4278 2.0845 0.1681 0.568 0.047 0.822 177 160 147 0 0
-1.4518 2.1095 0.1723 0.461 -0.366 0.809 179 162 148 0 0
-1.4509 2.1132 0.1735 0.461 -0.366 0.809 180 164 149 0 0
-1.4459 2.1140 0.1743 0.351 -0.117 0.929 182 166 153 0 0
-1.6925 -0.3438 -0.5523 0.193 -0.217 0.957 186 168 147 0 0
-1.6854 -0.3289 -0.5473 0.394 -0.653 0.647 189 172 152 0 0
-1.6785 -0.3219 -0.5445 0.394 -0.653 0.647 189 171 152 0 0
-1.6767 -0.3172 -0.5429 0.377 -0.512 0.772 188 171 151 0 0
-1.6763 -0.3092 -0.5406 0.360 0.309 0.880 187 169 149 0 0
-1.6805 -0.3031 -0.5394 0.396 0.098 0.913 177 156 135 0 0
-1.6731 -0.2408 -0.5210 0.862 -0.161 0.480 189 171 153 0 0
-1.6805 -0.2398 -0.5216 0.572 -0.777 0.265 187 169 149 0 0
-1.6718 -0.2324 -0.5184 0.579 -0.803 0.140 184 166 147 0 0
-1.6636 -0.2252 -0.5155 0.595 -0.766 0.243 186 169 148 0 0
-1.6505 -0.2161 -0.5113 0.610 -0.772 0.180 187 170 151 0 0
-1.6710 -0.1886 -0.5060 0.283 -0.353 0.892 195 179 160 0 0
-1.6653 -0.1825 -0.5036 0.355 -0.389 0.850 199 182 162 0 0
-1.6680 -0.1795 -0.5031 0.323 -0.479 0.817 197 182 162 0 0
-1.6507 -0.1376 -0.4892 0.299 -0.454 0.839 186 169 149 0 0
-1.6466 -0.1323 -0.4872 0.275 -0.584 0.764 192 175 158 0 0
-1.6377 -0.1212 -0.4831 0.173 -0.388 0.905 198 183 165 0 0
-1.6349 -0.1124 -0.4803 0.171 -0.318 0.933 197 182 161 0 0
-1.6364 -0.1012 -0.4773 0.202 -0.346 0.916 186 168 147 0 0
-1.6279 -0.0513 -0.4622 0.851 -0.211 0.481 182 164 143 0 0
-1.6291 -0.0477 -0.4613 0.705 -0.242 0.667 179 160 141 0 0
-1.6267 -0.0391 -0.4586 0.932 -0.276 0.236 178 159 139 0 0
-1.6258 -0.0349 -0.4573 0.932 -0.276 0.236 179 161 141 0 0
-1.6236 -0.0303 -0.4558 0.989 0.043 -0.144 176 157 137 0 0
-1.6207 -0.0215 -0.4529 0.891 -0.436 0.127 172 151 130 0 0
-1.6199 -0.0174 -0.4517 0.778 -0.262 0.571 173 153 133 0 0
-1.5960 0.0133 -0.4402 0.572 -0.655 0.493 187 169 149 0 0
-1.6242 0.0443 -0.4348 0.688 -0.632 0.356 193 177 158 0 0
-1.6383 0.1040 -0.4196 0.997 0.050 0.051 182 165 146 0 0
-1.6140 0.1259 -0.4106 0.939 -0.185 0.290 175 156 134 0 0
-1.6166 0.1332 -0.4088 0.851 0.019 0.526 171 152 131 0 0
-1.6159 0.1373 -0.4076 0.828 -0.272 0.491 169 148 128 0 0
-1.6216 0.1677 -0.3997 0.677 -0.542 0.498 184 167 150 0 0
-1.6239 0.1712 -0.3990 0.672 -0.272 0.689 185 166 149 0 0
-1.5848 0.2034 -0.3853 0.777 -0.579 0.246 194 178 161 0 0
-1.5824 0.2078 -0.3837 0.699 -0.543 0.466 193 177 160 0 0
-1.6057 0.3342 -0.3509 0.182 -0.426 0.886 196 179 161 0 0
-1.6241 0.3839 -0.3390 0.598 -0.254 0.760 189 168 150 0 0
-1.6251 0.3878 -0.3380 0.384 0.064 0.921 190 171 154 0 0
-1.6275 0.3915 -0.3373 0.384 0.064 0.921 190 171 153 0 0
-1.6137 0.4175 -0.3283 0.727 -0.278 0.627 183 162 143 0 0
-1.6135 0.4215 -0.3271 0.720 -0.226 0.656 184 163 142 0 0
-1.6195 0.4249 -0.3269 0.761 0.307 0.571 185 164 143 0 0
-1.5776 0.4734 -0.3083 0.730 -0.273 0.626 202 186 170 0 0
-1.5682 0.4981 -0.3002 0.394 -0.643 0.657 198 180 164 0 0
-0.8253 0.6659 -0.1652 0.821 -0.287 0.494 158 117 45 0 0
-0.8103 0.6950 -0.1552 0.795 -0.604 0.050 149 118 56 0 0
-0.8089 0.6976 -0.1543 0.861 -0.499 0.100 146 116 53 0 0
-0.8073 0.7002 -0.1534 0.881 -0.463 0.097 140 112 51 0 0
-0.8076 0.7029 -0.1527 0.992 0.093 0.080 125 98 48 0 0
-0.8289 0.7060 -0.1543 0.834 -0.294 0.467 107 81 38 0 0
-0.8091 0.7082 -0.1513 0.937 0.325 -0.131 103 77 41 0 0
-0.8087 0.7108 -0.1506 0.955 0.136 -0.263 101 76 37 0 0
-0.8077 0.7134 -0.1497 0.972 -0.194 0.135 102 77 38 0 0
-0.8039 0.7160 -0.1485 0.673 0.398 0.623 100 75 35 0 0
-0.8078 0.7399 -0.1423 0.484 -0.614 0.624 202 186 92 0 0
-0.8139 0.7482 -0.1406 0.979 -0.154 0.132 208 195 107 0 0
-0.8358 0.7845 -0.1330 0.327 -0.075 0.942 194 169 80 0 0
-0.8370 0.7874 -0.1323 0.327 -0.075 0.942 194 169 79 0 0
-0.8209 0.7942 -0.1285 0.412 -0.873 -0.262 189 158 69 0 0
-0.8107 0.8147 -0.1215 0.799 0.100 0.593 156 111 23 0 0
-0.7350 0.8530 -0.1018 0.372 -0.910 0.185 178 134 47 0 0
-0.7282 0.8546 -0.1005 0.495 -0.718 -0.489 178 133 45 0 0
-0.7433 0.8746 -0.0966 0.507 -0.444 0.739 197 178 152 0 0
-0.7423 0.8771 -0.0958 0.507 -0.444 0.739 199 177 154 0 0
-1.5304 1.1381 -0.1153 0.517 -0.621 0.590 191 174 158 0 0
-1.5124 1.1872 -0.0993 0.440 0.363 0.821 192 174 160 0 0
-1.4851 1.6531 0.0353 0.628 -0.705 0.330 185 167 154 0 0
-1.4678 1.6866 0.0468 0.508 -0.069 0.858 190 173 159 0 0
-1.4078 1.8694 0.1055 0.424 -0.216 0.879 175 158 143 0 0
-1.4740 1.9255 0.1135 0.646 0.143 0.750 174 157 141 0 0
-1.4812 1.9384 0.1162 0.693 0.215 0.689 166 148 133 0 0
-1.4321 1.9338 0.1207 0.617 0.381 0.688 174 157 141 0 0
-1.4324 1.9423 0.1231 0.838 0.527 -0.141 168 150 135 0 0
-1.4344 1.9519 0.1256 0.817 0.396 0.419 160 141 126 0 0
-1.4380 1.9584 0.1270 0.869 0.385 0.310 161 139 125 0 0
-1.4625 2.0760 0.1572 0.459 -0.311 0.832 188 172 159 0 0
-1.4179 2.0752 0.1623 0.541 0.033 0.840 180 163 149 0 0
-1.4239 2.0878 0.1651 0.569 0.089 0.818 175 159 143 0 0
-1.4412 2.1082 0.1689 0.281 -0.466 0.839 177 160 144 0 0
-1.4355 2.1085 0.1696 0.353 -0.114 0.929 180 162 148 0 0
-1.4368 2.1137 0.1709 0.347 -0.149 0.926 181 165 152 0 0
-1.6865 -0.3485 -0.5573 0.360 -0.536 0.763 188 171 152 0 0
-1.6857 -0.3442 -0.5560 0.207 -0.284 0.936 188 171 151 0 0
-1.6855 -0.3401 -0.5549 0.206 -0.279 0.938 189 172 153 0 0
-1.6844 -0.3357 -0.5535 0.280 -0.548 0.788 190 173 154 0 0
-1.6728 -0.3228 -0.5484 0.308 -0.527 0.792 192 175 155 0 0
-1.6684 -0.3169 -0.5463 0.308 -0.527 0.792 188 171 153 0 0
-1.6616 -0.3101 -0.5435 0.396 -0.738 0.546 189 172 152 0 0
-1.6669 -0.2377 -0.5238 0.908 -0.402 0.116 189 170 151 0 0
-1.6744 -0.2367 -0.5244 0.675 -0.738 -0.001 184 166 145 0 0
-1.6631 -0.2283 -0.5207 0.604 -0.796 -0.018 186 168 149 0 0
-1.6507 -0.2195 -0.5167 0.694 -0.714 0.099 188 172 151 0 0
-1.6481 -0.1754 -0.5039 0.386 -0.001 0.922 197 180 161 0 0
-1.6556 -0.1585 -0.5001 0.398 -0.459 0.795 184 164 143 0 0
-1.6537 -0.1538 -0.4985 0.441 -0.383 0.811 184 165 144 0 0
-1.6539 -0.1500 -0.4975 0.347 -0.601 0.720 183 164 145 0 0
-1.6304 -0.1258 -0.4878 0.245 -0.557 0.794 189 171 153 0 0
-1.6245 -0.1198 -0.4855 0.245 -0.557 0.794 191 174 155 0 0
-1.6226 -0.0958 -0.4784 0.238 -0.311 0.920 198 182 165 0 0
-1.6205 -0.0912 -0.4769 0.324 -0.569 0.756 195 178 160 0 0
-1.6177 -0.0551 -0.4664 0.735 -0.446 0.511 184 167 148 0 0
-1.6260 -0.0539 -0.4670 0.839 -0.444 0.315 180 161 141 0 0
-1.6279 -0.0506 -0.4663 0.837 -0.039 0.546 178 158 139 0 0
-1.6277 -0.0466 -0.4652 0.818 -0.027 0.574 177 158 138 0 0
-1.6283 -0.0428 -0.4642 0.818 -0.027 0.574 180 161 141 0 0
-1.6280 -0.0388 -0.4630 0.952 -0.278 0.130 185 167 149 0 0
-1.6248 0.0725 -0.4313 0.877 0.171 -0.449 190 174 158 0 0
-1.6125 0.1349 -0.4122 0.669 -0.249 0.700 176 158 137 0 0
-1.6161 0.1737 -0.4017 0.920 0.071 -0.385 189 171 153 0 0
-1.5928 0.1868 -0.3952 0.723 -0.542 0.430 195 179 163 0 0
-1.6143 0.2178 -0.3891 0.322 0.045 0.946 195 178 162 0 0
-1.6077 0.4272 -0.3293 0.482 0.152 0.863 188 169 148 0 0
-1.6039 0.4518 -0.3219 0.336 -0.368 0.867 202 185 169 0 0
-1.5736 0.4747 -0.3118 0.421 -0.349 0.837 199 181 164 0 0
-1.5728 0.4787 -0.3105 0.433 -0.055 0.900 203 185 169 0 0
-1.5681 0.4831 -0.3087 0.640 0.120 0.759 203 186 170 0 0
-1.5748 0.4865 -0.3086 0.988 -0.151 0.010 202 185 169 0 0
-1.5709 0.4948 -0.3058 0.500 -0.857 0.124 200 182 165 0 0
-1.5646 0.4993 -0.3038 0.413 -0.755 0.509 198 181 162 0 0
-0.8781 0.6498 -0.1789 0.562 -0.441 0.700 191 157 77 0 0
-0.8780 0.6581 -0.1766 0.343 -0.937 -0.059 189 154 72 0 0
-0.8226 0.6666 -0.1675 0.752 -0.265 0.603 171 131 52 0 0
-0.8517 0.6746 -0.1688 0.813 -0.569 -0.124 123 93 37 0 0
-0.8484 0.6800 -0.1668 0.964 -0.154 0.216 125 95 40 0 0
-0.8083 0.7195 -0.1509 0.825 0.519 -0.225 96 72 34 0 0
-0.8011 0.7298 -0.1472 0.741 -0.640 -0.202 110 87 45 0 0
-0.7987 0.7323 -0.1462 0.882 -0.408 0.238 113 93 48 0 0
-0.8298 0.7821 -0.1358 0.477 -0.079 0.875 193 168 78 0 0
-0.8377 0.7855 -0.1359 0.851 -0.278 0.446 193 167 76 0 0
-0.8384 0.7882 -0.1352 0.752 -0.575 0.323 192 166 75 0 0
-0.7389 0.8671 -0.1010 0.755 0.620 0.212 183 148 71 0 0
-0.7439 0.8704 -0.1007 0.610 -0.782 -0.127 181 147 82 0 0
-1.5249 1.1095 -0.1270 0.625 0.375 0.685 187 169 151 0 0
-1.5051 1.1868 -0.1029 0.573 0.249 0.781 191 173 159 0 0
-1.5101 1.1920 -0.1020 0.383 0.343 0.858 194 176 162 0 0
-1.5201 1.3100 -0.0699 0.377 -0.560 0.738 202 186 173 0 0
-1.5086 1.3602 -0.0544 0.526 -0.250 0.813 192 175 163 0 0
-1.5081 1.3724 -0.0509 0.466 -0.247 0.850 194 177 167 0 0
-1.4954 1.3888 -0.0447 0.376 -0.321 0.869 197 183 169 0 0
-1.4952 1.3929 -0.0436 0.408 -0.148 0.901 200 184 171 0 0
-1.4761 1.4191 -0.0339 0.691 -0.447 0.568 194 178 166 0 0
-1.4955 1.4426 -0.0296 0.661 0.343 0.667 183 165 153 0 0
-1.4942 1.4462 -0.0284 0.697 0.372 0.613 181 163 150 0 0
-1.4987 1.4520 -0.0273 0.744 0.102 0.660 187 171 157 0 0
-1.4725 1.6073 0.0196 0.710 -0.268 0.651 186 170 155 0 0
-1.4739 1.6120 0.0207 0.728 -0.559 0.397 186 169 156 0 0
-1.4504 1.6550 0.0357 0.039 -0.740 0.672 186 168 154 0 0
-1.4588 1.7963 0.0745 0.603 -0.035 0.797 185 170 156 0 0
-1.4658 1.8842 0.0984 0.300 -0.253 0.920 179 162 147 0 0
-1.4010 1.8671 0.1014 0.479 -0.158 0.864 177 159 146 0 0
-1.3969 1.8687 0.1023 0.520 -0.110 0.847 178 160 146 0 0
-1.4667 1.9144 0.1068 0.358 -0.139 0.923 178 160 146 0 0
-1.4689 1.9242 0.1093 0.646 0.143 0.750 174 157 141 0 0
-1.4328 1.9401 0.1181 0.645 0.381 0.663 176 159 144 0 0
-1.4252 1.9396 0.1189 0.600 -0.204 0.773 175 157 142 0 0
-1.4293 1.9463 0.1203 0.750 -0.385 0.538 172 155 139 0 0
-1.4327 1.9526 0.1217 0.817 0.396 0.419 169 150 135 0 0
-1.4369 1.9594 0.1231 0.792 0.459 0.403 173 154 137 0 0
-1.4834 2.0143 0.1330 0.311 -0.118 0.943 180 163 147 0 0
-1.6735 -0.3343 -0.5562 0.423 -0.420 0.803 189 172 152 0 0
-1.6718 -0.3296 -0.5547 0.423 -0.420 0.803 192 175 155 0 0
-1.6594 -0.2694 -0.5362 0.411 -0.693 0.593 182 164 143 0 0
-1.6701 -0.2502 -0.5321 0.293 -0.384 0.876 195 178 159 0 0
-1.6690 -0.2339 -0.5274 0.329 -0.535 0.778 186 168 148 0 0
-1.6548 -0.2244 -0.5229 0.473 -0.696 0.540 191 174 155 0 0
-1.6468 -0.2173 -0.5200 0.551 -0.761 0.342 195 178 160 0 0
-1.6473 -0.2058 -0.5168 0.293 -0.282 0.913 182 166 144 0 0
-1.6481 -0.2022 -0.5159 0.230 -0.168 0.959 179 160 138 0 0
-1.6471 -0.1547 -0.5024 0.376 -0.143 0.915 184 167 146 0 0
-1.6465 -0.1505 -0.5011 0.417 -0.529 0.739 188 170 151 0 0
-1.6141 -0.0960 -0.4818 0.271 0.101 0.957 200 185 167 0 0
-1.6125 -0.0644 -0.4727 0.511 -0.516 0.687 195 180 161 0 0
-1.6096 -0.0595 -0.4710 0.492 -0.506 0.708 194 179 160 0 0
-1.6179 -0.0545 -0.4706 0.677 -0.215 0.704 186 168 147 0 0
-1.6252 -0.0529 -0.4710 0.653 -0.338 0.678 179 159 138 0 0
-1.6267 -0.0495 -0.4703 0.657 -0.132 0.742 173 152 132 0 0
-1.6275 -0.0379 -0.4671 0.937 0.015 0.349 185 167 149 0 0
-1.6076 0.1369 -0.4154 0.642 -0.205 0.738 175 156 135 0 0
-1.6062 0.2203 -0.3917 0.610 0.049 0.791 184 164 147 0 0
-1.5780 0.3520 -0.3512 0.389 0.448 0.805 192 174 156 0 0
-1.5827 0.3553 -0.3509 0.403 0.449 0.798 190 171 154 0 0
-1.5837 0.3591 -0.3499 0.518 0.385 0.764 186 167 149 0 0
-1.5942 0.4537 -0.3246 0.306 -0.470 0.828 198 179 162 0 0
-1.5581 0.5008 -0.3069 0.413 -0.755 0.509 194 174 155 0 0
-1.5461 0.5057 -0.3040 0.388 -0.714 0.583 194 175 155 0 0
-1.5462 0.5096 -0.3029 0.382 -0.354 0.854 194 174 153 0 0
-0.8487 0.6889 -0.1673 0.680 -0.620 -0.391 157 126 56 0 0
-0.8445 0.6916 -0.1661 0.615 -0.758 -0.217 155 125 59 0 0
-0.8115 0.7123 -0.1562 0.944 -0.183 -0.273 97 72 36 0 0
-0.8121 0.7150 -0.1555 0.934 -0.141 -0.328 95 72 32 0 0
-0.8056 0.7201 -0.1533 0.699 0.355 -0.620 95 72 36 0 0
-0.8530 0.7792 -0.1424 0.479 -0.158 -0.863 185 157 66 0 0
-0.8248 0.7879 -0.1365 0.888 -0.036 0.459 190 161 65 0 0
-0.7726 0.8255 -0.1196 0.230 -0.963 -0.143 179 135 41 0 0
-0.7659 0.8273 -0.1182 0.208 -0.976 -0.065 180 136 46 0 0
-0.7391 0.8679 -0.1035 0.806 0.580 0.121 183 148 72 0 0
-0.7430 0.8710 -0.1031 0.746 -0.568 -0.347 181 146 82 0 0
-1.5175 1.1542 -0.1179 0.690 -0.297 0.660 183 163 146 0 0
-1.5113 1.1610 -0.1152 0.527 -0.699 0.483 190 171 155 0 0
-1.4890 1.1680 -0.1105 0.474 -0.877 0.077 187 168 152 0 0
-1.5001 1.1868 -0.1066 0.629 0.217 0.747 188 171 155 0 0
-1.4988 1.1906 -0.1053 0.483 0.448 0.752 191 173 159 0 0
-1.5098 1.2465 -0.0909 0.445 -0.018 0.895 200 184 171 0 0
-1.5102 1.2508 -0.0898 0.355 -0.223 0.908 199 183 169 0 0
-1.5111 1.3045 -0.0748 0.336 -0.371 0.866 201 185 170 0 0
-1.5066 1.3073 -0.0734 0.449 -0.506 0.737 201 187 175 0 0
-1.5032 1.3186 -0.0698 0.665 -0.148 0.732 202 187 175 0 0
-1.5036 1.3229 -0.0687 0.668 -0.120 0.734 199 183 169 0 0
-1.5047 1.3438 -0.0629 0.792 -0.272 0.547 190 172 158 0 0
-1.5040 1.3477 -0.0617 0.716 -0.329 0.615 193 175 160 0 0
-1.5055 1.3564 -0.0594 0.737 -0.604 0.304 195 178 164 0 0
-1.5033 1.3599 -0.0582 0.784 -0.614 0.092 191 174 161 0 0
-1.4980 1.3664 -0.0557 0.781 -0.498 0.377 188 170 157 0 0
-1.4792 1.3888 -0.0471 0.801 0.497 0.334 195 180 167 0 0
-1.4827 1.3982 -0.0449 0.752 -0.312 0.580 195 179 166 0 0
-1.4768 1.4126 -0.0401 0.628 -0.503 0.594 191 174 163 0 0
-1.4909 1.4465 -0.0323 0.733 0.157 0.662 177 158 145 0 0
-1.4929 1.4513 -0.0312 0.709 -0.112 0.697 183 166 152 0 0
-1.4503 1.6606 0.0330 0.700 0.054 0.712 183 166 150 0 0
-1.4515 1.7981 0.0716 0.650 -0.113 0.752 180 163 148 0 0
-1.4453 1.8405 0.0843 0.419 -0.081 0.904 180 162 148 0 0
-1.3882 1.8652 0.0982 0.570 0.097 0.816 179 162 147 0 0
-1.4520 1.9073 0.1023 0.512 0.186 0.839 180 162 148 0 0
-1.4568 1.9144 0.1037 0.605 0.289 0.742 178 160 145 0 0
-1.4621 1.9218 0.1051 0.605 0.289 0.742 171 154 137 0 0
-1.4650 1.9278 0.1064 0.653 0.351 0.671 169 150 135 0 0
-1.4207 1.9302 0.1125 0.617 0.381 0.688 181 164 148 0 0
-1.4278 1.9387 0.1141 0.645 0.381 0.663 182 164 149 0 0
-1.4276 1.9428 0.1152 0.475 0.021 0.880 182 165 149 0 0
-1.4307 1.9488 0.1166 0.594 0.014 0.805 181 164 148 0 0
-1.4325 1.9542 0.1178 0.594 0.014 0.805 181 164 147 0 0
-1.6667 -0.3346 -0.5599 0.742 -0.558 0.373 191 174 154 0 0
-1.6631 -0.3291 -0.5579 0.998 -0.042 -0.046 185 167 147 0 0
-1.6566 -0.3223 -0.5551 0.915 -0.360 -0.181 184 166 146 0 0
-1.6553 -0.3179 -0.5537 0.855 -0.516 0.043 186 169 148 0 0
-1.6528 -0.3129 -0.5520 0.839 -0.545 -0.013 181 163 143 0 0
-1.6457 -0.3020 -0.5481 0.937 -0.186 0.296 184 166 145 0 0
-1.6605 -0.2967 -0.5484 0.641 -0.030 0.767 190 173 154 0 0
-1.6474 -0.2638 -0.5375 0.320 -0.597 0.736 178 159 137 0 0
-1.6466 -0.2205 -0.5252 0.355 -0.599 0.718 191 174 156 0 0
-1.6354 -0.2122 -0.5215 0.430 -0.638 0.639 193 176 158 0 0
-1.6302 -0.2063 -0.5192 0.547 -0.626 0.556 197 182 164 0 0
-1.6364 -0.2009 -0.5185 0.328 -0.443 0.834 192 174 157 0 0
-1.6320 -0.1485 -0.5032 0.408 -0.497 0.766 192 175 157 0 0
-1.6298 -0.1438 -0.5016 0.342 -0.420 0.840 190 173 155 0 0
-1.6002 -0.0867 -0.4818 0.714 -0.669 0.209 196 180 161 0 0
-1.5967 -0.0778 -0.4789 0.763 -0.399 0.508 197 181 164 0 0
-1.6086 -0.0624 -0.4760 0.763 -0.334 0.553 196 180 160 0 0
-1.6260 -0.0368 -0.4710 0.937 0.015 0.349 180 162 141 0 0
-1.6228 0.0944 -0.4336 0.964 -0.265 -0.031 181 164 144 0 0
-1.6211 0.0988 -0.4322 0.827 0.328 0.456 183 166 148 0 0
-1.5903 0.3074 -0.3696 0.437 -0.532 0.725 192 175 157 0 0
-1.5676 0.3505 -0.3547 0.417 0.482 0.771 191 173 155 0 0
-1.5726 0.3537 -0.3544 0.445 0.592 0.672 193 176 158 0 0
-1.5705 0.4173 -0.3362 0.236 -0.036 0.971 197 180 164 0 0
-1.5882 0.4472 -0.3300 0.259 -0.203 0.944 196 177 162 0 0
-1.5777 0.4603 -0.3250 0.241 -0.444 0.863 190 171 153 0 0
-1.5644 0.4893 -0.3152 0.435 -0.219 0.873 183 158 137 0 0
-1.5688 0.4969 -0.3136 0.842 0.089 0.533 188 166 145 0 0
-1.5693 0.5009 -0.3126 0.894 0.141 0.425 191 169 149 0 0
-1.5448 0.5067 -0.3079 0.672 -0.418 0.612 192 173 153 0 0
-1.5450 0.5107 -0.3068 0.399 -0.588 0.704 194 174 154 0 0
-1.5376 0.5152 -0.3046 0.353 -0.745 0.566 194 175 155 0 0
-1.5485 0.5817 -0.2872 0.754 0.165 0.636 193 174 150 0 0
-1.5501 0.5856 -0.2863 0.754 0.165 0.636 192 173 149 0 0
-1.5518 0.5896 -0.2854 0.755 0.131 0.642 194 174 150 0 0
-0.8624 0.6324 -0.1878 0.659 -0.749 0.061 185 161 126 0 0
-0.8562 0.6380 -0.1855 0.639 -0.765 0.085 189 158 98 0 0
-0.8427 0.6518 -0.1800 0.676 -0.681 0.283 192 158 79 0 0
-0.8595 0.6679 -0.1775 0.725 -0.688 0.012 187 153 69 0 0
-0.8523 0.6788 -0.1736 0.813 -0.517 0.268 172 139 61 0 0
-0.8509 0.6842 -0.1719 0.765 -0.316 0.562 166 135 60 0 0
-0.8443 0.6923 -0.1688 0.621 -0.784 -0.008 149 118 48 0 0
-0.8016 0.7259 -0.1540 0.727 0.686 0.024 104 80 38 0 0
-0.8269 0.7538 -0.1493 0.611 0.612 -0.503 185 157 70 0 0
-0.8297 0.7566 -0.1488 0.594 0.630 -0.500 186 159 70 0 0
-0.7451 0.8721 -0.1058 0.634 -0.585 -0.505 182 149 82 0 0
-1.5189 1.1108 -0.1346 0.641 0.186 0.745 179 159 137 0 0
-1.5236 1.1282 -0.1303 0.910 -0.050 0.411 180 160 141 0 0
-1.5185 1.1394 -0.1265 0.718 -0.617 0.322 180 159 140 0 0
-1.5159 1.1429 -0.1252 0.729 -0.583 0.358 175 153 134 0 0
-1.5170 1.1472 -0.1241 0.714 -0.625 0.315 172 150 132 0 0
-1.5157 1.1510 -0.1229 0.774 -0.322 0.544 175 153 136 0 0
-1.5096 1.1619 -0.1191 0.491 -0.608 0.624 186 166 146 0 0
-1.4816 1.1715 -0.1129 0.808 -0.559 -0.185 185 164 147 0 0
-1.4954 1.2767 -0.0850 0.312 -0.134 0.941 203 187 174 0 0
-1.4979 1.3020 -0.0782 0.433 0.083 0.897 201 185 170 0 0
-1.5002 1.3068 -0.0771 0.429 0.049 0.902 200 184 171 0 0
-1.4763 1.3811 -0.0532 0.444 0.038 0.895 195 181 168 0 0
-1.4754 1.3849 -0.0521 0.581 -0.043 0.813 194 179 167 0 0
-1.4773 1.3896 -0.0510 0.544 -0.137 0.828 186 170 154 0 0
-1.4782 1.3940 -0.0498 0.535 -0.109 0.837 180 163 148 0 0
-1.4756 1.3972 -0.0486 0.598 -0.533 0.598 187 169 156 0 0
-1.4508 1.5186 -0.0114 0.504 -0.400 0.765 187 169 155 0 0
-1.4492 1.5221 -0.0102 0.507 -0.461 0.728 186 168 153 0 0
-1.4481 1.5257 -0.0090 0.525 -0.692 0.495 188 170 156 0 0
-1.4271 1.6143 0.0185 0.330 0.087 0.940 190 174 161 0 0
-1.4526 1.6508 0.0256 0.163 -0.933 0.320 184 166 152 0 0
-1.4411 1.6618 0.0302 0.765 0.046 0.643 180 163 147 0 0
-1.4466 1.8054 0.0699 0.422 -0.443 0.791 181 165 150 0 0
-1.4401 1.8226 0.0755 0.687 0.453 0.569 186 169 156 0 0
-1.4372 1.8335 0.0790 0.458 -0.871 -0.177 185 168 153 0 0
-1.4449 1.9090 0.0993 0.591 0.399 0.701 181 164 149 0 0
-1.4556 1.9196 0.1009 0.537 0.219 0.815 173 155 140 0 0
-1.4106 1.9132 0.1047 0.434 -0.289 0.853 181 165 149 0 0
-1.4105 1.9173 0.1059 0.454 -0.215 0.865 183 166 150 0 0
-1.4151 1.9284 0.1084 0.683 0.273 0.677 182 165 149 0 0
-1.4203 1.9441 0.1122 0.496 0.112 0.861 183 166 151 0 0
-1.4242 1.9507 0.1136 0.496 0.112 0.861 185 168 153 0 0
-1.4280 1.9573 0.1149 0.496 0.112 0.861 186 171 155 0 0
-1.4628 2.0302 0.1312 0.210 -0.069 0.975 181 165 149 0 0
-1.4446 2.0777 0.1468 0.588 0.181 0.788 174 157 141 0 0
-1.4052 2.1136 0.1618 0.336 -0.164 0.927 174 157 141 0 0
-1.6551 -0.3172 -0.5579 0.915 -0.360 -0.181 177 159 136 0 0
-1.6515 -0.3117 -0.5559 0.855 -0.516 0.043 176 156 135 0 0
-1.6487 -0.3066 -0.5541 0.786 -0.537 -0.307 174 154 131 0 0
-1.6442 -0.3008 -0.5519 0.990 -0.095 -0.102 171 151 130 0 0
-1.6478 -0.2985 -0.5517 0.802 0.522 -0.291 175 156 135 0 0
-1.6494 -0.2952 -0.5510 0.719 -0.434 0.543 178 158 137 0 0
-1.6468 -0.2902 -0.5493 0.435 -0.423 0.795 181 162 140 0 0
-1.6468 -0.2707 -0.5438 0.283 -0.421 0.862 187 170 151 0 0
-1.6417 -0.2648 -0.5414 0.365 -0.644 0.672 187 170 150 0 0
-1.6458 -0.2313 -0.5325 0.239 -0.521 0.819 191 174 154 0 0
-1.6227 -0.2027 -0.5216 0.461 -0.608 0.647 190 173 153 0 0
-1.6239 -0.1993 -0.5208 0.461 -0.278 0.843 193 177 157 0 0
-1.6236 -0.1953 -0.5196 0.461 -0.278 0.843 191 173 156 0 0
-1.6261 -0.1729 -0.5136 0.295 -0.317 0.901 191 173 155 0 0
-1.6202 -0.1396 -0.5035 0.283 -0.503 0.817 188 170 151 0 0
-1.6124 -0.1213 -0.4974 0.636 -0.577 0.513 184 166 145 0 0
-1.5922 -0.0756 -0.4820 0.846 -0.532 -0.014 190 173 155 0 0
-1.6044 -0.0681 -0.4814 0.768 0.508 0.390 193 177 159 0 0
-1.6058 -0.0647 -0.4806 0.775 0.118 0.621 193 176 158 0 0
-1.6069 -0.0611 -0.4798 0.831 -0.202 0.518 193 176 156 0 0
-1.5935 -0.0025 -0.4616 0.411 -0.383 0.827 193 177 160 0 0
-1.6278 0.0859 -0.4410 0.800 -0.448 0.400 188 170 152 0 0
-1.5987 0.1289 -0.4253 0.434 -0.355 0.828 201 187 170 0 0
-1.5925 0.1343 -0.4230 0.416 -0.513 0.751 201 185 169 0 0
-1.5716 0.2721 -0.3816 0.519 0.247 0.818 199 183 168 0 0
-1.5766 0.3145 -0.3703 0.531 -0.185 0.827 191 174 155 0 0
-1.5751 0.3187 -0.3689 0.584 -0.150 0.798 191 173 153 0 0
-1.5809 0.3653 -0.3565 0.510 0.539 0.670 193 174 154 0 0
-1.5841 0.3688 -0.3559 0.683 0.484 0.547 185 165 147 0 0
-1.5863 0.3725 -0.3552 0.883 0.147 0.446 183 162 141 0 0
-1.5864 0.3765 -0.3541 0.814 -0.092 0.573 188 169 151 0 0
-1.5867 0.3804 -0.3530 0.717 -0.308 0.626 194 176 159 0 0
-1.5858 0.3885 -0.3506 0.662 -0.330 0.673 196 177 162 0 0
-1.5578 0.4869 -0.3194 0.419 -0.075 0.905 179 154 132 0 0
-1.5581 0.4908 -0.3183 0.578 0.075 0.813 180 154 133 0 0
-1.5611 0.4945 -0.3177 0.454 -0.041 0.890 183 159 138 0 0
-1.5456 0.5077 -0.3120 0.592 -0.707 0.388 191 173 153 0 0
-1.5376 0.5122 -0.3097 0.504 -0.754 0.422 192 172 153 0 0
-1.5285 0.5168 -0.3073 0.483 -0.836 0.260 192 171 150 0 0
-1.5163 0.5216 -0.3044 0.497 -0.827 0.264 192 172 150 0 0
-1.5396 0.5752 -0.2923 0.475 0.117 0.872 195 175 151 0 0
-1.5495 0.5906 -0.2892 0.735 -0.038 0.677 194 174 151 0 0
-0.8622 0.6304 -0.1914 0.171 0.127 0.977 190 167 138 0 0
-0.8687 0.6357 -0.1907 0.212 0.140 0.967 190 164 124 0 0
-0.8438 0.6633 -0.1798 0.613 -0.667 0.423 190 157 72 0 0
-0.8522 0.6741 -0.1778 0.706 -0.262 0.658 187 151 63 0 0
-0.8522 0.6768 -0.1771 0.797 -0.517 0.312 186 150 65 0 0
-0.8492 0.6822 -0.1751 0.766 -0.320 0.557 177 142 60 0 0
-0.8488 0.6849 -0.1743 0.765 -0.316 0.562 174 140 57 0 0
-0.8489 0.6876 -0.1736 0.940 -0.043 0.339 171 137 56 0 0
-0.8414 0.6957 -0.1704 0.609 -0.729 -0.312 163 127 51 0 0
-0.8096 0.7323 -0.1561 0.931 0.326 -0.163 135 106 50 0 0
-0.8365 0.7605 -0.1515 0.527 0.768 -0.364 183 153 58 0 0
-0.7427 0.8725 -0.1082 0.842 0.528 -0.111 184 149 83 0 0
-1.5026 1.0926 -0.1420 0.272 -0.000 0.962 196 178 163 0 0
-1.5011 1.0963 -0.1408 0.285 -0.112 0.952 190 172 155 0 0
-1.5076 1.1057 -0.1390 0.450 0.166 0.877 184 163 144 0 0
-1.5207 1.1288 -0.1341 0.799 -0.052 0.600 190 172 156 0 0
-1.5162 1.1401 -0.1304 0.718 -0.617 0.322 178 156 138 0 0
-1.5135 1.1436 -0.1290 0.729 -0.583 0.358 171 149 128 0 0
-1.5127 1.1516 -0.1267 0.691 -0.513 0.510 187 166 147 0 0
-1.5044 1.1620 -0.1227 0.451 -0.565 0.691 177 155 135 0 0
-1.4846 1.2181 -0.1045 0.614 -0.639 0.463 186 166 151 0 0
-1.4904 1.2766 -0.0887 0.302 0.081 0.950 205 189 176 0 0
-1.4941 1.3063 -0.0808 0.407 0.133 0.904 202 186 173 0 0
-1.4971 1.3113 -0.0798 0.443 0.134 0.887 200 184 170 0 0
-1.4916 1.3219 -0.0761 0.493 0.075 0.867 189 172 157 0 0
-1.4936 1.3266 -0.0750 0.530 -0.040 0.847 187 168 154 0 0
-1.4938 1.3308 -0.0739 0.577 -0.131 0.806 184 165 151 0 0
-1.4973 1.3484 -0.0694 0.790 0.346 0.506 181 162 145 0 0
-1.5011 1.3537 -0.0684 0.999 -0.044 -0.031 178 158 143 0 0
-1.5002 1.3575 -0.0672 0.734 -0.675 -0.071 178 159 142 0 0
-1.4724 1.3689 -0.0605 0.250 -0.425 0.870 194 179 165 0 0
-1.4728 1.3731 -0.0593 0.298 -0.105 0.949 189 174 162 0 0
-1.4718 1.3850 -0.0559 0.476 -0.151 0.866 190 174 161 0 0
-1.4730 1.3896 -0.0548 0.492 -0.060 0.868 179 162 147 0 0
-1.4665 1.4036 -0.0500 0.355 -0.266 0.896 184 167 153 0 0
-1.4684 1.4084 -0.0489 0.583 -0.313 0.750 182 164 151 0 0
-1.4393 1.4951 -0.0208 0.897 -0.369 0.243 188 170 157 0 0
-1.4413 1.6511 0.0228 0.237 -0.526 0.817 187 170 156 0 0
-1.4285 1.7682 0.0574 0.455 -0.209 0.865 184 169 154 0 0
-1.4265 1.7836 0.0620 0.371 0.019 0.928 182 166 151 0 0
-1.4320 1.8322 0.0749 0.446 -0.709 0.546 189 173 160 0 0
-1.4314 1.8984 0.0937 0.568 0.432 0.700 190 174 160 0 0
-1.4084 1.9301 0.1055 0.414 -0.114 0.903 182 165 149 0 0
-1.4100 1.9352 0.1067 0.407 -0.204 0.890 184 166 151 0 0
-1.4123 1.9449 0.1092 0.452 -0.356 0.818 185 169 154 0 0
-1.4524 2.0082 0.1219 0.329 -0.210 0.921 192 178 163 0 0
-1.4534 2.0131 0.1231 0.239 -0.374 0.896 191 177 163 0 0
-1.4407 2.0811 0.1439 0.617 0.130 0.776 178 160 146 0 0
-1.3917 2.1057 0.1570 0.348 -0.315 0.883 179 162 148 0 0
-1.6381 -0.2976 -0.5546 0.686 -0.243 0.686 163 140 117 0 0
-1.6345 -0.2844 -0.5504 0.280 -0.325 0.904 181 163 141 0 0
-1.6364 -0.2814 -0.5498 0.122 -0.116 0.986 182 164 142 0 0
-1.6368 -0.2660 -0.5455 0.314 -0.555 0.771 196 180 162 0 0
-1.6329 -0.2605 -0.5435 0.293 -0.440 0.849 197 182 164 0 0
-1.6398 -0.2361 -0.5375 0.387 -0.625 0.678 189 171 152 0 0
-1.6275 -0.2272 -0.5334 0.396 -0.749 0.531 186 169 148 0 0
-1.6303 -0.2245 -0.5330 0.270 -0.538 0.799 187 170 150 0 0
-1.6228 -0.2176 -0.5301 0.259 -0.502 0.825 190 173 155 0 0
-1.6211 -0.2131 -0.5286 0.254 -0.512 0.820 193 176 157 0 0
-1.6162 -0.2034 -0.5253 0.347 -0.594 0.726 182 163 141 0 0
-1.6162 -0.1995 -0.5242 0.332 -0.160 0.930 176 155 136 0 0
-1.6151 -0.1952 -0.5229 0.514 0.138 0.847 177 157 137 0 0
-1.6169 -0.1921 -0.5222 0.514 0.138 0.847 178 158 140 0 0
-1.6221 -0.1747 -0.5180 0.467 -0.354 0.810 197 182 163 0 0
-1.6207 -0.1703 -0.5166 0.422 -0.394 0.817 193 177 158 0 0
-1.6189 -0.1657 -0.5150 0.329 -0.292 0.898 189 172 154 0 0
-1.6029 -0.1134 -0.4983 0.955 0.062 0.289 183 163 142 0 0
-1.5588 0.0279 -0.4529 0.744 -0.596 0.303 195 180 162 0 0
-1.5690 0.0557 -0.4464 0.611 -0.558 0.561 201 188 172 0 0
-1.5683 0.0598 -0.4452 0.656 -0.462 0.597 200 185 169 0 0
-1.5700 0.0632 -0.4444 0.484 -0.097 0.869 194 179 161 0 0
-1.5634 0.2745 -0.3842 0.400 -0.278 0.873 200 186 170 0 0
-1.5631 0.2784 -0.3830 0.400 -0.278 0.873 203 189 175 0 0
-1.5679 0.3129 -0.3739 0.497 -0.147 0.855 193 176 160 0 0
-1.5645 0.3292 -0.3689 0.652 -0.609 0.453 195 178 160 0 0
-1.5541 0.3504 -0.3616 0.496 0.414 0.763 194 178 159 0 0
-1.5762 0.3629 -0.3609 0.514 0.710 0.481 193 175 159 0 0
-1.5846 0.3737 -0.3590 0.883 0.147 0.446 188 167 148 0 0
-1.5859 0.3775 -0.3581 0.862 0.104 0.496 190 172 155 0 0
-1.5307 0.5137 -0.3127 0.489 -0.725 0.485 193 172 153 0 0
-1.5274 0.5178 -0.3111 0.465 -0.717 0.519 194 172 152 0 0
-1.5133 0.5227 -0.3079 0.529 -0.824 0.204 198 180 161 0 0
-1.5318 0.5726 -0.2963 0.063 -0.112 0.992 196 178 156 0 0
-1.5253 0.5768 -0.2943 0.311 0.388 0.868 196 178 155 0 0
-1.5322 0.5805 -0.2941 0.416 0.645 0.640 199 181 160 0 0
-0.8605 0.6312 -0.1939 0.424 -0.230 0.876 187 165 139 0 0
-0.8578 0.6339 -0.1928 0.332 0.122 0.935 195 173 143 0 0
-0.8490 0.6883 -0.1763 0.678 -0.219 -0.702 185 147 59 0 0
-0.8472 0.7646 -0.1547 0.338 0.333 0.880 186 153 55 0 0
-0.8908 0.7814 -0.1555 0.221 0.847 0.483 185 151 53 0 0
-0.7465 0.8738 -0.1111 0.770 -0.516 -0.376 183 148 82 0 0
-1.5142 1.0433 -0.1617 0.263 -0.527 0.808 198 178 157 0 0
-1.5226 1.0488 -0.1612 0.176 -0.976 0.131 198 180 160 0 0
-1.5079 1.1355 -0.1350 0.239 -0.637 0.732 190 170 152 0 0
-1.5010 1.1584 -0.1276 0.553 -0.533 0.641 200 183 167 0 0
-1.4984 1.1619 -0.1263 0.447 -0.578 0.682 194 176 159 0 0
-1.4801 1.1778 -0.1195 0.561 -0.183 0.807 182 160 145 0 0
-1.4799 1.2546 -0.0979 0.667 -0.023 0.744 186 165 149 0 0
-1.4812 1.2753 -0.0922 0.410 0.318 0.855 203 187 173 0 0
-1.4788 1.3520 -0.0703 0.158 -0.414 0.896 187 170 155 0 0
-1.4567 1.4056 -0.0524 0.346 -0.310 0.886 185 167 153 0 0
-1.4650 1.4290 -0.0469 0.752 -0.388 0.533 179 159 146 0 0
-1.4644 1.4329 -0.0458 0.704 0.346 0.620 178 159 145 0 0
-1.4314 1.4893 -0.0257 0.909 0.390 0.146 184 166 152 0 0
-1.4343 1.5189 -0.0177 0.739 0.086 0.669 192 176 163 0 0
-1.4330 1.5265 -0.0154 0.912 -0.110 0.394 188 172 159 0 0
-1.4318 1.5300 -0.0143 0.868 -0.480 0.128 181 163 149 0 0
-1.4306 1.5336 -0.0131 0.635 -0.764 -0.116 173 154 140 0 0
-1.4210 1.5862 0.0029 0.134 -0.626 0.768 184 167 152 0 0
-1.4273 1.6134 0.0097 0.381 0.070 0.922 185 168 153 0 0
-1.4081 1.6937 0.0348 0.329 -0.100 0.939 196 182 171 0 0
-1.4220 1.7663 0.0534 0.547 -0.713 0.439 182 166 150 0 0
-1.4191 1.7688 0.0545 0.561 -0.670 0.486 180 164 148 0 0
-1.4147 1.8859 0.0880 0.604 0.467 0.645 186 170 155 0 0
-1.3950 1.9070 0.0964 0.396 -0.175 0.901 185 168 154 0 0
-1.3948 1.9110 0.0976 0.415 -0.132 0.900 183 166 150 0 0
-1.4005 1.9351 0.1036 0.428 0.048 0.902 182 165 149 0 0
-1.4440 2.0045 0.1176 0.353 -0.251 0.901 189 174 158 0 0
-1.4440 2.0087 0.1188 0.353 -0.251 0.901 189 172 157 0 0
-1.4345 2.0701 0.1372 0.675 0.297 0.675 178 160 146 0 0
-1.4326 2.0731 0.1383 0.685 0.059 0.726 177 159 145 0 0
-1.4346 2.0787 0.1396 0.700 0.086 0.709 177 159 145 0 0
-1.6237 -0.2792 -0.5519 0.280 -0.325 0.904 181 163 142 0 0
-1.6268 -0.2767 -0.5516 0.147 -0.102 0.984 183 162 142 0 0
-1.6237 -0.2599 -0.5465 0.314 -0.555 0.771 193 177 158 0 0
-1.6213 -0.2550 -0.5448 0.259 -0.211 0.943 195 179 160 0 0
-1.6265 -0.2533 -0.5450 0.209 0.008 0.978 194 177 158 0 0
-1.6362 -0.2457 -0.5441 0.090 0.327 0.941 183 165 144 0 0
-1.6308 -0.2357 -0.5406 0.450 -0.509 0.733 190 173 154 0 0
-1.6292 -0.2312 -0.5391 0.412 -0.642 0.646 187 169 150 0 0
-1.6165 -0.2222 -0.5349 0.412 -0.758 0.505 186 168 147 0 0
-1.6096 -0.2117 -0.5311 0.364 -0.590 0.721 189 171 153 0 0
-1.6061 -0.2065 -0.5292 0.254 -0.512 0.820 192 174 153 0 0
-1.6088 -0.1960 -0.5266 0.464 0.268 0.844 168 145 126 0 0
-1.6074 -0.1801 -0.5219 0.911 -0.396 -0.113 182 163 143 0 0
-1.6062 -0.1757 -0.5205 0.875 -0.435 -0.212 189 172 153 0 0
-1.6147 -0.1712 -0.5204 0.482 -0.344 0.806 192 177 157 0 0
-1.6120 -0.1664 -0.5187 0.374 -0.370 0.851 193 177 159 0 0
-1.6096 -0.1616 -0.5170 0.331 -0.298 0.895 195 179 162 0 0
-1.5969 -0.1106 -0.5010 0.767 0.152 0.623 185 167 149 0 0
-1.5971 -0.1068 -0.5000 0.775 0.375 0.509 191 174 155 0 0
-1.5991 -0.1036 -0.4994 0.796 0.602 -0.072 196 180 162 0 0
-1.6045 -0.0434 -0.4831 0.514 0.172 0.840 189 172 151 0 0
-1.5722 0.0132 -0.4630 0.369 -0.473 0.800 193 176 158 0 0
-1.5639 0.0540 -0.4505 0.805 -0.418 0.422 199 184 167 0 0
-1.5632 0.0620 -0.4482 0.706 -0.385 0.595 198 182 166 0 0
-1.5472 0.1162 -0.4308 0.643 -0.506 0.575 199 183 167 0 0
-1.5604 0.2759 -0.3877 0.679 -0.253 0.689 202 188 172 0 0
-1.5520 0.2891 -0.3829 0.891 -0.235 0.388 199 183 168 0 0
-1.5746 0.3640 -0.3648 0.573 0.672 0.469 187 167 149 0 0
-1.5804 0.3712 -0.3635 0.767 0.338 0.545 188 169 150 0 0
-1.5828 0.3748 -0.3628 0.883 0.147 0.446 194 174 158 0 0
-1.5840 0.3786 -0.3619 0.851 0.070 0.521 199 181 166 0 0
-1.5806 0.3831 -0.3602 0.854 -0.424 0.303 197 180 164 0 0
-1.5787 0.3873 -0.3588 0.781 -0.470 0.411 195 177 160 0 0
-1.5779 0.3914 -0.3575 0.781 -0.396 0.483 193 174 157 0 0
-1.5064 0.5242 -0.3109 0.638 -0.725 0.258 202 186 168 0 0
-1.5235 0.5504 -0.3057 0.301 -0.576 0.760 193 175 152 0 0
-1.5200 0.5545 -0.3041 0.301 -0.660 0.688 195 177 155 0 0
-0.8544 0.6347 -0.1950 0.663 0.056 0.747 199 178 151 0 0
-0.8547 0.6374 -0.1943 0.923 -0.350 0.163 203 182 152 0 0
-0.8534 0.6402 -0.1934 0.772 -0.633 -0.050 185 154 104 0 0
-0.8385 0.6566 -0.1868 0.995 0.093 -0.040 191 156 76 0 0
-0.8383 0.6593 -0.1860 0.854 0.073 0.515 191 156 74 0 0
-0.8109 0.7391 -0.1600 0.918 0.396 -0.014 181 142 53 0 0
-0.8443 0.7570 -0.1594 0.201 0.005 0.980 186 153 57 0 0
-0.8478 0.7599 -0.1590 0.097 -0.281 0.955 186 153 56 0 0
-0.8536 0.7630 -0.1589 0.260 -0.292 0.920 187 150 55 0 0
-0.8650 0.7720 -0.1578 0.191 -0.035 0.981 186 150 52 0 0
-0.7370 0.8655 -0.1149 0.552 0.769 0.321 180 141 56 0 0
-0.7471 0.8747 -0.1137 0.824 -0.452 -0.342 183 149 79 0 0
-1.4861 1.0958 -0.1476 0.470 0.357 0.808 192 173 158 0 0
-1.4905 1.1048 -0.1457 0.387 0.028 0.922 189 170 152 0 0
-1.4967 1.1141 -0.1438 0.227 -0.312 0.923 193 175 160 0 0
-1.4949 1.1178 -0.1426 0.229 -0.228 0.946 197 179 164 0 0
-1.5052 1.1484 -0.1353 0.530 -0.612 0.587 192 174 157 0 0
-1.5036 1.1521 -0.1341 0.525 -0.727 0.442 196 178 163 0 0
-1.4995 1.1553 -0.1326 0.515 -0.497 0.698 200 183 168 0 0
-1.4975 1.1589 -0.1314 0.596 -0.642 0.482 203 188 175 0 0
-1.4756 1.1780 -0.1231 0.655 -0.421 0.627 197 178 164 0 0
-1.4727 1.1974 -0.1173 0.396 -0.197 0.897 192 174 159 0 0
-1.4756 1.2022 -0.1163 0.501 -0.369 0.783 192 175 159 0 0
-1.4757 1.2103 -0.1141 0.627 -0.128 0.768 185 165 151 0 0
-1.4758 1.2995 -0.0890 0.918 -0.287 0.274 202 187 174 0 0
-1.4626 1.3482 -0.0736 0.176 -0.240 0.955 193 178 164 0 0
-1.4640 1.3527 -0.0726 0.199 -0.242 0.950 195 180 166 0 0
-1.4498 1.4006 -0.0572 0.378 -0.050 0.924 187 169 156 0 0
-1.4591 1.4324 -0.0495 0.805 0.125 0.579 170 152 136 0 0
-1.4619 1.4374 -0.0485 0.733 0.142 0.665 167 148 133 0 0
-1.4309 1.5108 -0.0238 0.619 0.082 0.781 189 171 158 0 0
-1.4305 1.5147 -0.0227 0.725 0.086 0.683 191 174 160 0 0
-1.4313 1.5191 -0.0215 0.800 0.172 0.575 193 176 163 0 0
-1.4313 1.5272 -0.0193 0.929 -0.018 0.369 186 169 155 0 0
-1.4298 1.5347 -0.0170 0.788 -0.607 0.104 172 154 138 0 0
-1.4278 1.5379 -0.0158 0.778 -0.373 0.505 170 152 136 0 0
-1.4276 1.5419 -0.0147 0.602 -0.284 0.747 178 160 145 0 0
-1.4088 1.5903 0.0014 0.291 -0.103 0.951 182 165 149 0 0
-1.4098 1.5988 0.0036 0.438 0.009 0.899 183 166 151 0 0
-1.4155 1.7603 0.0483 0.555 -0.275 0.785 186 171 156 0 0
-1.4194 1.7665 0.0495 0.585 -0.801 0.129 187 172 158 0 0
-1.4151 1.7724 0.0518 0.447 -0.845 0.295 185 169 154 0 0
-1.4161 1.9590 0.1041 0.484 -0.268 0.833 182 166 150 0 0
-1.4353 1.9922 0.1109 0.086 -0.499 0.862 184 167 152 0 0
-1.4082 2.0039 0.1177 0.241 -0.050 0.969 184 166 153 0 0
-1.4270 2.0626 0.1318 0.562 -0.760 0.327 179 161 147 0 0
-1.4252 2.0656 0.1328 0.845 -0.024 0.535 180 162 149 0 0
-1.6113 -0.2734 -0.5530 0.481 -0.672 0.562 185 166 145 0 0
-1.6129 -0.2702 -0.5523 0.387 -0.396 0.833 183 163 142 0 0
-1.6114 -0.2657 -0.5508 0.412 -0.410 0.814 182 163 142 0 0
-1.6098 -0.2612 -0.5494 0.412 -0.410 0.814 186 167 147 0 0
-1.6089 -0.2570 -0.5480 0.420 -0.298 0.857 188 171 151 0 0
-1.6102 -0.2537 -0.5473 0.542 -0.546 0.639 191 174 156 0 0
-1.6089 -0.2493 -0.5459 0.401 -0.208 0.892 189 171 151 0 0
-1.6142 -0.2245 -0.5396 0.481 -0.710 0.515 190 172 153 0 0
-1.6074 -0.2180 -0.5369 0.481 -0.710 0.515 190 173 155 0 0
-1.6021 -0.2120 -0.5345 0.657 -0.633 0.410 193 176 157 0 0
-1.6004 -0.2075 -0.5330 0.413 -0.528 0.742 195 179 159 0 0
-1.6013 -0.2040 -0.5322 0.336 -0.621 0.708 192 175 158 0 0
-1.6050 -0.1939 -0.5298 0.516 0.287 0.807 164 143 121 0 0
-1.6077 -0.1911 -0.5294 0.625 0.356 0.695 162 140 121 0 0
-1.6090 -0.1723 -0.5243 0.997 0.073 0.020 195 178 160 0 0
-1.6085 -0.1683 -0.5231 0.738 -0.269 0.619 195 178 160 0 0
-1.6012 -0.1616 -0.5203 0.514 -0.237 0.824 196 180 162 0 0
