ply
format ascii 1.0
element vertex 827
property float x
property float y
property float z
property float nx
property float ny
property float nz
property uchar diffuse_red
property uchar diffuse_green
property uchar diffuse_blue
property uchar class
property uchar detection
end_header
0.1167 1.5022 -0.6267 0.850 -0.342 0.401 185 172 164 0 0
0.1459 1.4797 -0.6249 0.072 -0.626 0.777 179 168 162 0 0
0.1490 1.4788 -0.6251 0.751 -0.468 0.466 177 167 159 0 0
0.1534 1.4833 -0.6264 0.807 -0.426 0.408 177 166 160 0 0
0.1586 1.4910 -0.6284 0.832 -0.371 0.412 179 169 164 0 0
0.1640 1.4997 -0.6307 0.739 -0.348 0.576 178 168 162 0 0
0.1735 1.5110 -0.6338 0.525 -0.280 0.804 181 172 166 0 0
-1.7140 0.5371 -0.2614 -0.146 -0.592 0.793 180 160 132 0 0
-1.7071 0.5449 -0.2637 0.527 -0.085 0.846 169 145 116 0 0
-1.7111 0.5558 -0.2655 0.414 0.004 0.910 168 144 115 0 0
-1.6565 0.5629 -0.2721 -0.087 -0.809 0.581 188 166 137 0 0
-1.6541 0.5644 -0.2726 -0.251 -0.962 0.105 190 170 142 0 0
-1.5517 0.6040 -0.2904 0.187 -0.060 0.981 179 154 125 0 0
-1.4512 0.6524 -0.3097 0.357 -0.430 0.829 168 142 114 0 0
-1.4471 0.6519 -0.3100 0.809 -0.587 -0.034 167 141 113 0 0
-1.3636 0.7076 -0.3292 -0.127 -0.368 0.921 182 156 129 0 0
-1.3613 0.7147 -0.3309 0.052 -0.275 0.960 189 163 136 0 0
-1.0519 0.7139 -0.3602 -0.268 -0.591 0.761 195 92 46 0 0
-0.9838 0.6665 -0.3571 0.069 -0.828 -0.557 182 76 40 0 0
-0.9561 0.7037 -0.3672 0.065 -0.462 0.885 90 32 17 0 0
-0.9542 0.7142 -0.3695 -0.025 -0.795 -0.606 90 32 18 0 0
-0.9457 0.7169 -0.3709 0.019 -0.837 -0.547 90 32 19 0 0
-0.9426 0.7172 -0.3712 0.019 -0.837 -0.547 91 32 18 0 0
-0.9414 0.7375 -0.3755 -0.609 -0.697 -0.379 107 37 23 0 0
-0.8433 0.7199 -0.3812 0.643 -0.744 -0.180 136 69 37 0 0
-0.8410 0.7222 -0.3819 0.673 -0.674 -0.306 130 59 31 0 0
-0.8383 0.7231 -0.3824 0.505 -0.820 -0.270 131 55 30 0 0
-0.8364 0.7266 -0.3833 0.499 -0.849 -0.173 128 50 29 0 0
-0.8308 0.7377 -0.3860 0.852 -0.326 -0.410 126 47 33 0 0
-0.8290 0.7703 -0.3928 0.522 -0.778 -0.349 125 49 32 0 0
-0.8266 0.7724 -0.3934 0.430 -0.874 -0.226 124 51 28 0 0
-0.8237 0.7734 -0.3939 0.593 -0.788 0.164 159 85 40 0 0
-0.8209 0.7744 -0.3944 0.555 -0.806 0.205 195 124 48 0 0
-0.8183 0.7760 -0.3950 0.555 -0.806 0.205 198 126 42 0 0
-0.7577 0.8909 -0.4239 -0.598 -0.488 -0.636 163 114 100 0 0
-0.7654 1.0038 -0.4460 0.577 -0.149 0.803 156 121 102 0 0
-0.7466 1.0284 -0.4527 0.591 -0.172 0.788 163 131 110 0 0
-0.6041 1.0646 -0.4736 0.366 -0.656 0.660 189 166 143 0 0
-0.4792 1.1482 -0.5024 0.733 -0.670 0.114 197 179 159 0 0
-0.4758 1.1481 -0.5027 0.031 -0.991 0.126 200 183 165 0 0
-0.4423 1.1618 -0.5087 0.685 -0.576 0.445 185 163 145 0 0
-0.4391 1.1666 -0.5099 0.843 -0.485 0.233 187 167 150 0 0
-0.4358 1.1691 -0.5108 0.878 -0.401 0.261 195 176 160 0 0
-0.3684 1.2058 -0.5246 -0.375 -0.414 0.829 193 176 159 0 0
-0.3444 1.2267 -0.5311 -0.089 -0.457 0.885 164 141 124 0 0
-0.3376 1.2218 -0.5308 -0.140 -0.596 0.791 171 149 131 0 0
-0.3140 1.2114 -0.5309 0.567 -0.807 -0.163 182 163 146 0 0
-0.2871 1.2131 -0.5338 0.662 -0.583 0.471 181 162 145 0 0
-0.2558 1.2401 -0.5422 -0.150 -0.926 0.347 187 172 156 0 0
-0.2452 1.2491 -0.5451 0.482 -0.762 0.433 187 170 154 0 0
-0.2422 1.2426 -0.5440 -0.244 -0.601 0.761 188 171 155 0 0
-0.2153 1.2945 -0.5571 0.898 -0.341 0.278 181 164 147 0 0
-0.1889 1.2848 -0.5576 0.079 -0.675 0.734 172 153 136 0 0
-0.1457 1.3134 -0.5675 0.360 -0.753 0.551 193 177 164 0 0
-0.0286 1.3826 -0.5926 0.199 -0.891 -0.409 183 168 157 0 0
-0.0101 1.3927 -0.5964 0.731 -0.377 0.569 181 164 156 0 0
0.0394 1.4243 -0.6075 0.579 -0.604 0.548 180 162 154 0 0
0.0434 1.4275 -0.6086 0.622 -0.633 0.461 179 164 155 0 0
0.0479 1.4338 -0.6103 0.681 -0.681 0.270 180 166 156 0 0
0.0962 1.4549 -0.6191 0.855 -0.282 0.436 176 163 155 0 0
0.1025 1.4688 -0.6225 0.855 -0.282 0.436 178 165 157 0 0
0.1448 1.4761 -0.6280 -0.131 -0.816 0.563 178 167 161 0 0
0.1492 1.4805 -0.6293 0.618 -0.678 0.399 177 167 160 0 0
0.1534 1.4840 -0.6305 0.733 -0.513 0.446 177 166 160 0 0
0.1565 1.4832 -0.6306 0.838 -0.449 0.309 177 167 161 0 0
0.1618 1.4914 -0.6327 0.821 -0.485 0.303 175 165 160 0 0
0.1660 1.4948 -0.6338 0.743 -0.509 0.435 177 167 161 0 0
-1.7063 0.5434 -0.2666 0.483 -0.094 0.871 170 147 119 0 0
-1.7055 0.5498 -0.2680 0.414 0.004 0.910 168 143 117 0 0
-1.7013 0.5495 -0.2683 0.331 -0.071 0.941 171 147 118 0 0
-1.6995 0.5515 -0.2689 0.308 -0.127 0.943 177 154 125 0 0
-1.6502 0.5598 -0.2752 -0.106 -0.762 0.639 192 172 143 0 0
-1.6386 0.5747 -0.2794 0.064 -0.498 0.865 184 163 133 0 0
-1.4472 0.6331 -0.3094 0.095 -0.729 0.678 182 158 130 0 0
-1.4444 0.6341 -0.3099 0.324 -0.450 0.832 176 151 123 0 0
-1.4444 0.6386 -0.3108 0.229 -0.504 0.832 174 148 121 0 0
-1.1638 0.7884 -0.3679 -0.823 -0.554 0.124 167 92 68 0 0
-1.0302 0.7023 -0.3630 -0.081 -0.950 0.300 147 57 30 0 0
-1.0274 0.7031 -0.3634 -0.160 -0.955 0.250 142 56 28 0 0
-0.9934 0.6522 -0.3562 0.704 -0.690 -0.166 127 47 23 0 0
-0.9531 0.7179 -0.3735 -0.268 -0.879 -0.394 89 32 17 0 0
-0.9488 0.7153 -0.3733 0.116 -0.909 -0.400 89 31 18 0 0
-0.9458 0.7158 -0.3737 0.104 -0.901 -0.422 89 31 19 0 0
-0.9431 0.7169 -0.3742 0.297 -0.820 -0.489 89 31 18 0 0
-0.9406 0.7186 -0.3748 0.213 -0.881 -0.422 90 32 18 0 0
-0.9373 0.7184 -0.3751 0.493 -0.848 -0.194 96 34 21 0 0
-0.8911 0.6973 -0.3751 0.469 -0.796 -0.383 119 46 24 0 0
-0.8519 0.7166 -0.3828 -0.022 -0.933 -0.359 122 51 30 0 0
-0.8392 0.7246 -0.3856 0.634 -0.744 -0.210 132 55 33 0 0
-0.8369 0.7269 -0.3863 0.520 -0.843 -0.140 126 49 30 0 0
-0.8341 0.7368 -0.3886 0.641 -0.501 -0.581 122 45 30 0 0
-0.8332 0.7433 -0.3900 0.661 -0.351 -0.663 121 45 31 0 0
-0.8317 0.7482 -0.3911 0.723 -0.313 -0.616 121 46 32 0 0
-0.8299 0.7716 -0.3961 0.366 -0.908 -0.204 117 45 31 0 0
-0.8272 0.7729 -0.3966 0.430 -0.874 -0.226 116 48 32 0 0
-0.8240 0.7728 -0.3969 0.639 -0.768 -0.043 120 51 31 0 0
-0.8214 0.7746 -0.3975 0.447 -0.895 -0.014 134 58 26 0 0
-0.8187 0.7760 -0.3980 0.447 -0.895 -0.014 170 73 38 0 0
-0.7985 0.7714 -0.3990 0.384 -0.912 0.145 195 102 39 0 0
-0.7900 0.7742 -0.4004 0.185 -0.961 -0.206 160 62 38 0 0
-0.7553 0.8926 -0.4278 -0.594 -0.481 -0.645 177 132 114 0 0
-0.6210 1.0594 -0.4745 0.185 -0.783 0.593 193 171 148 0 0
-0.6041 1.0611 -0.4765 0.334 -0.929 0.161 189 166 142 0 0
-0.5693 1.1112 -0.4900 0.685 -0.481 0.547 196 178 158 0 0
-0.5376 1.1389 -0.4986 0.945 -0.305 -0.117 185 164 140 0 0
-0.4791 1.1396 -0.5043 0.658 -0.525 0.541 195 175 156 0 0
-0.4161 1.1803 -0.5186 0.488 -0.023 0.873 183 161 141 0 0
-0.3787 1.1836 -0.5228 -0.120 -0.859 -0.497 182 161 141 0 0
-0.3109 1.2149 -0.5356 0.567 -0.824 -0.005 183 164 147 0 0
-0.2907 1.2173 -0.5380 0.112 -0.831 0.544 183 164 147 0 0
-0.2875 1.2130 -0.5374 0.352 -0.936 -0.007 186 167 151 0 0
-0.0555 1.3628 -0.5899 0.081 -0.518 0.851 182 167 155 0 0
-0.0433 1.3773 -0.5940 0.842 -0.453 0.292 173 157 146 0 0
-0.0286 1.3846 -0.5969 0.005 -0.898 -0.440 185 171 160 0 0
0.0421 1.4222 -0.6112 0.297 -0.720 0.628 174 157 145 0 0
0.1359 1.4680 -0.6294 0.061 -0.386 0.920 178 165 158 0 0
0.1401 1.4716 -0.6306 -0.577 -0.751 0.320 178 166 157 0 0
0.1479 1.4761 -0.6322 0.543 -0.596 0.592 177 167 161 0 0
0.1517 1.4781 -0.6330 0.659 -0.420 0.624 179 168 161 0 0
0.1557 1.4806 -0.6339 0.767 -0.454 0.454 177 166 160 0 0
0.1608 1.4880 -0.6359 0.737 -0.603 0.304 177 166 161 0 0
0.1717 1.4913 -0.6376 0.209 -0.172 0.963 193 185 181 0 0
0.1876 1.4744 -0.6356 0.417 -0.381 0.825 183 175 169 0 0
-1.7007 0.5374 -0.2691 0.786 -0.611 0.091 166 141 113 0 0
-1.6982 0.5459 -0.2710 0.321 -0.240 0.916 151 125 97 0 0
-1.6490 0.5504 -0.2766 0.609 -0.072 0.790 184 166 137 0 0
-1.6499 0.5550 -0.2775 0.097 -0.559 0.823 186 166 138 0 0
-1.5995 0.5768 -0.2867 -0.256 -0.704 0.663 187 165 136 0 0
-1.5469 0.5889 -0.2941 -0.173 -0.433 0.885 198 182 156 0 0
-1.4648 0.6179 -0.3078 0.482 -0.871 0.097 176 152 125 0 0
-1.4618 0.6187 -0.3083 0.499 -0.867 -0.003 177 152 125 0 0
-1.4418 0.6300 -0.3125 0.239 -0.413 0.879 180 156 128 0 0
-1.2936 0.7490 -0.3509 0.424 -0.704 0.570 179 149 120 0 0
-1.2354 0.7916 -0.3652 -0.185 -0.380 0.906 198 164 136 0 0
-1.1650 0.7895 -0.3713 -0.817 -0.549 0.174 168 100 76 0 0
-1.0827 0.7066 -0.3620 -0.189 -0.631 0.753 215 94 65 0 0
-1.0283 0.7039 -0.3666 0.588 -0.395 0.706 143 56 31 0 0
-1.0266 0.7072 -0.3674 -0.192 -0.777 0.600 138 54 29 0 0
-0.9924 0.6489 -0.3586 0.279 -0.727 0.628 127 48 28 0 0
-0.9896 0.6496 -0.3591 0.066 -0.747 0.662 124 45 26 0 0
-0.9887 0.6545 -0.3601 -0.261 -0.931 0.255 120 44 26 0 0
-0.9498 0.7165 -0.3766 0.183 -0.966 -0.182 90 31 20 0 0
-0.9474 0.7185 -0.3772 -0.021 -0.945 -0.327 91 31 20 0 0
-0.9444 0.7189 -0.3776 0.064 -0.900 -0.432 90 31 19 0 0
-0.9416 0.7199 -0.3780 0.213 -0.881 -0.422 90 31 18 0 0
-0.9248 0.7177 -0.3792 -0.270 -0.742 -0.614 140 57 39 0 0
-0.8925 0.6994 -0.3784 0.134 -0.865 -0.483 120 43 25 0 0
-0.8674 0.7154 -0.3841 0.816 -0.408 -0.410 111 43 29 0 0
-0.8592 0.7183 -0.3855 -0.195 -0.964 -0.181 111 43 28 0 0
-0.8558 0.7177 -0.3856 -0.195 -0.964 -0.181 112 43 30 0 0
-0.8491 0.7160 -0.3859 0.580 -0.804 -0.130 111 43 25 0 0
-0.8334 0.7518 -0.3948 0.656 -0.360 -0.663 112 42 30 0 0
-0.8302 0.7516 -0.3950 0.935 -0.315 -0.166 109 40 29 0 0
-0.8315 0.7750 -0.3997 0.114 -0.919 -0.376 111 43 29 0 0
-0.7228 1.0274 -0.4619 0.202 -0.537 0.819 193 170 146 0 0
-0.6679 1.0487 -0.4714 0.207 -0.346 0.915 195 173 151 0 0
-0.6012 1.0615 -0.4804 0.279 -0.902 0.329 194 174 151 0 0
-0.5980 1.0631 -0.4810 0.464 -0.825 0.323 195 175 151 0 0
-0.4908 1.1533 -0.5096 0.868 -0.389 0.310 192 171 152 0 0
-0.4522 1.1401 -0.5105 0.515 -0.641 0.569 168 144 124 0 0
-0.4329 1.1613 -0.5167 0.630 -0.112 0.768 177 156 135 0 0
-0.4030 1.1852 -0.5245 0.481 -0.244 0.842 175 152 132 0 0
-0.3892 1.1817 -0.5250 0.770 -0.583 0.259 180 159 139 0 0
-0.3860 1.1886 -0.5268 -0.040 -0.975 -0.221 179 156 138 0 0
-0.3080 1.2115 -0.5388 0.465 -0.801 0.376 184 164 146 0 0
-0.2879 1.2122 -0.5408 0.144 -0.981 0.128 184 164 147 0 0
-0.2845 1.2128 -0.5413 0.229 -0.956 0.185 181 162 147 0 0
-0.2811 1.2144 -0.5419 -0.220 -0.954 0.203 182 164 147 0 0
-0.0395 1.3815 -0.5991 0.889 -0.390 0.241 172 156 142 0 0
-0.0355 1.3857 -0.6003 0.860 -0.472 0.193 181 166 153 0 0
0.0411 1.4184 -0.6142 0.281 -0.414 0.866 168 150 137 0 0
0.0773 1.4147 -0.6169 0.844 -0.260 0.469 182 172 163 0 0
0.1073 1.4620 -0.6294 0.536 -0.182 0.825 168 154 145 0 0
0.1106 1.4617 -0.6297 0.241 -0.138 0.961 168 154 144 0 0
0.1232 1.4573 -0.6299 0.300 -0.340 0.892 183 170 162 0 0
0.1308 1.4612 -0.6315 0.426 -0.406 0.809 181 171 163 0 0
0.1348 1.4643 -0.6325 0.623 -0.620 0.477 181 171 163 0 0
0.1396 1.4704 -0.6342 0.119 -0.685 0.719 179 169 161 0 0
0.1427 1.4695 -0.6343 -0.025 -0.538 0.843 178 167 161 0 0
0.1469 1.4730 -0.6354 0.507 -0.555 0.659 179 168 161 0 0
0.1511 1.4767 -0.6366 0.649 -0.446 0.616 182 172 166 0 0
0.1554 1.4806 -0.6378 0.625 -0.439 0.646 182 173 168 0 0
0.1595 1.4835 -0.6388 0.722 -0.544 0.427 183 173 168 0 0
0.1637 1.4870 -0.6399 0.503 -0.477 0.720 184 175 171 0 0
0.1823 1.4673 -0.6376 0.455 -0.408 0.792 187 178 175 0 0
0.1856 1.4673 -0.6379 0.417 -0.381 0.825 187 179 175 0 0
-1.7254 0.5171 -0.2657 0.148 -0.113 0.983 175 151 120 0 0
-1.6973 0.5442 -0.2740 0.056 -0.973 0.225 156 130 101 0 0
-1.6956 0.5463 -0.2746 -0.168 -0.832 0.529 146 120 94 0 0
-1.6899 0.5446 -0.2747 -0.325 -0.883 0.338 131 105 79 0 0
-1.6455 0.5462 -0.2792 0.522 -0.114 0.845 174 153 124 0 0
-1.6314 0.5698 -0.2854 0.061 -0.736 0.674 183 159 129 0 0
-1.6189 0.5688 -0.2864 0.041 -0.999 0.015 184 161 132 0 0
-1.6154 0.5691 -0.2868 0.469 -0.873 0.133 181 156 127 0 0
-1.6129 0.5704 -0.2873 0.469 -0.873 0.133 180 156 126 0 0
-1.6106 0.5719 -0.2878 0.341 -0.939 0.049 177 154 123 0 0
-1.6082 0.5733 -0.2883 0.583 -0.785 0.210 176 152 122 0 0
-1.5943 0.5707 -0.2891 0.047 -0.736 0.675 190 169 140 0 0
-1.4418 0.6247 -0.3146 0.266 -0.626 0.733 182 158 130 0 0
-1.3413 0.6940 -0.3384 0.533 -0.826 0.184 198 178 153 0 0
-1.2929 0.7469 -0.3539 0.307 -0.722 0.620 186 158 129 0 0
-1.2495 0.7535 -0.3593 0.601 -0.367 0.710 199 171 141 0 0
-1.2320 0.7848 -0.3674 -0.116 -0.363 0.925 196 162 134 0 0
-1.2038 0.7929 -0.3718 0.601 -0.396 0.695 198 160 132 0 0
-1.0403 0.7005 -0.3678 -0.165 -0.593 0.788 187 86 46 0 0
-1.0257 0.7109 -0.3714 -0.579 -0.761 0.293 136 50 30 0 0
-0.9685 0.6708 -0.3684 -0.322 -0.891 -0.321 106 36 22 0 0
-0.9639 0.6677 -0.3682 -0.052 -0.998 -0.033 104 36 23 0 0
-0.9612 0.6686 -0.3686 0.260 -0.930 0.260 101 35 20 0 0
-0.8599 0.7191 -0.3886 -0.195 -0.964 -0.181 108 41 30 0 0
-0.8515 0.7129 -0.3881 0.431 -0.821 0.374 108 41 29 0 0
-0.8491 0.7147 -0.3887 0.605 -0.735 0.307 107 40 27 0 0
-0.8389 0.7575 -0.3985 0.837 -0.456 -0.302 109 41 30 0 0
-0.8375 0.7629 -0.3998 0.517 -0.546 -0.660 105 37 26 0 0
-0.8264 0.7773 -0.4038 0.043 -0.963 -0.267 115 45 32 0 0
-0.8234 0.7777 -0.4042 0.134 -0.932 -0.338 122 50 35 0 0
-0.7259 1.0229 -0.4642 0.197 -0.491 0.849 183 156 131 0 0
-0.7226 1.0241 -0.4648 0.307 -0.495 0.813 183 153 127 0 0
-0.7194 1.0253 -0.4653 0.307 -0.495 0.813 192 167 143 0 0
-0.5999 1.0740 -0.4866 0.551 -0.819 0.156 196 177 152 0 0
-0.5967 1.0752 -0.4872 0.440 -0.898 -0.016 193 173 149 0 0
-0.5941 1.0816 -0.4887 0.138 -0.940 0.312 190 167 144 0 0
-0.5907 1.0820 -0.4891 0.138 -0.940 0.312 187 165 142 0 0
-0.5874 1.0828 -0.4896 0.427 -0.887 0.175 185 163 140 0 0
-0.5842 1.0849 -0.4904 0.621 -0.760 0.192 194 173 152 0 0
-0.4492 1.1395 -0.5143 0.503 -0.197 0.841 167 143 122 0 0
-0.4460 1.1431 -0.5154 0.426 -0.168 0.889 169 145 125 0 0
-0.3896 1.1798 -0.5283 0.770 -0.583 0.259 179 157 134 0 0
-0.3863 1.1837 -0.5294 0.770 -0.583 0.259 179 156 136 0 0
-0.3762 1.1929 -0.5322 0.132 -0.960 -0.247 177 156 135 0 0
-0.3694 1.1927 -0.5328 0.129 -0.991 0.021 175 153 134 0 0
-0.3660 1.1931 -0.5332 -0.063 -0.833 0.550 175 153 133 0 0
-0.3592 1.1967 -0.5346 0.795 -0.531 0.295 178 156 135 0 0
-0.3524 1.1903 -0.5339 0.570 -0.578 0.584 182 161 141 0 0
-0.3491 1.1957 -0.5354 0.333 -0.723 0.606 179 160 137 0 0
-0.2917 1.2068 -0.5430 0.294 -0.956 -0.005 175 153 133 0 0
-0.2849 1.2120 -0.5447 0.229 -0.956 0.185 181 162 145 0 0
-0.2816 1.2108 -0.5448 0.315 -0.814 0.488 184 166 148 0 0
-0.2309 1.2268 -0.5529 0.727 -0.681 0.085 189 171 156 0 0
-0.2270 1.2357 -0.5551 0.854 -0.520 0.006 186 169 152 0 0
-0.0617 1.3473 -0.5937 0.450 -0.411 0.793 187 173 161 0 0
-0.0449 1.3703 -0.6001 0.709 -0.647 0.282 174 157 144 0 0
-0.0370 1.3782 -0.6024 0.766 -0.639 0.075 178 163 150 0 0
-0.0312 1.3718 -0.6017 -0.370 -0.885 0.282 183 169 158 0 0
0.0102 1.3979 -0.6109 0.784 -0.339 0.521 187 173 164 0 0
0.0150 1.4064 -0.6131 0.791 -0.315 0.525 186 172 164 0 0
0.0186 1.4075 -0.6137 0.636 -0.448 0.628 183 169 160 0 0
0.0424 1.4087 -0.6162 0.866 -0.459 -0.196 162 145 132 0 0
0.0488 1.4250 -0.6202 0.767 -0.547 -0.335 164 146 133 0 0
0.0538 1.4333 -0.6224 0.767 -0.547 -0.335 165 146 135 0 0
0.1217 1.4518 -0.6326 0.512 -0.615 0.600 178 165 157 0 0
0.1256 1.4542 -0.6334 0.512 -0.615 0.600 180 167 159 0 0
0.1300 1.4588 -0.6348 0.644 -0.591 0.485 181 168 161 0 0
0.1340 1.4619 -0.6358 0.714 -0.551 0.432 182 170 163 0 0
0.1384 1.4666 -0.6372 0.714 -0.551 0.432 179 168 162 0 0
0.1417 1.4661 -0.6374 0.294 -0.695 0.656 178 167 160 0 0
0.1458 1.4695 -0.6385 0.511 -0.650 0.563 180 169 163 0 0
0.1494 1.4704 -0.6390 0.653 -0.426 0.626 181 171 166 0 0
0.1538 1.4748 -0.6403 0.543 -0.323 0.775 181 171 166 0 0
0.1886 1.4936 -0.6475 0.357 -0.217 0.909 185 175 171 0 0
-1.7208 0.5122 -0.2682 0.169 -0.064 0.984 168 141 112 0 0
-1.7109 0.5241 -0.2717 0.119 -0.458 0.881 153 126 100 0 0
-1.7069 0.5240 -0.2720 0.176 -0.565 0.806 154 128 103 0 0
-1.7038 0.5247 -0.2724 0.385 -0.515 0.766 163 137 109 0 0
-1.6980 0.5441 -0.2770 0.111 -0.980 -0.165 176 149 120 0 0
-1.6942 0.5442 -0.2774 0.053 -0.998 0.025 173 146 116 0 0
-1.6893 0.5432 -0.2777 -0.325 -0.883 0.338 164 137 107 0 0
-1.6828 0.5408 -0.2778 -0.325 -0.883 0.338 165 139 109 0 0
-1.6764 0.5384 -0.2779 -0.325 -0.883 0.338 174 149 119 0 0
-1.6414 0.5488 -0.2833 0.132 -0.375 0.918 171 146 119 0 0
-1.6408 0.5519 -0.2840 0.574 -0.230 0.786 179 155 124 0 0
-1.6375 0.5599 -0.2860 0.783 -0.619 -0.069 190 168 142 0 0
-1.6346 0.5645 -0.2872 0.643 -0.759 0.103 180 155 128 0 0
-1.6302 0.5639 -0.2875 0.048 -0.846 0.530 178 154 126 0 0
-1.6284 0.5660 -0.2881 0.260 -0.826 0.500 184 160 132 0 0
-1.6150 0.5678 -0.2897 0.536 -0.604 0.590 171 145 118 0 0
-1.3399 0.7014 -0.3433 0.735 -0.677 -0.028 186 160 132 0 0
-1.3027 0.7382 -0.3545 0.966 -0.243 0.092 189 161 133 0 0
-1.2434 0.7424 -0.3609 0.584 -0.806 0.099 199 168 140 0 0
-1.2410 0.7444 -0.3615 0.603 -0.797 0.018 187 154 124 0 0
-1.2380 0.7455 -0.3620 0.606 -0.735 -0.303 181 145 115 0 0
-1.1962 0.7977 -0.3768 0.758 -0.066 0.649 200 161 133 0 0
-1.1805 0.8088 -0.3806 -0.656 -0.724 0.216 186 131 104 0 0
-0.9671 0.6879 -0.3751 -0.065 -0.960 -0.273 103 36 23 0 0
-0.9641 0.6882 -0.3754 0.790 -0.590 0.165 101 35 20 0 0
-0.9634 0.6938 -0.3767 0.448 -0.626 0.639 100 34 19 0 0
-0.9680 0.7115 -0.3800 0.994 0.108 0.035 101 35 22 0 0
-0.8682 0.7320 -0.3935 -0.580 -0.758 -0.297 105 39 27 0 0
-0.8529 0.7154 -0.3915 0.115 -0.993 0.037 104 39 27 0 0
-0.8353 0.7643 -0.4034 0.579 -0.759 -0.298 100 35 24 0 0
-0.8307 0.7794 -0.4070 0.076 -0.992 0.100 106 39 29 0 0
-0.8280 0.7808 -0.4075 -0.023 -0.884 -0.466 109 41 30 0 0
-0.7885 0.7859 -0.4122 0.537 -0.734 -0.416 143 56 39 0 0
-0.7445 0.9954 -0.4603 0.735 -0.103 0.670 161 127 107 0 0
-0.7254 1.0185 -0.4669 0.375 -0.418 0.827 187 157 131 0 0
-0.7223 1.0204 -0.4676 0.351 -0.523 0.777 186 157 132 0 0
-0.7187 1.0199 -0.4678 0.173 -0.521 0.836 194 167 143 0 0
-0.7087 1.0052 -0.4656 -0.574 -0.793 0.202 192 165 141 0 0
-0.6773 1.0383 -0.4755 -0.581 -0.631 0.514 200 179 156 0 0
-0.6739 1.0385 -0.4759 -0.547 -0.695 0.466 192 169 147 0 0
-0.6584 1.0286 -0.4752 0.214 -0.568 0.795 186 160 135 0 0
-0.6038 1.0740 -0.4898 0.251 -0.957 0.145 195 172 147 0 0
-0.6003 1.0734 -0.4900 0.524 -0.852 -0.014 190 165 141 0 0
-0.5971 1.0751 -0.4907 0.440 -0.898 -0.016 186 162 137 0 0
-0.5940 1.0775 -0.4915 -0.130 -0.977 0.166 186 162 138 0 0
-0.5907 1.0789 -0.4921 0.285 -0.949 0.134 187 165 142 0 0
-0.5877 1.0820 -0.4930 0.427 -0.887 0.175 186 164 142 0 0
-0.5845 1.0841 -0.4937 0.411 -0.865 0.288 193 172 152 0 0
-0.5609 1.0867 -0.4965 -0.670 -0.742 -0.026 198 179 160 0 0
-0.5315 1.0987 -0.5017 0.658 -0.125 0.743 191 170 149 0 0
-0.5069 1.1286 -0.5103 0.413 -0.836 -0.361 185 158 136 0 0
-0.5036 1.1311 -0.5111 0.651 -0.736 -0.188 184 159 138 0 0
-0.5003 1.1329 -0.5118 0.684 -0.710 0.167 194 174 150 0 0
-0.4899 1.1302 -0.5122 0.172 -0.965 -0.198 187 164 141 0 0
-0.3899 1.1779 -0.5315 0.770 -0.583 0.259 167 142 122 0 0
-0.3867 1.1843 -0.5331 0.868 -0.490 0.080 178 153 132 0 0
-0.3528 1.1890 -0.5372 0.353 -0.760 0.546 184 163 143 0 0
-0.3494 1.1908 -0.5379 0.435 -0.853 0.288 176 155 133 0 0
-0.3086 1.2174 -0.5473 -0.149 -0.986 0.073 173 147 127 0 0
-0.2956 1.2019 -0.5453 0.059 -0.968 0.243 167 141 124 0 0
-0.2922 1.2043 -0.5461 0.456 -0.868 0.197 169 143 126 0 0
-0.2356 1.2101 -0.5526 0.714 -0.608 0.347 190 173 156 0 0
-0.2320 1.2147 -0.5539 0.404 -0.489 0.773 188 171 154 0 0
-0.0823 1.3217 -0.5902 0.266 -0.625 0.734 191 178 169 0 0
-0.0790 1.3215 -0.5905 0.114 -0.725 0.679 189 175 165 0 0
-0.0712 1.3300 -0.5930 0.699 -0.615 0.365 189 175 164 0 0
-0.0672 1.3342 -0.5942 0.771 -0.535 0.344 190 178 166 0 0
-0.0632 1.3391 -0.5956 0.771 -0.535 0.344 192 180 168 0 0
-0.0499 1.3618 -0.6016 0.680 -0.544 0.492 185 172 157 0 0
-0.0459 1.3660 -0.6029 0.427 -0.674 0.603 180 164 151 0 0
-0.0422 1.3677 -0.6036 0.418 -0.728 0.543 184 169 154 0 0
-0.0386 1.3693 -0.6042 0.418 -0.728 0.543 186 172 160 0 0
0.0002 1.3809 -0.6103 0.785 -0.487 0.384 165 147 133 0 0
0.0045 1.3865 -0.6119 0.768 -0.438 0.467 173 156 144 0 0
0.0090 1.3928 -0.6136 0.773 -0.393 0.498 179 164 152 0 0
0.0135 1.3995 -0.6154 0.770 -0.376 0.516 185 172 164 0 0
0.0172 1.4013 -0.6161 0.576 -0.488 0.655 182 168 160 0 0
0.0425 1.4109 -0.6205 0.899 -0.359 0.249 166 150 137 0 0
0.0479 1.4215 -0.6232 0.867 -0.479 -0.138 167 150 137 0 0
0.0533 1.4321 -0.6259 0.867 -0.479 -0.138 176 159 148 0 0
0.0670 1.3995 -0.6204 -0.414 -0.848 0.331 184 171 162 0 0
0.0745 1.4037 -0.6220 0.029 -0.696 0.717 184 172 164 0 0
0.0819 1.4074 -0.6234 0.733 -0.426 0.530 182 168 160 0 0
0.1008 1.4341 -0.6308 0.447 -0.204 0.871 182 169 160 0 0
0.1172 1.4477 -0.6352 0.211 -0.639 0.739 175 161 152 0 0
0.1200 1.4455 -0.6350 0.273 -0.526 0.806 174 160 152 0 0
0.1761 1.4713 -0.6456 0.601 -0.271 0.752 178 167 161 0 0
0.1803 1.4745 -0.6466 0.505 -0.246 0.828 179 169 163 0 0
0.1848 1.4792 -0.6481 0.487 -0.252 0.836 185 175 168 0 0
-1.6853 0.5387 -0.2803 0.459 -0.290 0.840 180 153 123 0 0
-1.6819 0.5391 -0.2807 -0.263 -0.813 0.519 173 147 118 0 0
-1.6407 0.5364 -0.2839 0.366 -0.915 0.170 163 136 111 0 0
-1.6399 0.5392 -0.2846 0.695 -0.652 0.303 158 132 105 0 0
-1.6365 0.5433 -0.2857 0.686 -0.567 0.456 162 135 110 0 0
-1.6354 0.5459 -0.2864 0.962 -0.228 0.152 171 145 118 0 0
-1.6367 0.5583 -0.2889 0.269 -0.864 -0.426 173 149 120 0 0
-1.6292 0.5622 -0.2904 0.048 -0.846 0.530 179 153 125 0 0
-1.6277 0.5644 -0.2910 0.260 -0.826 0.500 185 161 132 0 0
-1.5058 0.6112 -0.3122 0.700 -0.711 -0.070 161 134 106 0 0
-1.5048 0.6143 -0.3129 0.756 -0.584 0.297 158 129 102 0 0
-1.4982 0.6154 -0.3137 0.295 -0.947 0.123 157 129 102 0 0
-1.4952 0.6162 -0.3142 0.290 -0.936 0.200 173 146 118 0 0
-1.3994 0.6570 -0.3317 0.238 -0.827 0.509 177 152 123 0 0
-1.3523 0.6770 -0.3403 0.236 -0.398 0.887 156 127 100 0 0
-1.2473 0.7361 -0.3625 0.847 -0.511 0.150 201 175 145 0 0
-1.2439 0.7422 -0.3641 0.603 -0.797 0.018 188 154 124 0 0
-1.2414 0.7440 -0.3647 0.583 -0.799 -0.145 181 146 114 0 0
-1.2390 0.7460 -0.3653 0.589 -0.759 -0.276 178 141 111 0 0
-1.1723 0.7927 -0.3814 0.149 -0.351 0.924 182 127 101 0 0
-0.9211 0.7529 -0.3961 -0.647 -0.243 0.723 113 40 27 0 0
-0.8387 0.7541 -0.4040 0.637 -0.704 0.313 102 35 25 0 0
-0.8244 0.7778 -0.4104 0.523 -0.841 -0.139 110 41 29 0 0
-0.8220 0.7805 -0.4111 0.356 -0.892 -0.278 113 41 29 0 0
-0.8033 0.7917 -0.4152 0.341 -0.767 -0.544 132 47 33 0 0
-0.7942 0.7821 -0.4140 0.537 -0.736 -0.413 136 49 33 0 0
-0.7919 0.7849 -0.4148 0.504 -0.705 -0.499 138 50 37 0 0
-0.7893 0.7870 -0.4155 0.591 -0.702 -0.396 142 54 39 0 0
-0.7642 0.8209 -0.4250 0.355 -0.104 0.929 205 104 87 0 0
-0.7465 0.9026 -0.4439 0.455 -0.283 -0.844 196 162 149 0 0
-0.7400 0.9739 -0.4596 0.749 -0.313 0.583 190 161 141 0 0
-0.7379 0.9798 -0.4611 0.779 -0.264 0.569 186 158 138 0 0
-0.7286 1.0149 -0.4694 0.586 -0.477 0.655 195 169 145 0 0
-0.7163 1.0062 -0.4687 -0.099 -0.626 0.773 190 163 139 0 0
-0.7012 0.9996 -0.4687 0.237 -0.961 -0.144 186 157 133 0 0
-0.6980 1.0010 -0.4692 0.206 -0.973 -0.103 199 175 150 0 0
-0.6039 1.0718 -0.4929 0.440 -0.898 -0.016 185 159 133 0 0
-0.6007 1.0733 -0.4935 0.440 -0.898 -0.016 184 159 135 0 0
-0.5975 1.0749 -0.4942 0.440 -0.898 -0.016 173 147 122 0 0
-0.5944 1.0772 -0.4949 0.243 -0.950 0.196 173 146 123 0 0
-0.5912 1.0794 -0.4957 0.155 -0.988 -0.024 189 164 143 0 0
-0.5880 1.0806 -0.4962 0.231 -0.968 0.095 190 169 147 0 0
-0.5849 1.0832 -0.4971 0.375 -0.898 0.230 193 175 153 0 0
-0.5179 1.0945 -0.5057 -0.081 -0.728 0.681 186 162 138 0 0
-0.5150 1.1003 -0.5072 0.534 -0.400 0.745 187 163 140 0 0
-0.5052 1.1045 -0.5090 0.681 -0.541 0.494 173 145 122 0 0
-0.5022 1.1081 -0.5100 0.365 -0.490 0.792 181 154 133 0 0
-0.4989 1.1100 -0.5107 0.265 -0.655 0.707 197 173 152 0 0
-0.4750 1.1054 -0.5119 0.816 -0.333 0.473 189 169 148 0 0
-0.4162 1.1356 -0.5238 0.900 -0.351 0.259 188 170 153 0 0
-0.4035 1.1633 -0.5308 0.636 -0.200 0.745 185 163 144 0 0
-0.3970 1.1736 -0.5336 0.648 -0.179 0.740 157 133 113 0 0
-0.3903 1.1776 -0.5350 0.734 -0.389 0.557 159 135 115 0 0
-0.3870 1.1810 -0.5360 0.878 -0.336 0.341 163 138 118 0 0
-0.3498 1.1860 -0.5406 0.485 -0.873 0.054 179 157 136 0 0
-0.1213 1.2770 -0.5809 0.297 -0.805 0.514 177 160 145 0 0
-0.1053 1.3003 -0.5873 0.840 -0.324 0.436 185 168 155 0 0
-0.0872 1.3120 -0.5915 0.293 -0.878 0.378 186 171 160 0 0
-0.0841 1.3108 -0.5915 0.398 -0.900 0.179 185 171 161 0 0
-0.0806 1.3122 -0.5921 0.398 -0.900 0.179 189 174 161 0 0
-0.0721 1.3253 -0.5957 0.600 -0.529 0.600 188 173 162 0 0
-0.0210 1.3557 -0.6068 0.615 -0.384 0.689 189 175 164 0 0
-0.0010 1.3757 -0.6129 0.825 -0.486 0.288 166 147 134 0 0
0.0035 1.3822 -0.6147 0.825 -0.486 0.288 172 155 142 0 0
0.0076 1.3866 -0.6160 0.808 -0.479 0.342 178 162 151 0 0
0.0122 1.3935 -0.6179 0.762 -0.400 0.510 186 171 164 0 0
0.0156 1.3937 -0.6182 0.329 -0.361 0.873 190 176 168 0 0
0.0427 1.4132 -0.6249 0.810 -0.417 0.413 172 156 144 0 0
0.0473 1.4198 -0.6267 0.746 -0.480 0.462 175 158 145 0 0
0.0517 1.4251 -0.6282 0.746 -0.480 0.462 180 163 152 0 0
0.0504 1.4010 -0.6230 0.295 -0.312 0.903 183 169 158 0 0
0.0662 1.3969 -0.6236 -0.710 -0.694 0.123 179 165 157 0 0
0.0736 1.4008 -0.6251 -0.110 -0.744 0.659 177 164 155 0 0
0.0806 1.4023 -0.6261 0.721 -0.466 0.513 181 168 160 0 0
0.0848 1.4066 -0.6274 0.800 -0.263 0.540 183 170 162 0 0
0.0903 1.4174 -0.6302 0.787 -0.273 0.554 183 170 161 0 0
0.1151 1.4393 -0.6371 0.233 -0.470 0.851 170 157 149 0 0
0.1446 1.4521 -0.6425 0.348 -0.322 0.881 171 157 147 0 0
0.1487 1.4552 -0.6435 0.546 -0.337 0.767 168 155 145 0 0
0.1755 1.4696 -0.6491 0.604 -0.410 0.683 180 168 161 0 0
0.1792 1.4711 -0.6497 0.242 -0.504 0.829 182 171 164 0 0
0.1845 1.4790 -0.6519 0.675 -0.566 -0.474 184 173 165 0 0
0.1875 1.4776 -0.6519 0.482 -0.678 0.555 182 171 164 0 0
-1.7038 0.5161 -0.2769 0.293 -0.271 0.917 179 159 129 0 0
-1.6897 0.5243 -0.2799 0.225 -0.716 0.661 176 150 121 0 0
-1.6865 0.5319 -0.2819 0.059 -0.610 0.791 177 151 122 0 0
-1.6814 0.5343 -0.2828 0.427 -0.299 0.853 179 152 123 0 0
-1.6800 0.5367 -0.2835 -0.205 -0.795 0.571 178 152 123 0 0
-1.6577 0.5301 -0.2841 0.010 -0.757 0.654 180 156 126 0 0
-1.6401 0.5350 -0.2868 0.253 -0.839 0.483 162 136 109 0 0
-1.6342 0.5403 -0.2884 0.829 -0.164 0.535 156 130 105 0 0
-1.6336 0.5433 -0.2891 0.869 -0.156 0.470 168 142 116 0 0
-1.6329 0.5537 -0.2914 0.478 -0.681 0.554 162 137 108 0 0
-1.6304 0.5550 -0.2919 0.478 -0.681 0.554 178 153 125 0 0
-1.6282 0.5604 -0.2933 0.051 -0.890 0.453 172 146 117 0 0
-1.6252 0.5611 -0.2937 0.413 -0.627 0.661 181 156 128 0 0
-1.5773 0.5663 -0.2992 0.269 -0.704 0.658 147 119 92 0 0
-1.5743 0.5671 -0.2997 0.269 -0.704 0.658 139 112 85 0 0
-1.5050 0.6095 -0.3151 0.200 -0.500 0.843 161 134 107 0 0
-1.4299 0.6435 -0.3292 0.231 -0.804 0.548 169 141 115 0 0
-1.2491 0.7322 -0.3648 0.827 -0.330 0.454 186 152 122 0 0
-1.2472 0.7349 -0.3655 0.827 -0.507 0.244 188 155 126 0 0
-1.2456 0.7381 -0.3663 0.833 -0.539 0.122 186 152 123 0 0
-1.2439 0.7412 -0.3672 0.846 -0.529 0.072 183 147 117 0 0
-1.2417 0.7434 -0.3678 0.775 -0.630 0.059 180 144 114 0 0
-0.9481 0.7002 -0.3855 -0.200 -0.754 0.625 105 40 26 0 0
-0.9269 0.7580 -0.3998 -0.561 -0.208 0.801 103 33 21 0 0
-0.8838 0.7293 -0.3976 0.809 -0.365 -0.460 102 35 24 0 0
-0.8292 0.7524 -0.4076 0.340 -0.442 0.830 108 39 27 0 0
-0.8254 0.7797 -0.4138 0.657 -0.753 0.031 116 42 32 0 0
-0.8153 0.7579 -0.4101 0.482 -0.767 0.423 117 42 30 0 0
-0.8108 0.7633 -0.4116 0.740 -0.672 0.023 125 46 33 0 0
-0.7944 0.7815 -0.4170 0.640 -0.725 -0.254 143 53 38 0 0
-0.7930 0.7872 -0.4184 0.776 -0.579 -0.251 145 54 38 0 0
-0.7590 0.8117 -0.4267 0.769 -0.078 0.634 204 107 91 0 0
-0.7367 0.9722 -0.4630 0.673 -0.151 0.724 195 170 151 0 0
-0.7357 0.9830 -0.4654 -0.141 -0.543 0.828 196 170 150 0 0
-0.7351 0.9953 -0.4681 0.784 -0.328 0.527 193 165 144 0 0
-0.7330 1.0017 -0.4697 0.833 -0.401 0.382 178 146 124 0 0
-0.7305 1.0057 -0.4708 0.833 -0.426 0.353 185 154 130 0 0
-0.7158 1.0015 -0.4712 0.074 -0.654 0.753 190 163 138 0 0
-0.7018 1.0002 -0.4722 0.267 -0.927 -0.264 181 153 130 0 0
-0.6613 1.0207 -0.4803 0.007 -0.717 0.697 192 168 144 0 0
-0.5989 1.0573 -0.4939 0.512 -0.839 0.185 180 153 130 0 0
-0.5979 1.0748 -0.4977 0.440 -0.898 -0.016 167 140 116 0 0
-0.5947 1.0764 -0.4983 0.440 -0.898 -0.016 169 142 121 0 0
-0.5917 1.0794 -0.4992 0.155 -0.988 -0.024 191 169 146 0 0
-0.5883 1.0800 -0.4997 0.155 -0.988 -0.024 194 172 151 0 0
-0.5851 1.0816 -0.5003 0.506 -0.835 0.216 194 172 152 0 0
-0.5181 1.0925 -0.5088 0.002 -0.556 0.831 190 166 143 0 0
-0.5054 1.1016 -0.5119 0.681 -0.541 0.494 163 136 113 0 0
-0.5023 1.1044 -0.5128 0.375 -0.510 0.774 177 150 127 0 0
-0.4782 1.0983 -0.5137 0.822 -0.299 0.484 178 154 132 0 0
-0.4751 1.1013 -0.5146 0.816 -0.333 0.473 191 172 153 0 0
-0.4363 1.1261 -0.5235 0.299 -0.856 0.423 176 156 134 0 0
-0.3938 1.1654 -0.5357 0.385 -0.227 0.895 153 129 112 0 0
-0.3906 1.1728 -0.5376 0.741 -0.362 0.565 154 131 110 0 0
-0.3868 1.1500 -0.5331 0.186 -0.579 0.794 156 131 111 0 0
-0.3770 1.1638 -0.5370 0.764 -0.363 0.533 164 141 123 0 0
-0.3737 1.1670 -0.5379 0.687 -0.468 0.556 160 136 116 0 0
-0.3333 1.1915 -0.5469 0.789 -0.431 0.437 184 165 148 0 0
-0.2728 1.2060 -0.5555 0.039 -0.903 0.427 179 160 142 0 0
-0.1220 1.2739 -0.5839 0.614 -0.782 0.105 177 161 145 0 0
-0.1183 1.2775 -0.5850 0.684 -0.711 0.162 179 163 150 0 0
-0.1025 1.2989 -0.5910 0.813 -0.391 0.432 187 172 159 0 0
-0.0910 1.3111 -0.5947 0.189 -0.678 0.711 187 171 162 0 0
-0.0143 1.3577 -0.6116 0.460 -0.427 0.779 187 173 164 0 0
-0.0063 1.3656 -0.6141 0.622 -0.507 0.597 183 166 158 0 0
-0.0018 1.3725 -0.6159 0.825 -0.486 0.288 178 160 150 0 0
0.0024 1.3776 -0.6174 0.817 -0.524 0.242 176 160 150 0 0
0.0067 1.3829 -0.6189 0.808 -0.479 0.342 180 166 156 0 0
0.0110 1.3882 -0.6205 0.610 -0.739 0.287 187 173 166 0 0
0.0142 1.3876 -0.6206 0.329 -0.498 0.802 190 177 168 0 0
0.0449 1.3913 -0.6242 0.629 -0.369 0.684 174 156 145 0 0
0.0524 1.3954 -0.6258 0.327 -0.299 0.896 176 159 147 0 0
0.0561 1.3972 -0.6265 0.327 -0.299 0.896 176 159 147 0 0
0.0661 1.3977 -0.6276 -0.427 -0.866 0.259 175 160 150 0 0
0.0695 1.3980 -0.6279 -0.347 -0.914 0.208 177 163 153 0 0
0.0727 1.3974 -0.6281 0.260 -0.945 -0.200 177 164 153 0 0
0.0754 1.3945 -0.6277 -0.389 -0.881 0.270 177 163 155 0 0
0.0818 1.3938 -0.6282 -0.422 -0.901 -0.106 183 170 161 0 0
0.1746 1.4670 -0.6523 0.675 -0.719 0.168 178 164 156 0 0
0.1782 1.4679 -0.6528 0.574 -0.793 -0.201 178 165 157 0 0
-1.7127 0.4927 -0.2742 0.343 -0.685 -0.643 192 175 149 0 0
-1.6844 0.5222 -0.2831 0.089 -0.757 0.648 172 145 116 0 0
-1.6807 0.5223 -0.2835 0.089 -0.757 0.648 171 145 115 0 0
-1.6394 0.5335 -0.2896 0.129 -0.827 0.547 161 135 108 0 0
-1.5071 0.6025 -0.3166 0.438 0.078 0.896 171 146 117 0 0
-1.5061 0.6056 -0.3173 0.438 0.078 0.896 169 142 115 0 0
-1.5055 0.6091 -0.3181 0.016 -0.399 0.917 166 138 111 0 0
-1.3450 0.6700 -0.3459 0.687 -0.187 0.702 169 140 114 0 0
-1.2486 0.7304 -0.3677 0.906 -0.303 0.295 178 141 110 0 0
-1.2471 0.7337 -0.3685 0.827 -0.507 0.244 178 139 109 0 0
-1.2457 0.7373 -0.3694 0.833 -0.539 0.122 176 138 108 0 0
-1.2436 0.7397 -0.3701 0.893 -0.439 0.093 175 137 108 0 0
-1.2418 0.7425 -0.3709 0.826 -0.561 0.058 183 146 117 0 0
-1.2395 0.7446 -0.3716 0.820 -0.568 0.071 189 154 126 0 0
-1.2375 0.7474 -0.3724 0.820 -0.568 0.071 194 160 131 0 0
-1.2356 0.7501 -0.3731 0.820 -0.568 0.071 186 151 122 0 0
-1.2342 0.7537 -0.3740 0.434 -0.699 0.568 174 137 108 0 0
-1.2312 0.7548 -0.3746 0.424 -0.616 0.664 183 148 118 0 0
-1.2281 0.7677 -0.3776 0.319 -0.677 0.663 196 162 134 0 0
-1.2250 0.7686 -0.3781 0.266 -0.812 0.519 191 155 126 0 0
-1.2220 0.7696 -0.3786 0.472 -0.881 -0.034 189 153 122 0 0
-1.1660 0.7856 -0.3871 0.262 -0.367 0.892 190 133 108 0 0
-1.1613 0.7836 -0.3871 -0.141 -0.677 0.722 214 150 124 0 0
-1.0132 0.6870 -0.3798 0.315 -0.118 0.942 148 53 31 0 0
-1.0098 0.6866 -0.3800 0.238 -0.188 0.953 145 51 31 0 0
-0.9753 0.6883 -0.3836 -0.542 -0.527 0.655 119 41 28 0 0
-0.9491 0.6939 -0.3871 -0.041 -0.875 0.483 111 41 28 0 0
-0.9459 0.6939 -0.3874 0.066 -0.932 0.356 111 42 28 0 0
-0.9525 0.7244 -0.3934 0.080 -0.283 0.956 113 42 27 0 0
-0.8023 0.7852 -0.4202 0.523 -0.733 -0.435 156 57 42 0 0
-0.7988 0.7839 -0.4202 0.614 -0.782 -0.107 159 58 45 0 0
-0.7944 0.7904 -0.4220 0.849 -0.357 0.390 169 66 50 0 0
-0.7551 0.8431 -0.4370 0.986 0.078 0.149 205 120 106 0 0
-0.7529 0.9523 -0.4607 0.313 -0.288 -0.905 201 177 160 0 0
-0.5554 1.0870 -0.5077 0.508 -0.620 0.598 192 171 151 0 0
-0.5521 1.0886 -0.5084 0.553 -0.556 0.621 184 161 140 0 0
-0.5386 1.0576 -0.5029 0.260 -0.964 -0.056 188 167 148 0 0
-0.5357 1.0613 -0.5040 0.547 -0.781 0.301 188 167 147 0 0
-0.5056 1.0986 -0.5148 0.732 -0.570 0.373 159 131 110 0 0
-0.4494 1.1134 -0.5231 0.815 -0.404 0.417 164 140 120 0 0
-0.4429 1.1163 -0.5243 0.401 -0.915 0.045 174 152 131 0 0
-0.4231 1.1203 -0.5270 0.279 -0.547 0.789 179 158 137 0 0
-0.4200 1.1275 -0.5288 0.760 -0.459 0.461 181 160 142 0 0
-0.3871 1.1460 -0.5358 0.268 -0.592 0.760 152 129 108 0 0
-0.3740 1.1621 -0.5405 0.627 -0.408 0.664 163 139 119 0 0
-0.3706 1.1626 -0.5409 0.028 -0.301 0.953 165 141 123 0 0
-0.3067 1.2010 -0.5550 0.833 -0.418 0.363 158 131 112 0 0
-0.3032 1.2065 -0.5565 0.853 -0.521 -0.006 152 125 104 0 0
-0.2996 1.2161 -0.5589 -0.166 -0.887 -0.432 152 125 107 0 0
-0.2870 1.1926 -0.5550 0.206 -0.888 0.411 174 151 134 0 0
-0.2733 1.2033 -0.5585 0.149 -0.832 0.534 180 161 143 0 0
-0.2699 1.2059 -0.5594 0.533 -0.719 0.446 178 159 140 0 0
-0.2397 1.2139 -0.5639 -0.213 -0.938 0.272 169 145 127 0 0
-0.0242 1.3395 -0.6106 0.818 -0.427 0.387 187 172 162 0 0
-0.0205 1.3419 -0.6115 0.783 -0.395 0.481 190 176 166 0 0
-0.0156 1.3511 -0.6139 0.749 -0.544 0.377 189 176 167 0 0
-0.0116 1.3557 -0.6153 0.742 -0.535 0.404 184 170 161 0 0
-0.0075 1.3604 -0.6166 0.742 -0.535 0.404 179 164 154 0 0
-0.0027 1.3689 -0.6189 0.854 -0.477 0.207 175 158 149 0 0
0.0019 1.3763 -0.6209 0.854 -0.477 0.207 177 160 150 0 0
0.0056 1.3783 -0.6217 0.796 -0.450 0.406 180 166 157 0 0
0.0103 1.3858 -0.6237 0.094 -0.889 0.449 184 169 161 0 0
0.0814 1.3931 -0.6318 -0.352 -0.768 0.535 181 168 159 0 0
0.0938 1.4049 -0.6355 0.549 -0.300 0.780 186 173 165 0 0
0.1177 1.4236 -0.6417 -0.047 -0.403 0.914 193 184 177 0 0
0.1629 1.4471 -0.6508 0.834 -0.521 0.183 172 158 147 0 0
0.1680 1.4545 -0.6529 0.834 -0.521 0.183 173 160 150 0 0
-1.6791 0.5200 -0.2862 0.126 -0.702 0.701 168 139 111 0 0
-1.5000 0.6062 -0.3212 0.320 -0.343 0.883 155 126 102 0 0
-1.4971 0.6072 -0.3217 0.293 -0.397 0.870 153 124 100 0 0
-1.3652 0.6427 -0.3414 0.548 -0.534 0.644 197 178 154 0 0
-1.3623 0.6436 -0.3418 0.723 -0.471 0.505 190 169 144 0 0
-1.3602 0.6457 -0.3425 0.544 -0.647 0.535 188 166 141 0 0
-1.3453 0.6645 -0.3479 0.681 -0.135 0.720 194 174 147 0 0
-1.2471 0.7326 -0.3716 0.756 -0.279 0.592 178 140 110 0 0
-1.1768 0.7652 -0.3851 0.312 -0.452 0.836 196 155 128 0 0
-1.1830 0.7826 -0.3883 0.387 -0.516 0.764 196 155 129 0 0
-1.1692 0.7773 -0.3884 0.841 -0.293 0.455 171 115 92 0 0
-1.1672 0.7800 -0.3892 0.596 -0.479 0.644 177 120 96 0 0
-1.1644 0.7814 -0.3897 0.319 -0.598 0.735 198 144 119 0 0
-1.1601 0.7802 -0.3898 -0.112 -0.725 0.680 210 148 122 0 0
-1.0586 0.6855 -0.3784 -0.360 -0.908 0.215 214 90 59 0 0
-1.0105 0.6803 -0.3817 0.179 -0.264 0.948 154 54 33 0 0
-0.9664 0.6744 -0.3844 -0.525 -0.646 0.554 121 42 27 0 0
-0.9520 0.6633 -0.3833 0.073 -0.980 0.185 118 42 29 0 0
-0.9481 0.6903 -0.3895 0.330 -0.633 0.700 117 42 28 0 0
-0.9453 0.6911 -0.3899 0.325 -0.669 0.668 117 42 29 0 0
-0.8747 0.7361 -0.4061 0.623 -0.678 0.391 100 34 23 0 0
-0.8722 0.7379 -0.4067 0.754 -0.602 0.262 100 34 24 0 0
-0.8699 0.7402 -0.4074 0.598 -0.731 0.329 101 35 24 0 0
-0.8579 0.7419 -0.4089 0.493 -0.695 -0.523 104 37 27 0 0
-0.8556 0.7444 -0.4096 0.512 -0.621 -0.593 106 38 28 0 0
-0.8526 0.7537 -0.4119 0.822 -0.415 -0.390 106 38 28 0 0
-0.7528 0.8325 -0.4381 0.254 -0.014 0.967 203 119 103 0 0
-0.7459 0.8431 -0.4410 0.210 -0.073 0.975 203 125 110 0 0
-0.7446 0.8760 -0.4483 0.994 -0.110 -0.022 199 115 103 0 0
-0.7436 0.8852 -0.4504 0.994 -0.110 -0.022 203 125 112 0 0
-0.6288 0.9826 -0.4820 0.185 -0.506 0.843 193 171 150 0 0
-0.6326 1.0264 -0.4912 0.925 -0.111 0.363 190 167 145 0 0
-0.5518 1.0814 -0.5104 0.505 -0.516 0.692 184 160 139 0 0
-0.5486 1.0835 -0.5112 0.505 -0.516 0.692 181 159 136 0 0
-0.5359 1.0593 -0.5071 0.219 -0.939 0.267 189 168 149 0 0
-0.4138 1.1305 -0.5336 0.780 -0.311 0.543 183 163 143 0 0
-0.4106 1.1338 -0.5346 0.684 -0.280 0.673 182 164 145 0 0
-0.4041 1.1425 -0.5371 0.604 -0.281 0.746 181 162 141 0 0
-0.4009 1.1464 -0.5383 0.559 -0.303 0.772 177 156 136 0 0
-0.3976 1.1499 -0.5393 0.574 -0.296 0.763 176 155 135 0 0
-0.3743 1.1568 -0.5429 0.557 -0.294 0.777 161 136 117 0 0
-0.3036 1.2070 -0.5602 0.785 -0.552 -0.280 157 131 111 0 0
-0.2999 1.2169 -0.5627 -0.172 -0.860 -0.480 155 128 112 0 0
-0.2934 1.2111 -0.5621 0.774 -0.506 0.381 171 148 131 0 0
-0.2875 1.1873 -0.5574 0.013 -0.942 0.336 184 166 147 0 0
-0.1780 1.2481 -0.5806 0.621 -0.483 0.618 178 159 139 0 0
-0.1756 1.2390 -0.5788 0.422 -0.195 0.886 178 161 141 0 0
-0.1194 1.2736 -0.5914 0.526 -0.720 0.452 193 179 167 0 0
-0.0616 1.3123 -0.6050 0.075 -0.948 0.310 194 183 172 0 0
-0.0583 1.3127 -0.6054 0.265 -0.779 0.569 196 185 175 0 0
-0.0216 1.3368 -0.6140 0.796 -0.387 0.465 185 172 160 0 0
-0.0165 1.3479 -0.6169 0.749 -0.544 0.377 188 175 165 0 0
-0.0121 1.3543 -0.6187 0.816 -0.451 0.362 187 173 164 0 0
-0.0084 1.3564 -0.6195 0.786 -0.421 0.452 180 164 155 0 0
-0.0034 1.3662 -0.6220 0.888 -0.402 0.222 173 156 146 0 0
0.0012 1.3738 -0.6241 0.838 -0.380 0.392 173 157 147 0 0
0.0047 1.3745 -0.6246 0.730 -0.399 0.555 177 163 153 0 0
0.0186 1.3597 -0.6226 0.674 -0.659 0.332 186 171 165 0 0
0.0227 1.3640 -0.6239 0.775 -0.629 -0.060 189 175 168 0 0
0.0489 1.3802 -0.6298 0.330 -0.389 0.860 159 140 131 0 0
0.0983 1.3964 -0.6378 0.819 -0.278 0.502 184 171 165 0 0
0.1039 1.4070 -0.6406 0.833 -0.382 0.400 184 172 166 0 0
0.1099 1.4196 -0.6439 0.663 -0.426 0.616 184 173 166 0 0
0.1229 1.4186 -0.6449 -0.361 -0.381 0.851 188 178 172 0 0
0.1273 1.4231 -0.6463 0.229 -0.292 0.928 186 175 169 0 0
0.1304 1.4225 -0.6464 0.289 -0.120 0.950 182 170 162 0 0
0.1741 1.4401 -0.6542 0.526 -0.272 0.806 175 159 151 0 0
-1.6899 0.5152 -0.2873 0.586 -0.456 0.669 137 111 88 0 0
-1.6874 0.5199 -0.2886 0.087 -0.618 0.781 143 115 91 0 0
-1.6362 0.5289 -0.2952 -0.031 -0.678 0.735 160 134 109 0 0
-1.5345 0.5619 -0.3116 0.564 -0.420 0.711 180 157 129 0 0
-1.4894 0.6060 -0.3253 0.018 -0.969 0.245 171 145 118 0 0
-1.3627 0.6385 -0.3438 0.698 -0.716 -0.024 188 165 139 0 0
-1.3596 0.6391 -0.3443 0.162 -0.956 0.245 188 165 140 0 0
-1.3579 0.6417 -0.3450 0.628 -0.766 0.136 190 169 145 0 0
-1.3497 0.6548 -0.3486 0.688 -0.588 0.425 199 180 157 0 0
-1.3424 0.6646 -0.3514 0.811 -0.196 0.551 186 163 135 0 0
-1.3405 0.6669 -0.3521 0.829 -0.310 0.466 179 153 127 0 0
-1.2468 0.7310 -0.3746 0.655 -0.507 0.560 184 149 119 0 0
-1.2446 0.7333 -0.3753 0.648 -0.441 0.621 189 155 123 0 0
-1.2247 0.7302 -0.3764 0.209 -0.681 0.702 170 132 104 0 0
-1.1836 0.7572 -0.3860 -0.309 -0.854 0.419 197 156 129 0 0
-1.1757 0.7622 -0.3878 0.380 -0.728 0.570 191 148 119 0 0
-1.1593 0.7775 -0.3926 -0.112 -0.725 0.680 202 135 111 0 0
-1.0635 0.6685 -0.3773 0.342 -0.794 -0.503 216 95 66 0 0
-1.0375 0.6684 -0.3797 0.665 -0.616 0.422 212 84 52 0 0
-1.0240 0.6738 -0.3821 0.024 -0.406 0.914 205 77 45 0 0
-1.0023 0.7170 -0.3935 -0.027 -0.254 0.967 132 45 32 0 0
-0.9590 0.6709 -0.3873 0.778 -0.558 -0.288 126 43 30 0 0
-0.9349 0.7182 -0.3998 0.082 -0.739 0.669 175 64 43 0 0
-0.9281 0.7172 -0.4002 0.633 -0.737 -0.237 175 61 41 0 0
-0.9219 0.7255 -0.4026 0.479 -0.831 0.285 167 56 33 0 0
-0.8803 0.7327 -0.4079 0.603 -0.643 0.473 103 35 26 0 0
-0.8768 0.7319 -0.4081 0.799 -0.557 0.226 103 36 27 0 0
-0.8746 0.7345 -0.4088 0.691 -0.665 0.284 102 36 25 0 0
-0.8699 0.7388 -0.4102 0.691 -0.665 0.284 102 37 27 0 0
-0.8531 0.7447 -0.4130 0.447 -0.811 -0.376 108 40 30 0 0
-0.8305 0.7521 -0.4167 0.233 -0.765 0.600 124 48 38 0 0
-0.7467 0.7957 -0.4338 -0.174 -0.442 0.880 200 115 99 0 0
-0.7414 0.8745 -0.4515 0.961 0.089 0.262 196 112 99 0 0
-0.6741 0.9910 -0.4832 0.523 -0.372 0.766 197 174 150 0 0
-0.6709 0.9917 -0.4836 -0.096 -0.645 0.759 199 179 156 0 0
-0.6672 0.9901 -0.4836 -0.293 -0.663 0.689 202 183 160 0 0
-0.6643 0.9924 -0.4843 -0.036 -0.384 0.922 194 171 147 0 0
-0.6302 1.0303 -0.4957 0.935 -0.168 0.313 186 164 143 0 0
-0.6141 1.0132 -0.4934 0.940 -0.228 0.253 190 168 147 0 0
-0.5422 1.0515 -0.5083 0.233 -0.792 0.564 181 159 137 0 0
-0.5392 1.0552 -0.5094 0.181 -0.948 0.264 183 159 137 0 0
-0.5360 1.0564 -0.5099 0.141 -0.614 0.777 187 165 146 0 0
-0.5332 1.0619 -0.5114 0.577 -0.253 0.777 191 172 156 0 0
-0.5303 1.0655 -0.5125 0.577 -0.253 0.777 201 183 167 0 0
-0.5275 1.0713 -0.5140 0.763 -0.278 0.584 203 186 170 0 0
-0.4695 1.1000 -0.5255 0.109 -0.985 0.134 180 155 133 0 0
-0.4592 1.0951 -0.5254 -0.122 -0.959 0.256 192 171 152 0 0
-0.4560 1.0969 -0.5260 -0.013 -0.915 0.402 189 169 150 0 0
-0.4044 1.1368 -0.5394 0.569 -0.261 0.780 183 164 147 0 0
-0.3150 1.1602 -0.5526 0.408 -0.857 0.315 186 167 149 0 0
-0.2156 1.1928 -0.5687 0.311 -0.786 0.534 199 184 172 0 0
-0.2122 1.1947 -0.5694 0.626 -0.719 0.303 191 175 162 0 0
-0.1796 1.2336 -0.5809 0.157 -0.357 0.921 178 156 138 0 0
-0.1766 1.2313 -0.5807 0.346 -0.337 0.876 178 158 139 0 0
-0.0700 1.3016 -0.6057 0.190 -0.764 0.617 182 165 152 0 0
-0.0663 1.3051 -0.6068 0.523 -0.783 0.337 184 168 153 0 0
-0.0628 1.3062 -0.6073 0.166 -0.832 0.529 189 175 159 0 0
-0.0173 1.3448 -0.6199 0.672 -0.620 0.404 184 170 159 0 0
-0.0128 1.3515 -0.6218 0.843 -0.536 0.041 185 171 161 0 0
0.0179 1.3574 -0.6258 0.674 -0.659 0.332 180 165 157 0 0
0.0220 1.3618 -0.6272 0.815 -0.579 0.009 183 170 161 0 0
0.0261 1.3660 -0.6284 0.861 -0.505 0.060 187 174 166 0 0
0.0403 1.3713 -0.6309 0.634 -0.309 0.708 172 154 143 0 0
0.1069 1.4069 -0.6447 0.754 -0.316 0.576 187 177 169 0 0
0.1323 1.4175 -0.6493 0.423 -0.273 0.864 184 173 166 0 0
0.1361 1.4198 -0.6502 -0.035 -0.266 0.963 185 174 167 0 0
0.1393 1.4194 -0.6504 -0.061 -0.313 0.948 188 175 168 0 0
-1.7189 0.4858 -0.2814 0.756 -0.328 -0.566 164 136 108 0 0
-1.6858 0.5176 -0.2914 -0.195 -0.861 0.470 128 102 78 0 0
-1.6792 0.5151 -0.2914 -0.174 -0.897 0.406 142 114 90 0 0
-1.5388 0.5539 -0.3125 0.115 -0.810 0.576 187 166 139 0 0
-1.5333 0.5598 -0.3143 0.743 -0.520 0.422 175 150 122 0 0
-1.4935 0.5806 -0.3225 0.534 0.025 0.845 167 141 113 0 0
-1.4914 0.5823 -0.3231 0.436 -0.019 0.900 167 140 113 0 0
-1.4904 0.6020 -0.3275 0.143 -0.643 0.753 195 174 146 0 0
-1.4813 0.6001 -0.3279 0.085 -0.861 0.501 197 173 146 0 0
-1.4027 0.6333 -0.3423 0.323 -0.330 0.887 199 179 154 0 0
-1.3597 0.6383 -0.3472 0.109 -0.972 0.210 189 165 139 0 0
-1.3581 0.6410 -0.3480 0.628 -0.766 0.136 190 169 142 0 0
-1.3568 0.6441 -0.3488 0.789 -0.590 0.171 194 174 148 0 0
-1.3548 0.6462 -0.3494 0.740 -0.519 0.428 195 176 150 0 0
-1.3392 0.6641 -0.3548 0.777 -0.101 0.621 180 153 126 0 0
-1.2710 0.7061 -0.3702 0.464 -0.823 0.329 191 161 131 0 0
-1.2677 0.7120 -0.3718 0.262 -0.899 -0.352 179 145 117 0 0
-1.2461 0.7288 -0.3774 0.661 -0.607 0.441 178 141 112 0 0
-1.2284 0.7470 -0.3830 -0.134 -0.888 0.441 183 148 119 0 0
-1.1835 0.7560 -0.3890 -0.198 -0.912 0.361 191 149 121 0 0
-1.1584 0.7747 -0.3954 -0.112 -0.725 0.680 196 130 105 0 0
-1.0014 0.6859 -0.3898 0.165 -0.387 0.907 148 50 34 0 0
-0.9828 0.6803 -0.3902 0.502 -0.683 0.530 134 46 31 0 0
-0.9802 0.6817 -0.3908 0.502 -0.683 0.530 134 46 32 0 0
-0.9741 0.6893 -0.3930 -0.021 -0.659 0.752 133 45 31 0 0
-0.9571 0.6725 -0.3908 0.807 -0.585 0.077 130 44 30 0 0
-0.9550 0.6748 -0.3915 0.059 -0.996 -0.067 130 44 30 0 0
-0.9556 0.6835 -0.3934 -0.059 -0.788 0.613 130 44 29 0 0
-0.9493 0.6835 -0.3939 0.387 -0.562 0.731 132 44 29 0 0
-0.9459 0.6828 -0.3941 0.785 -0.514 0.346 133 44 30 0 0
-0.9407 0.7154 -0.4018 0.626 -0.291 0.724 180 62 40 0 0
-0.9383 0.7173 -0.4024 0.518 -0.504 0.691 182 62 41 0 0
-0.9347 0.7163 -0.4025 0.050 -0.815 0.577 186 66 44 0 0
-0.9312 0.7157 -0.4027 0.422 -0.866 0.267 185 66 45 0 0
-0.9285 0.7168 -0.4032 0.678 -0.703 0.215 184 65 45 0 0
-0.9258 0.7181 -0.4037 0.539 -0.804 0.251 184 64 44 0 0
-0.9234 0.7200 -0.4043 0.708 -0.623 0.334 183 63 43 0 0
-0.9210 0.7220 -0.4050 0.539 -0.759 0.365 181 61 41 0 0
-0.8992 0.7313 -0.4090 -0.033 -0.708 0.706 114 40 30 0 0
-0.8876 0.7256 -0.4088 0.212 -0.975 0.065 108 39 28 0 0
-0.8846 0.7259 -0.4091 0.350 -0.903 -0.250 108 40 30 0 0
-0.8824 0.7286 -0.4099 0.636 -0.771 -0.047 107 39 30 0 0
-0.8587 0.7504 -0.4169 0.520 -0.622 0.585 111 43 31 0 0
-0.8560 0.7516 -0.4174 0.386 -0.718 0.579 113 43 32 0 0
-0.7494 0.7923 -0.4359 -0.113 -0.617 0.779 202 118 101 0 0
-0.7478 0.7980 -0.4373 0.233 -0.519 0.822 202 116 101 0 0
-0.7470 0.8072 -0.4394 0.587 -0.186 0.788 199 119 101 0 0
-0.7451 0.8117 -0.4406 0.565 -0.159 0.809 200 120 102 0 0
-0.7425 0.8137 -0.4413 0.549 -0.183 0.816 201 124 108 0 0
-0.7406 0.8185 -0.4425 0.796 -0.121 0.593 201 125 109 0 0
-0.7404 0.8686 -0.4536 0.964 0.050 0.260 196 116 102 0 0
-0.7427 0.9185 -0.4644 0.826 0.184 0.532 193 142 125 0 0
-0.7289 0.8880 -0.4589 0.425 0.129 0.896 189 158 139 0 0
-0.6633 0.9846 -0.4862 -0.199 -0.389 0.899 191 166 141 0 0
-0.6070 1.0304 -0.5013 0.768 -0.197 0.610 183 159 137 0 0
-0.5421 1.0468 -0.5108 0.068 -0.427 0.902 188 166 145 0 0
-0.5394 1.0528 -0.5123 -0.046 -0.307 0.951 176 154 131 0 0
-0.5360 1.0521 -0.5125 0.175 -0.400 0.899 185 163 143 0 0
-0.5330 1.0559 -0.5136 0.712 -0.337 0.616 196 177 160 0 0
-0.5301 1.0594 -0.5146 0.790 -0.345 0.507 201 183 167 0 0
-0.5272 1.0643 -0.5160 0.809 -0.338 0.481 202 185 169 0 0
-0.4699 1.1000 -0.5290 0.495 -0.773 0.397 177 154 130 0 0
-0.4207 1.1161 -0.5370 0.402 -0.500 0.767 178 157 135 0 0
-0.4174 1.1170 -0.5375 0.662 -0.492 0.565 179 156 136 0 0
-0.4142 1.1183 -0.5380 0.438 -0.663 0.607 179 158 138 0 0
-0.3550 1.1335 -0.5467 0.537 -0.099 0.838 174 152 133 0 0
-0.3517 1.1388 -0.5482 0.541 -0.120 0.833 176 154 135 0 0
-0.1840 1.2254 -0.5823 0.474 -0.339 0.813 172 151 132 0 0
-0.0985 1.2883 -0.6039 0.822 -0.392 0.412 181 164 149 0 0
-0.0140 1.3464 -0.6243 0.869 -0.430 0.245 178 164 151 0 0
0.0164 1.3505 -0.6279 0.815 -0.574 0.077 179 165 155 0 0
0.0216 1.3612 -0.6308 0.815 -0.579 0.009 180 165 157 0 0
0.0255 1.3644 -0.6318 0.841 -0.527 0.124 182 168 161 0 0
0.0956 1.3863 -0.6430 0.720 -0.150 0.677 168 153 142 0 0
0.0989 1.3863 -0.6432 0.846 -0.288 0.449 175 161 151 0 0
0.1049 1.3988 -0.6466 0.865 -0.313 0.393 184 171 162 0 0
0.1232 1.4073 -0.6501 0.292 -0.314 0.903 188 177 171 0 0
0.1258 1.4045 -0.6497 0.527 -0.316 0.789 186 176 169 0 0
0.1303 1.4097 -0.6512 0.364 -0.281 0.888 185 175 168 0 0
-1.6845 0.5156 -0.2942 -0.118 -0.819 0.561 134 107 84 0 0
-1.6618 0.5088 -0.2947 -0.243 -0.727 0.642 188 168 139 0 0
-1.5294 0.5588 -0.3176 0.135 -0.808 0.574 172 144 115 0 0
-1.5255 0.5585 -0.3179 -0.032 -0.826 0.563 173 146 117 0 0
-1.5209 0.5575 -0.3180 -0.155 -0.870 0.468 173 147 118 0 0
-1.4877 0.5774 -0.3254 0.445 -0.047 0.894 179 154 126 0 0
-1.3402 0.6847 -0.3625 0.515 -0.261 0.816 174 148 121 0 0
-1.2674 0.7050 -0.3735 0.243 -0.967 0.073 179 145 117 0 0
-1.2579 0.7125 -0.3760 0.766 -0.351 -0.539 172 137 108 0 0
-1.2524 0.7208 -0.3784 0.623 -0.749 -0.224 166 130 98 0 0
-1.2482 0.7255 -0.3798 0.665 -0.729 -0.159 167 131 102 0 0
-1.2455 0.7269 -0.3803 0.329 -0.748 0.576 167 129 100 0 0
-1.2265 0.7252 -0.3816 0.525 -0.577 0.625 166 127 98 0 0
-1.2237 0.7441 -0.3861 0.228 -0.689 0.688 187 152 124 0 0
-1.1646 0.7719 -0.3976 0.492 -0.623 0.609 183 128 107 0 0
-1.1627 0.7751 -0.3984 0.755 -0.372 0.539 203 152 126 0 0
-1.0501 0.6469 -0.3798 -0.334 -0.639 0.693 215 94 66 0 0
-1.0511 0.6868 -0.3887 0.470 -0.842 -0.267 213 88 55 0 0
-1.0485 0.6881 -0.3892 0.312 -0.943 -0.118 212 85 53 0 0
-0.9627 0.6697 -0.3927 0.432 -0.874 0.223 138 46 32 0 0
-0.9578 0.6728 -0.3938 0.834 -0.512 0.205 138 45 30 0 0
-0.9551 0.6739 -0.3943 0.519 -0.801 0.298 139 46 32 0 0
-0.9526 0.6753 -0.3948 0.519 -0.801 0.298 139 46 31 0 0
-0.9513 0.6797 -0.3959 0.297 -0.549 0.781 139 46 29 0 0
-0.9480 0.6792 -0.3961 0.663 -0.679 0.315 140 45 30 0 0
-0.9341 0.7137 -0.4051 0.248 -0.684 0.686 187 67 47 0 0
-0.9318 0.7158 -0.4057 0.456 -0.577 0.677 188 68 48 0 0
-0.9283 0.7150 -0.4059 0.696 -0.658 0.288 188 67 47 0 0
-0.9260 0.7172 -0.4066 0.696 -0.658 0.288 186 66 44 0 0
-0.9233 0.7185 -0.4071 0.708 -0.623 0.334 186 65 45 0 0
-0.9210 0.7208 -0.4078 0.569 -0.754 0.328 185 64 43 0 0
-0.8877 0.7247 -0.4116 0.109 -0.962 0.250 112 41 31 0 0
-0.8558 0.7497 -0.4201 0.197 -0.717 0.669 114 45 33 0 0
-0.7651 0.7801 -0.4349 0.437 -0.387 0.812 201 113 89 0 0
-0.7492 0.7899 -0.4385 0.096 -0.657 0.748 202 120 101 0 0
