ply
format ascii 1.0
element vertex 822
property float x
property float y
property float z
property float nx
property float ny
property float nz
property uchar diffuse_red
property uchar diffuse_green
property uchar diffuse_blue
property uchar class
property uchar detection
end_header
-0.3064 1.0682 -0.6092 0.259 -0.955 0.142 143 121 107 0 0
-0.3041 1.0690 -0.6080 0.051 -0.997 -0.066 137 116 101 0 0
-0.3008 1.0689 -0.6063 -0.030 -0.952 0.304 129 109 91 0 0
-0.2984 1.0695 -0.6051 -0.043 -0.896 0.442 131 110 94 0 0
-0.2990 1.0784 -0.6054 0.469 0.048 0.882 153 130 116 0 0
-0.2811 1.0816 -0.5961 0.826 -0.036 0.562 171 155 142 0 0
-0.2796 1.0831 -0.5953 0.780 -0.419 0.466 169 152 138 0 0
-0.2787 1.0851 -0.5949 0.806 -0.411 0.426 163 146 130 0 0
-0.2765 1.0857 -0.5937 0.641 -0.725 0.253 155 136 122 0 0
-0.2706 1.1082 -0.5905 0.389 -0.136 0.911 167 149 135 0 0
-0.2741 1.1431 -0.5921 0.534 0.221 0.816 173 154 140 0 0
-0.2695 1.1471 -0.5897 0.419 -0.894 0.160 158 139 125 0 0
-0.2671 1.1476 -0.5885 0.414 -0.795 0.444 193 176 161 0 0
-0.2634 1.1496 -0.5866 0.534 -0.675 0.509 201 189 172 0 0
-0.2618 1.1566 -0.5857 0.560 -0.253 0.789 166 147 132 0 0
-0.2609 1.1615 -0.5852 0.618 0.151 0.772 138 116 102 0 0
-0.2605 1.1640 -0.5850 0.595 -0.397 0.699 137 115 102 0 0
-0.2605 1.1669 -0.5850 0.349 -0.822 0.449 139 117 104 0 0
-0.2592 1.1714 -0.5843 0.325 -0.425 0.845 149 127 112 0 0
-0.2557 1.1765 -0.5824 0.032 -0.960 0.277 163 142 125 0 0
-0.2552 1.1790 -0.5822 0.218 -0.974 -0.060 161 140 123 0 0
-0.2559 1.2065 -0.5824 0.551 -0.036 0.834 169 150 131 0 0
-0.2274 1.2074 -0.5677 0.747 -0.237 0.621 178 166 155 0 0
-0.2267 1.2275 -0.5672 0.352 -0.841 0.411 160 141 128 0 0
-0.2254 1.2320 -0.5664 0.537 -0.390 0.748 158 139 126 0 0
-0.2262 1.2391 -0.5669 0.754 0.179 0.632 154 133 121 0 0
-0.2264 1.2424 -0.5669 0.788 0.278 0.549 154 133 120 0 0
-0.2265 1.2455 -0.5670 0.755 0.356 0.550 156 137 123 0 0
-0.2317 1.2579 -0.5696 0.710 0.342 0.615 169 150 136 0 0
-0.2334 1.2629 -0.5704 0.675 0.132 0.726 177 158 144 0 0
-0.2338 1.2666 -0.5706 0.470 -0.090 0.878 173 153 139 0 0
-0.2138 1.2700 -0.5603 0.102 -0.812 0.575 164 145 130 0 0
-0.2121 1.2710 -0.5594 0.214 -0.770 0.601 170 151 136 0 0
-0.2120 1.2739 -0.5593 0.476 -0.065 0.877 171 152 138 0 0
-0.2116 1.2765 -0.5591 0.706 0.125 0.697 170 150 136 0 0
-0.2128 1.2811 -0.5597 0.787 0.240 0.569 166 146 132 0 0
-0.2118 1.2830 -0.5591 0.827 0.281 0.486 165 144 130 0 0
-0.2128 1.2874 -0.5596 0.785 0.195 0.588 172 153 140 0 0
-0.2139 1.2951 -0.5602 0.589 -0.110 0.801 169 150 134 0 0
-0.2137 1.2979 -0.5600 0.557 -0.236 0.796 166 148 132 0 0
-0.2123 1.2993 -0.5593 0.611 -0.097 0.786 155 134 118 0 0
-0.2100 1.3059 -0.5581 0.644 -0.011 0.765 159 138 122 0 0
-0.2063 1.3233 -0.5561 -0.159 -0.897 0.413 160 139 122 0 0
-0.1987 1.3164 -0.5522 -0.057 -0.895 -0.443 166 147 131 0 0
-0.1937 1.3321 -0.5495 0.348 -0.691 0.633 198 190 179 0 0
-0.1926 1.3337 -0.5489 0.487 -0.194 0.851 191 180 168 0 0
-0.1924 1.3368 -0.5488 0.680 0.036 0.732 165 149 134 0 0
-0.1926 1.3402 -0.5489 0.680 0.036 0.732 159 140 125 0 0
-0.1927 1.3436 -0.5489 0.680 0.036 0.732 160 141 125 0 0
-0.1913 1.3448 -0.5482 0.492 0.024 0.870 161 143 127 0 0
-0.1804 1.3589 -0.5425 0.209 0.108 0.972 167 148 133 0 0
-0.1689 1.4049 -0.5363 0.457 0.178 0.872 164 147 132 0 0
-0.1698 1.4231 -0.5366 0.550 0.012 0.835 163 145 130 0 0
-0.1705 1.4276 -0.5370 0.838 -0.004 0.545 158 141 125 0 0
-0.1695 1.4466 -0.5363 0.678 -0.441 0.588 146 125 112 0 0
-0.1526 1.4753 -0.5274 0.213 0.021 0.977 169 150 136 0 0
-0.1374 1.4783 -0.5196 -0.001 -0.676 -0.737 165 147 132 0 0
-0.6125 0.2047 -0.7746 -0.005 -0.781 0.624 178 158 137 0 0
-0.6085 0.2142 -0.7724 0.421 -0.888 0.187 164 142 119 0 0
-0.6115 0.2478 -0.7738 0.828 -0.555 -0.081 147 125 105 0 0
-0.6070 0.2518 -0.7714 0.439 -0.853 0.283 134 111 94 0 0
-0.6017 0.2768 -0.7686 0.829 -0.396 -0.395 155 132 110 0 0
-0.5662 0.3805 -0.7497 -0.037 -0.769 0.638 172 150 128 0 0
-0.5536 0.4018 -0.7431 0.844 0.455 0.284 157 132 114 0 0
-0.5526 0.4058 -0.7425 0.978 0.051 -0.200 169 144 121 0 0
-0.5345 0.4324 -0.7330 0.191 -0.619 0.761 183 165 144 0 0
-0.5326 0.4343 -0.7320 0.191 -0.619 0.761 182 163 140 0 0
-0.5337 0.4447 -0.7325 0.539 -0.803 -0.254 165 143 121 0 0
-0.5164 0.4506 -0.7235 0.845 -0.309 0.437 165 142 124 0 0
-0.5170 0.4588 -0.7238 0.833 -0.357 0.422 182 165 148 0 0
-0.5166 0.4608 -0.7236 0.997 -0.075 0.016 178 160 141 0 0
-0.4819 0.5811 -0.7050 0.167 -0.303 0.938 169 144 122 0 0
-0.4792 0.5825 -0.7036 0.689 -0.549 0.473 168 143 122 0 0
-0.4704 0.6198 -0.6989 0.975 0.222 0.010 173 147 128 0 0
-0.4399 0.6279 -0.6830 0.625 -0.272 0.732 189 171 154 0 0
-0.4396 0.6301 -0.6829 0.531 -0.331 0.780 190 174 157 0 0
-0.4319 0.6697 -0.6786 0.694 -0.717 0.064 179 159 142 0 0
-0.4307 0.6715 -0.6780 0.926 -0.310 -0.215 178 159 143 0 0
-0.4296 0.6733 -0.6775 0.870 -0.452 -0.196 178 158 141 0 0
-0.4317 0.6969 -0.6784 0.275 -0.927 0.256 200 185 168 0 0
-0.4059 0.7486 -0.6648 0.818 -0.552 0.160 195 177 159 0 0
-0.4034 0.7521 -0.6635 0.933 -0.330 0.141 199 182 165 0 0
-0.3922 0.8258 -0.6573 0.549 -0.395 0.737 181 159 141 0 0
-0.3718 0.8612 -0.6466 0.781 -0.592 0.200 177 155 134 0 0
-0.3709 0.8632 -0.6461 0.843 -0.532 0.077 174 149 130 0 0
-0.3698 0.8650 -0.6455 0.843 -0.532 0.077 172 146 128 0 0
-0.3697 0.8674 -0.6454 0.955 -0.100 0.281 166 139 121 0 0
-0.3660 0.8677 -0.6435 0.908 -0.418 0.043 158 131 112 0 0
-0.3659 0.8701 -0.6434 0.579 -0.788 0.210 156 129 110 0 0
-0.3608 0.8745 -0.6408 0.412 0.040 0.910 155 128 110 0 0
-0.3538 0.8801 -0.6372 0.704 -0.592 0.394 174 149 133 0 0
-0.3472 0.8859 -0.6337 0.908 -0.371 0.192 179 157 141 0 0
-0.3580 0.9081 -0.6392 0.605 -0.768 0.212 151 129 112 0 0
-0.3633 0.9193 -0.6419 0.922 0.387 0.030 154 131 117 0 0
-0.3397 0.9446 -0.6295 0.826 0.507 0.246 160 136 118 0 0
-0.3421 0.9489 -0.6307 0.981 -0.141 -0.135 152 126 109 0 0
-0.3421 0.9515 -0.6307 0.914 -0.250 -0.319 149 124 106 0 0
-0.3416 0.9538 -0.6304 0.860 -0.410 -0.304 153 129 112 0 0
-0.3404 0.9555 -0.6298 0.807 -0.590 -0.024 146 120 104 0 0
-0.3168 0.9669 -0.6176 0.879 -0.036 0.475 168 145 129 0 0
-0.3313 0.9938 -0.6249 0.860 0.510 -0.006 156 130 113 0 0
-0.3338 0.9984 -0.6262 0.716 -0.602 -0.354 160 137 119 0 0
-0.3217 0.9997 -0.6199 -0.219 -0.976 0.004 155 129 112 0 0
-0.3179 0.9994 -0.6180 -0.214 -0.962 -0.172 160 134 117 0 0
-0.3019 0.9947 -0.6097 0.853 0.049 0.519 177 160 147 0 0
-0.3020 0.9974 -0.6097 0.761 -0.606 0.232 180 164 151 0 0
-0.3002 0.9985 -0.6088 0.681 -0.722 0.122 180 164 150 0 0
-0.3055 1.0161 -0.6114 0.797 0.561 0.222 164 145 132 0 0
-0.3081 1.0264 -0.6127 0.602 -0.691 -0.400 184 166 150 0 0
-0.2955 1.0788 -0.6060 0.486 0.127 0.865 157 134 118 0 0
-0.2812 1.0797 -0.5985 0.624 -0.060 0.779 162 144 130 0 0
-0.2802 1.0816 -0.5980 0.892 0.031 0.450 164 146 132 0 0
-0.2797 1.0839 -0.5977 0.926 -0.121 0.357 161 143 128 0 0
-0.2777 1.0848 -0.5967 0.941 -0.305 0.145 148 130 116 0 0
-0.2765 1.0865 -0.5961 0.771 -0.637 0.033 144 126 112 0 0
-0.2748 1.0877 -0.5952 0.448 -0.892 -0.063 146 126 112 0 0
-0.2708 1.0950 -0.5931 0.266 -0.630 0.730 154 132 117 0 0
-0.2689 1.1016 -0.5921 0.510 0.256 0.821 163 143 129 0 0
-0.2646 1.1229 -0.5897 0.680 0.511 0.526 169 150 135 0 0
-0.2675 1.1286 -0.5912 0.665 0.478 0.573 169 150 135 0 0
-0.2667 1.1306 -0.5908 0.686 0.375 0.624 172 154 139 0 0
-0.2673 1.1456 -0.5910 0.428 -0.771 0.472 183 166 149 0 0
-0.2590 1.1632 -0.5866 0.496 -0.539 0.681 142 120 107 0 0
-0.2596 1.1668 -0.5869 0.618 -0.770 0.161 141 120 107 0 0
-0.2580 1.1709 -0.5860 0.425 -0.521 0.740 147 125 111 0 0
-0.2571 1.1730 -0.5856 0.713 -0.037 0.700 153 131 116 0 0
-0.2552 1.1768 -0.5846 0.375 -0.854 0.361 161 139 123 0 0
-0.2537 1.1781 -0.5838 0.325 -0.898 0.295 159 138 121 0 0
-0.2518 1.1791 -0.5828 0.325 -0.898 0.295 159 137 121 0 0
-0.2501 1.1831 -0.5819 0.526 -0.850 0.031 161 140 123 0 0
-0.2488 1.1906 -0.5812 0.739 0.458 0.494 161 139 120 0 0
-0.2516 1.1966 -0.5826 0.739 0.458 0.494 156 135 116 0 0
-0.2535 1.2046 -0.5835 0.920 0.122 0.372 165 144 126 0 0
-0.2545 1.2088 -0.5841 0.676 -0.034 0.736 167 146 130 0 0
-0.2262 1.2068 -0.5694 0.747 -0.237 0.621 189 177 166 0 0
-0.2252 1.2236 -0.5688 0.509 0.241 0.826 167 149 138 0 0
-0.2258 1.2273 -0.5691 0.432 -0.855 0.287 165 146 134 0 0
-0.2244 1.2287 -0.5684 0.756 0.165 0.633 165 147 135 0 0
-0.2249 1.2323 -0.5686 0.894 -0.005 0.447 164 146 132 0 0
-0.2249 1.2353 -0.5686 0.894 -0.005 0.447 150 129 117 0 0
-0.2245 1.2379 -0.5684 0.840 0.271 0.470 149 127 115 0 0
-0.2256 1.2422 -0.5689 0.844 0.279 0.457 151 129 117 0 0
-0.2257 1.2454 -0.5690 0.880 0.303 0.367 148 129 114 0 0
-0.2119 1.2684 -0.5617 0.118 -0.884 0.453 163 144 129 0 0
-0.2099 1.2691 -0.5607 0.573 -0.809 0.130 169 150 135 0 0
-0.2120 1.2966 -0.5616 0.557 -0.236 0.796 173 155 140 0 0
-0.2106 1.2981 -0.5609 0.798 -0.111 0.592 165 146 131 0 0
-0.2086 1.3017 -0.5598 0.662 -0.007 0.750 158 137 120 0 0
-0.2080 1.3042 -0.5595 0.589 -0.081 0.804 161 140 123 0 0
-0.2078 1.3070 -0.5593 0.397 -0.075 0.915 157 136 119 0 0
-0.2071 1.3093 -0.5590 0.186 -0.137 0.973 151 129 112 0 0
-0.1969 1.3149 -0.5537 -0.092 -0.925 -0.370 162 143 128 0 0
-0.1943 1.3146 -0.5523 -0.160 -0.965 -0.207 168 150 134 0 0
-0.1944 1.3179 -0.5524 -0.133 -0.675 0.726 172 155 140 0 0
-0.1907 1.3321 -0.5504 0.487 -0.194 0.851 196 187 177 0 0
-0.1905 1.3350 -0.5503 0.611 -0.001 0.792 182 169 157 0 0
-0.1907 1.3385 -0.5503 0.669 0.073 0.740 166 147 130 0 0
-0.1909 1.3420 -0.5504 0.669 0.073 0.740 160 140 123 0 0
-0.1891 1.3428 -0.5495 0.724 0.085 0.685 161 142 127 0 0
-0.1697 1.3771 -0.5393 0.716 0.386 0.581 159 139 124 0 0
-0.1713 1.3861 -0.5401 0.486 -0.032 0.873 161 143 129 0 0
-0.1678 1.4109 -0.5381 0.459 0.107 0.882 148 129 115 0 0
-0.1704 1.4421 -0.5393 0.802 0.347 0.486 153 131 118 0 0
-0.1678 1.4450 -0.5380 0.554 -0.391 0.735 144 125 112 0 0
-0.1382 1.4806 -0.5224 -0.029 -0.766 -0.642 164 145 130 0 0
-0.1296 1.4732 -0.5180 0.128 -0.524 -0.842 166 149 133 0 0
-0.5939 0.2083 -0.7671 0.913 0.171 0.370 175 153 132 0 0
-0.5903 0.2122 -0.7653 0.740 -0.659 0.134 168 146 125 0 0
-0.6124 0.2442 -0.7766 0.854 0.124 0.505 169 147 126 0 0
-0.6107 0.2481 -0.7757 0.829 -0.517 0.214 151 128 108 0 0
-0.6051 0.2521 -0.7728 0.317 -0.863 0.392 145 122 103 0 0
-0.5929 0.2773 -0.7664 0.452 -0.892 -0.024 160 136 114 0 0
-0.5884 0.2927 -0.7640 0.451 -0.834 0.319 165 141 121 0 0
-0.5832 0.2947 -0.7612 0.995 -0.084 0.062 166 143 120 0 0
-0.5823 0.3219 -0.7606 -0.111 -0.667 0.737 160 136 119 0 0
-0.5782 0.3237 -0.7585 -0.103 -0.643 0.759 175 154 134 0 0
-0.5730 0.3256 -0.7558 -0.107 -0.715 0.691 179 157 136 0 0
-0.5560 0.3466 -0.7468 0.640 -0.643 -0.422 166 143 122 0 0
-0.5535 0.3523 -0.7455 0.910 0.070 -0.409 173 151 132 0 0
-0.5560 0.3544 -0.7468 0.783 0.109 0.612 173 152 133 0 0
-0.5324 0.4325 -0.7342 0.336 -0.726 0.600 184 166 146 0 0
-0.5304 0.4343 -0.7332 0.336 -0.726 0.600 184 166 146 0 0
-0.5217 0.4435 -0.7286 0.732 -0.503 0.459 164 141 119 0 0
-0.5208 0.4454 -0.7281 0.590 -0.789 0.174 153 128 109 0 0
-0.5174 0.4490 -0.7264 0.765 -0.597 0.242 156 130 112 0 0
-0.5157 0.4508 -0.7255 0.978 -0.207 -0.001 171 149 130 0 0
-0.5113 0.4769 -0.7231 0.710 -0.351 0.610 190 175 159 0 0
-0.5250 0.5024 -0.7301 0.654 -0.320 0.686 185 165 140 0 0
-0.5252 0.5046 -0.7302 0.569 -0.464 0.679 178 155 131 0 0
-0.4853 0.5285 -0.7093 0.311 -0.914 0.260 176 154 134 0 0
-0.4779 0.5848 -0.7053 0.509 -0.638 0.577 158 132 112 0 0
-0.4781 0.5936 -0.7053 0.742 0.657 0.136 163 139 120 0 0
-0.4419 0.6246 -0.6864 0.999 -0.042 0.031 171 148 128 0 0
-0.4417 0.6267 -0.6862 0.980 -0.197 -0.012 183 164 147 0 0
-0.4381 0.6278 -0.6844 0.871 -0.444 -0.209 188 171 155 0 0
-0.4380 0.6299 -0.6843 0.870 -0.194 0.452 188 170 154 0 0
-0.4363 0.6627 -0.6833 0.889 -0.355 0.291 183 160 140 0 0
-0.4287 0.6985 -0.6792 0.571 -0.819 0.054 202 188 172 0 0
-0.4112 0.7235 -0.6700 0.392 -0.857 -0.335 179 157 136 0 0
-0.4068 0.7239 -0.6677 0.653 -0.752 -0.088 176 151 131 0 0
-0.4064 0.7307 -0.6675 0.498 -0.622 0.605 179 154 137 0 0
-0.4058 0.7467 -0.6671 0.869 -0.204 0.451 181 162 141 0 0
-0.4039 0.7482 -0.6661 0.991 -0.135 0.013 191 173 155 0 0
-0.4033 0.7502 -0.6658 0.972 0.151 0.179 197 180 162 0 0
-0.4021 0.7520 -0.6651 0.761 -0.604 -0.237 195 177 159 0 0
-0.4022 0.7544 -0.6652 0.858 -0.508 0.070 192 174 156 0 0
-0.4012 0.7563 -0.6647 0.696 -0.699 0.164 187 168 148 0 0
-0.4001 0.7582 -0.6641 0.678 -0.665 0.313 184 164 145 0 0
-0.3933 0.8220 -0.6603 0.460 -0.499 0.735 181 158 140 0 0
-0.3911 0.8233 -0.6591 0.606 -0.355 0.712 187 165 148 0 0
-0.3994 0.8478 -0.6633 0.323 0.235 0.917 167 140 121 0 0
-0.3782 0.8556 -0.6523 0.628 -0.614 -0.478 172 148 128 0 0
-0.3764 0.8570 -0.6513 0.784 -0.499 -0.371 178 156 135 0 0
-0.3695 0.8604 -0.6477 0.875 -0.315 0.368 179 155 136 0 0
-0.3694 0.8628 -0.6477 0.874 -0.407 0.266 175 150 131 0 0
-0.3686 0.8649 -0.6473 0.874 -0.407 0.266 170 145 126 0 0
-0.3678 0.8669 -0.6468 0.874 -0.407 0.266 169 142 124 0 0
-0.3655 0.8679 -0.6456 0.837 -0.544 -0.059 156 128 110 0 0
-0.3640 0.8696 -0.6449 0.708 -0.706 0.008 147 120 103 0 0
-0.3644 0.8748 -0.6450 0.493 -0.459 0.739 153 126 108 0 0
-0.3600 0.8746 -0.6427 0.306 -0.196 0.932 159 132 112 0 0
-0.3543 0.8785 -0.6397 0.446 -0.229 0.865 181 162 144 0 0
-0.3528 0.8801 -0.6390 0.704 -0.592 0.394 182 163 144 0 0
-0.3515 0.8818 -0.6383 0.593 -0.798 0.108 184 164 146 0 0
-0.3488 0.8851 -0.6369 0.520 -0.714 0.468 172 149 131 0 0
-0.3464 0.8860 -0.6356 0.813 -0.478 0.333 175 152 137 0 0
-0.3463 0.9061 -0.6355 0.898 -0.008 -0.440 156 134 119 0 0
-0.3531 0.9182 -0.6390 0.958 0.286 0.029 174 151 137 0 0
-0.3427 0.9526 -0.6334 0.930 -0.203 -0.306 148 123 104 0 0
-0.3386 0.9575 -0.6313 0.541 -0.741 -0.398 135 111 93 0 0
-0.3148 0.9660 -0.6189 0.935 -0.351 0.054 166 143 126 0 0
-0.3298 0.9986 -0.6265 0.153 -0.834 0.530 161 135 117 0 0
-0.3253 0.9978 -0.6242 -0.016 -0.911 0.411 153 128 110 0 0
-0.3204 0.9993 -0.6216 -0.212 -0.786 0.581 154 130 112 0 0
-0.2976 0.9971 -0.6098 0.840 -0.388 0.381 182 165 154 0 0
-0.3050 1.0164 -0.6135 0.795 0.572 0.205 167 148 134 0 0
-0.3088 1.0222 -0.6155 0.910 0.386 0.149 174 156 141 0 0
-0.3082 1.0271 -0.6152 0.479 -0.801 -0.358 188 171 155 0 0
-0.3067 1.0286 -0.6144 0.199 -0.911 -0.360 189 173 154 0 0
-0.2957 1.0547 -0.6085 0.001 -0.099 0.995 181 161 143 0 0
-0.2921 1.0764 -0.6066 0.462 0.045 0.886 152 129 112 0 0
-0.2793 1.0814 -0.5999 0.892 0.031 0.450 161 143 128 0 0
-0.2783 1.0832 -0.5994 0.975 -0.114 0.191 146 128 112 0 0
-0.2775 1.0853 -0.5989 0.856 -0.517 0.033 137 119 106 0 0
-0.2761 1.0868 -0.5983 0.771 -0.637 0.033 137 117 104 0 0
-0.2744 1.0880 -0.5974 0.444 -0.893 -0.077 128 108 94 0 0
-0.2712 1.0877 -0.5957 0.165 -0.910 -0.380 131 111 98 0 0
-0.2676 1.1323 -0.5936 0.287 -0.048 0.957 175 156 141 0 0
-0.2663 1.1454 -0.5929 0.602 -0.701 0.382 187 170 154 0 0
-0.2657 1.1477 -0.5926 0.551 -0.782 0.292 184 168 151 0 0
-0.2556 1.1692 -0.5872 0.345 -0.381 0.858 151 129 113 0 0
-0.2548 1.1712 -0.5868 0.527 -0.348 0.775 151 128 113 0 0
-0.2551 1.1746 -0.5870 0.552 0.193 0.811 156 135 118 0 0
-0.2501 1.1721 -0.5843 -0.094 -0.883 0.459 158 136 120 0 0
-0.2523 1.2011 -0.5854 0.737 0.149 0.659 163 142 122 0 0
-0.2338 1.2044 -0.5758 -0.128 -0.911 0.393 180 162 146 0 0
-0.2242 1.2053 -0.5708 0.562 -0.248 0.789 195 186 177 0 0
-0.2224 1.2332 -0.5697 0.876 0.216 0.430 152 133 121 0 0
-0.2233 1.2373 -0.5702 0.840 0.271 0.470 152 131 119 0 0
-0.2241 1.2413 -0.5706 0.874 0.319 0.367 147 126 111 0 0
-0.2253 1.2457 -0.5712 0.945 0.273 0.181 143 124 109 0 0
-0.2301 1.2638 -0.5736 0.628 -0.065 0.776 160 138 121 0 0
-0.2292 1.2658 -0.5731 0.484 -0.493 0.723 161 140 125 0 0
-0.2286 1.2682 -0.5728 0.553 -0.279 0.785 153 131 115 0 0
-0.2102 1.2672 -0.5632 0.117 -0.828 0.549 168 149 132 0 0
-0.2091 1.2689 -0.5626 0.525 -0.809 0.264 173 154 138 0 0
-0.2089 1.2968 -0.5624 0.695 -0.054 0.717 179 161 146 0 0
-0.2070 1.2974 -0.5614 0.658 0.186 0.729 180 163 148 0 0
-0.2067 1.3002 -0.5613 0.764 -0.092 0.639 170 150 134 0 0
-0.2064 1.3029 -0.5611 0.749 -0.090 0.656 162 140 123 0 0
-0.2051 1.3044 -0.5604 0.602 -0.063 0.796 153 132 115 0 0
-0.1903 1.3165 -0.5527 0.264 -0.512 0.817 174 156 142 0 0
-0.1897 1.3348 -0.5522 0.788 0.187 0.587 189 177 164 0 0
-0.1901 1.3386 -0.5525 0.840 0.182 0.511 168 151 133 0 0
-0.1905 1.3423 -0.5526 0.880 0.184 0.439 160 140 124 0 0
-0.1897 1.3445 -0.5522 0.996 0.077 0.048 161 142 127 0 0
-0.1861 1.3428 -0.5504 -0.052 -0.920 -0.388 162 142 127 0 0
-0.1793 1.3462 -0.5468 -0.141 -0.946 0.290 175 159 142 0 0
-0.1767 1.3457 -0.5455 -0.151 -0.843 0.517 174 157 141 0 0
-0.1740 1.3451 -0.5440 -0.166 -0.839 0.519 172 155 140 0 0
-0.1716 1.3450 -0.5428 0.742 -0.251 0.622 169 152 136 0 0
-0.1694 1.3777 -0.5415 0.820 0.422 0.387 167 150 135 0 0
-0.1683 1.3793 -0.5409 0.666 0.324 0.672 163 145 130 0 0
-0.1681 1.3856 -0.5408 0.325 -0.825 0.462 159 141 126 0 0
-0.1654 1.3882 -0.5394 0.631 -0.683 -0.369 164 146 130 0 0
-0.1651 1.4145 -0.5391 0.892 0.277 0.356 158 139 124 0 0
-0.1429 1.4860 -0.5273 0.239 -0.422 0.874 156 138 124 0 0
-0.1319 1.4782 -0.5216 0.120 -0.567 -0.815 162 145 130 0 0
-0.5954 0.2030 -0.7702 0.847 -0.283 0.451 176 157 137 0 0
-0.5920 0.2087 -0.7684 0.813 -0.547 -0.200 172 150 129 0 0
-0.5917 0.2757 -0.7680 0.907 0.344 0.244 156 131 112 0 0
-0.5925 0.2776 -0.7684 0.452 -0.892 -0.024 164 139 117 0 0
-0.5759 0.2950 -0.7597 0.811 -0.374 -0.451 166 144 122 0 0
-0.5772 0.2970 -0.7604 0.950 -0.253 -0.181 170 147 128 0 0
-0.5686 0.3065 -0.7559 0.348 -0.827 0.441 178 157 137 0 0
-0.5713 0.3085 -0.7573 0.083 -0.870 0.486 173 152 132 0 0
-0.5724 0.3259 -0.7578 0.110 -0.028 0.993 172 149 128 0 0
-0.5475 0.3427 -0.7447 0.979 0.195 -0.063 153 128 108 0 0
-0.5479 0.3446 -0.7449 0.979 0.195 -0.063 154 131 110 0 0
-0.5570 0.3469 -0.7497 0.714 -0.337 -0.614 161 138 117 0 0
-0.5537 0.3507 -0.7479 0.707 -0.242 -0.665 168 145 124 0 0
-0.5533 0.3526 -0.7477 0.739 -0.393 -0.548 168 146 124 0 0
-0.5582 0.3806 -0.7502 -0.018 -0.900 0.436 169 148 124 0 0
-0.5192 0.4455 -0.7296 0.675 -0.489 0.552 149 124 106 0 0
-0.5179 0.4474 -0.7289 0.726 -0.592 0.349 149 123 105 0 0
-0.5167 0.4493 -0.7283 0.829 -0.468 0.306 157 133 111 0 0
-0.5170 0.4534 -0.7284 0.988 -0.092 -0.124 176 158 141 0 0
-0.5168 0.4554 -0.7283 0.956 -0.223 -0.192 176 157 140 0 0
-0.5116 0.4567 -0.7256 0.878 -0.453 0.157 172 152 135 0 0
-0.5060 0.4764 -0.7226 0.414 -0.814 0.407 190 174 158 0 0
-0.5221 0.5044 -0.7309 0.410 -0.191 0.892 196 176 152 0 0
-0.4838 0.5286 -0.7109 0.311 -0.914 0.260 177 155 134 0 0
-0.4833 0.5455 -0.7106 0.110 -0.009 0.994 171 149 131 0 0
-0.4737 0.5624 -0.7055 0.845 -0.518 0.135 175 153 133 0 0
-0.4589 0.6194 -0.6975 -0.100 -0.791 0.604 171 145 129 0 0
-0.4365 0.6277 -0.6858 0.959 -0.278 0.053 186 169 152 0 0
-0.4378 0.6303 -0.6865 0.980 -0.180 0.087 184 167 148 0 0
-0.4347 0.6626 -0.6848 0.923 -0.212 0.321 182 161 142 0 0
-0.4330 0.6938 -0.6838 0.390 -0.731 0.560 192 175 155 0 0
-0.4312 0.6954 -0.6829 0.315 -0.926 0.207 193 176 157 0 0
-0.4285 0.6966 -0.6815 0.315 -0.926 0.207 195 179 161 0 0
-0.4284 0.6988 -0.6814 0.806 -0.464 0.367 199 183 167 0 0
-0.4152 0.7211 -0.6744 0.306 -0.514 0.801 174 149 128 0 0
-0.4066 0.7243 -0.6699 0.754 -0.604 -0.257 170 145 125 0 0
-0.4056 0.7285 -0.6694 0.993 -0.117 0.024 170 144 125 0 0
-0.4061 0.7310 -0.6696 0.697 -0.686 0.210 171 147 128 0 0
-0.4078 0.7341 -0.6705 0.526 -0.415 0.743 170 145 129 0 0
-0.4049 0.7468 -0.6689 0.869 -0.204 0.451 182 160 142 0 0
-0.4029 0.7482 -0.6679 0.926 -0.169 0.337 187 167 149 0 0
-0.4024 0.7503 -0.6677 0.879 -0.034 0.475 190 172 154 0 0
-0.4017 0.7523 -0.6673 0.769 -0.613 0.181 196 177 161 0 0
-0.4004 0.7541 -0.6666 0.786 -0.595 0.168 192 173 157 0 0
-0.4032 0.7840 -0.6680 0.035 -0.972 0.231 176 151 130 0 0
-0.3939 0.8452 -0.6629 0.401 0.386 0.831 168 143 123 0 0
-0.3687 0.8605 -0.6497 0.875 -0.315 0.368 177 155 134 0 0
-0.3683 0.8627 -0.6495 0.887 -0.400 0.233 179 155 135 0 0
-0.3682 0.8651 -0.6494 0.761 -0.576 0.297 170 145 125 0 0
-0.3672 0.8671 -0.6489 0.834 -0.385 0.395 165 138 121 0 0
-0.3653 0.8684 -0.6479 0.837 -0.544 -0.059 152 125 106 0 0
-0.3641 0.8702 -0.6473 0.837 -0.544 -0.059 141 116 97 0 0
-0.3630 0.8720 -0.6467 0.615 -0.785 0.070 143 117 98 0 0
-0.3629 0.8744 -0.6466 0.503 -0.599 0.623 158 132 113 0 0
-0.3576 0.8737 -0.6439 0.457 -0.338 0.823 170 146 126 0 0
-0.3565 0.8755 -0.6433 0.338 -0.286 0.897 180 159 144 0 0
-0.3541 0.8765 -0.6420 0.707 -0.033 0.707 195 179 164 0 0
-0.3524 0.8779 -0.6411 0.768 -0.359 0.530 201 188 173 0 0
-0.3516 0.8799 -0.6407 0.836 -0.454 0.307 198 184 169 0 0
-0.3508 0.8819 -0.6403 0.686 -0.696 0.211 191 175 159 0 0
-0.3455 0.8860 -0.6375 0.748 -0.453 0.484 169 147 132 0 0
-0.3456 0.8886 -0.6375 0.804 -0.276 0.526 171 150 134 0 0
-0.3419 0.9500 -0.6354 0.912 0.380 0.152 166 142 122 0 0
-0.3438 0.9540 -0.6364 0.863 -0.499 -0.083 156 130 109 0 0
-0.3429 0.9560 -0.6359 0.744 -0.578 -0.335 138 113 95 0 0
-0.3148 0.9666 -0.6212 0.933 -0.345 -0.105 161 138 121 0 0
-0.3139 0.9685 -0.6207 0.934 0.174 -0.313 162 139 123 0 0
-0.3122 0.9698 -0.6198 0.778 -0.034 -0.628 164 141 125 0 0
-0.3125 0.9727 -0.6200 0.790 0.250 -0.560 165 142 125 0 0
-0.3147 0.9770 -0.6211 0.781 0.107 -0.615 160 137 120 0 0
-0.3007 0.9923 -0.6138 0.559 -0.070 0.826 169 149 135 0 0
-0.3008 1.0163 -0.6137 0.455 -0.808 -0.374 173 154 139 0 0
-0.2991 1.0176 -0.6129 0.737 -0.676 -0.022 186 169 155 0 0
-0.3089 1.0284 -0.6179 0.250 -0.922 -0.295 195 180 165 0 0
-0.3012 1.0274 -0.6139 -0.038 -0.882 -0.469 199 185 171 0 0
-0.3007 1.0296 -0.6136 0.550 0.212 0.808 194 179 162 0 0
-0.2784 1.0785 -0.6018 0.979 -0.144 0.141 185 172 159 0 0
-0.2782 1.0811 -0.6017 0.998 -0.027 0.058 172 157 144 0 0
-0.2776 1.0833 -0.6014 0.958 -0.288 -0.010 156 137 125 0 0
-0.2772 1.0857 -0.6012 0.865 -0.501 0.027 145 126 112 0 0
-0.2762 1.0875 -0.6006 0.763 -0.637 0.107 142 123 109 0 0
-0.2740 1.0883 -0.5995 0.399 -0.917 -0.003 126 108 94 0 0
-0.2710 1.0883 -0.5980 0.137 -0.948 -0.289 116 98 84 0 0
-0.2651 1.1449 -0.5947 0.230 -0.956 0.184 187 170 155 0 0
-0.2651 1.1478 -0.5947 0.427 -0.885 0.183 181 162 146 0 0
-0.2595 1.1478 -0.5917 0.541 -0.694 0.475 176 159 144 0 0
-0.2541 1.1567 -0.5889 0.690 0.181 0.701 153 132 115 0 0
-0.2537 1.1592 -0.5887 0.539 -0.257 0.802 154 133 116 0 0
-0.2536 1.1678 -0.5886 0.291 -0.100 0.951 152 131 116 0 0
-0.2533 1.1704 -0.5884 0.291 -0.100 0.951 151 129 114 0 0
-0.2530 1.1730 -0.5882 0.291 -0.100 0.951 151 129 114 0 0
-0.2459 1.2038 -0.5844 -0.274 -0.933 0.235 171 151 135 0 0
-0.2387 1.2047 -0.5807 0.008 -0.665 0.747 186 169 151 0 0
-0.2350 1.2036 -0.5788 -0.198 -0.959 0.201 180 163 147 0 0
-0.2325 1.2037 -0.5775 0.154 -0.987 -0.040 180 163 148 0 0
-0.2312 1.2052 -0.5768 0.157 -0.986 0.055 180 165 150 0 0
-0.2279 1.2045 -0.5751 0.067 -0.877 0.476 195 183 171 0 0
-0.2222 1.2337 -0.5720 0.916 0.250 0.313 160 142 129 0 0
-0.2231 1.2379 -0.5725 0.916 0.250 0.313 158 139 126 0 0
-0.2231 1.2408 -0.5724 0.869 0.362 0.338 146 127 112 0 0
-0.2236 1.2446 -0.5727 0.831 0.321 0.454 141 123 108 0 0
-0.2267 1.2636 -0.5742 0.409 -0.264 0.873 154 132 118 0 0
-0.2087 1.2692 -0.5648 0.774 -0.630 0.061 166 146 129 0 0
-0.2054 1.2682 -0.5631 0.489 -0.269 0.829 177 159 142 0 0
-0.2050 1.2957 -0.5628 0.611 0.191 0.768 184 168 154 0 0
-0.2027 1.3053 -0.5616 0.756 -0.025 0.654 147 125 109 0 0
-0.2022 1.3079 -0.5613 0.670 -0.235 0.704 148 127 110 0 0
-0.2017 1.3103 -0.5610 0.722 -0.251 0.645 146 124 110 0 0
-0.2011 1.3127 -0.5607 0.768 -0.308 0.561 140 120 106 0 0
-0.1897 1.3134 -0.5548 0.190 -0.126 0.974 163 147 131 0 0
-0.1885 1.3150 -0.5541 0.275 -0.512 0.814 171 154 139 0 0
-0.1874 1.3166 -0.5535 0.275 -0.512 0.814 174 157 144 0 0
-0.1882 1.3336 -0.5539 0.788 0.187 0.587 187 174 159 0 0
-0.1888 1.3377 -0.5542 0.777 0.277 0.564 171 154 136 0 0
-0.1895 1.3419 -0.5545 0.926 0.112 0.360 159 140 125 0 0
-0.1897 1.3454 -0.5546 0.993 0.117 -0.027 161 142 127 0 0
-0.1654 1.3467 -0.5419 0.029 -0.857 0.515 161 143 127 0 0
-0.1688 1.3777 -0.5436 0.890 0.413 0.193 169 152 136 0 0
-0.1681 1.3800 -0.5433 0.960 0.192 0.204 164 147 131 0 0
-0.1687 1.3842 -0.5436 0.947 0.006 0.322 159 141 126 0 0
-0.1652 1.3889 -0.5417 0.837 -0.538 0.102 161 144 128 0 0
-0.1616 1.3902 -0.5398 0.677 -0.632 0.378 165 148 133 0 0
-0.1465 1.4409 -0.5318 0.474 0.049 0.879 172 157 139 0 0
-0.1459 1.4571 -0.5314 0.870 -0.085 0.486 177 160 145 0 0
-0.1442 1.4681 -0.5305 0.971 0.236 -0.033 164 144 130 0 0
-0.1390 1.4806 -0.5277 0.350 -0.033 0.936 155 138 123 0 0
-0.1384 1.4832 -0.5274 0.380 -0.851 0.363 153 136 118 0 0
-0.1371 1.4844 -0.5267 0.072 -0.673 -0.736 158 141 124 0 0
-0.5920 0.2053 -0.7706 0.974 0.156 -0.164 177 158 136 0 0
-0.6080 0.2262 -0.7790 0.581 -0.625 0.521 169 147 124 0 0
-0.5907 0.2608 -0.7699 0.442 -0.797 0.412 161 136 115 0 0
-0.5899 0.2760 -0.7694 0.878 -0.274 0.393 150 125 105 0 0
-0.5891 0.2780 -0.7689 0.738 -0.603 0.302 156 133 112 0 0
-0.5813 0.2876 -0.7649 0.948 -0.313 -0.055 151 125 106 0 0
-0.5805 0.2896 -0.7644 0.992 -0.101 -0.077 157 131 110 0 0
-0.5776 0.2934 -0.7629 0.862 -0.430 -0.270 167 145 123 0 0
-0.5765 0.2953 -0.7623 0.862 -0.430 -0.270 167 143 120 0 0
-0.5761 0.2973 -0.7621 0.881 -0.471 0.046 166 142 122 0 0
-0.5739 0.2992 -0.7610 0.771 -0.385 0.507 166 144 122 0 0
-0.5725 0.3011 -0.7602 0.734 -0.462 0.497 168 146 124 0 0
-0.5704 0.3030 -0.7591 0.295 -0.809 0.508 171 149 126 0 0
-0.5695 0.3049 -0.7586 0.223 -0.475 0.851 171 149 128 0 0
-0.5665 0.3068 -0.7571 0.318 -0.871 0.374 171 150 131 0 0
-0.5636 0.3087 -0.7555 0.290 -0.925 0.245 168 145 127 0 0
-0.5597 0.3106 -0.7535 0.500 -0.797 0.339 163 139 119 0 0
-0.5599 0.3473 -0.7535 0.803 -0.369 -0.469 157 132 112 0 0
-0.5587 0.3493 -0.7528 0.803 -0.369 -0.469 160 135 115 0 0
-0.5576 0.3531 -0.7523 0.845 0.061 -0.531 163 141 121 0 0
-0.5567 0.3570 -0.7518 0.713 -0.687 0.136 165 141 120 0 0
-0.5426 0.3878 -0.7443 0.927 -0.203 0.316 180 157 135 0 0
-0.5396 0.4056 -0.7427 0.833 0.500 0.235 143 118 102 0 0
-0.5238 0.4262 -0.7344 0.074 -0.847 0.526 181 160 139 0 0
-0.5166 0.4476 -0.7306 0.835 -0.369 0.408 149 125 105 0 0
-0.5158 0.4495 -0.7302 0.829 -0.468 0.306 160 136 115 0 0
-0.5229 0.4670 -0.7338 0.385 -0.861 -0.334 153 129 112 0 0
-0.5218 0.4689 -0.7332 0.361 -0.929 -0.085 149 128 111 0 0
-0.5142 0.4698 -0.7292 0.468 -0.855 0.224 142 121 104 0 0
-0.5061 0.4747 -0.7250 0.486 -0.754 0.442 175 157 139 0 0
-0.5042 0.4765 -0.7240 0.486 -0.754 0.442 182 165 149 0 0
-0.5198 0.5044 -0.7321 0.242 0.003 0.970 189 169 145 0 0
-0.5207 0.5067 -0.7325 0.154 -0.601 0.784 168 145 122 0 0
-0.4823 0.5287 -0.7124 0.311 -0.914 0.260 177 155 136 0 0
-0.4784 0.5299 -0.7103 0.864 -0.106 0.493 178 157 138 0 0
-0.4788 0.5321 -0.7105 0.952 0.238 0.190 177 157 138 0 0
-0.4800 0.5558 -0.7111 0.752 -0.602 0.269 166 140 123 0 0
-0.4726 0.5626 -0.7072 0.760 -0.570 0.312 178 156 135 0 0
-0.4721 0.5646 -0.7070 0.881 -0.449 0.150 181 159 140 0 0
-0.4708 0.6190 -0.7061 0.496 0.819 0.289 172 147 127 0 0
-0.4374 0.6306 -0.6886 0.982 -0.188 -0.012 177 157 137 0 0
-0.4338 0.6627 -0.6866 0.996 -0.082 0.039 180 158 138 0 0
-0.4345 0.6675 -0.6870 0.748 -0.559 -0.359 210 196 180 0 0
-0.4230 0.6790 -0.6810 0.828 -0.445 0.343 177 158 137 0 0
-0.4225 0.6811 -0.6807 0.965 -0.092 0.244 190 172 153 0 0
-0.4132 0.7001 -0.6758 0.970 -0.172 0.170 188 168 150 0 0
-0.4046 0.7308 -0.6712 0.656 -0.633 0.411 163 139 118 0 0
-0.4022 0.7461 -0.6699 0.952 -0.032 0.306 174 150 133 0 0
-0.4022 0.7484 -0.6699 0.952 -0.032 0.306 176 154 135 0 0
-0.4021 0.7507 -0.6698 0.837 -0.532 -0.132 182 160 141 0 0
-0.4004 0.7522 -0.6689 0.730 -0.623 -0.280 194 176 157 0 0
-0.4002 0.7545 -0.6688 0.842 -0.504 0.195 200 183 167 0 0
-0.3990 0.7563 -0.6682 0.784 -0.577 0.229 200 183 167 0 0
-0.3987 0.7585 -0.6680 0.576 -0.663 0.478 197 181 165 0 0
-0.3980 0.7605 -0.6676 0.576 -0.549 0.606 191 173 156 0 0
-0.3965 0.7622 -0.6669 0.380 -0.699 0.605 182 160 143 0 0
-0.3997 0.7827 -0.6685 -0.002 -0.921 0.390 186 164 143 0 0
-0.3790 0.7985 -0.6576 0.836 -0.194 0.513 183 160 144 0 0
-0.3814 0.8022 -0.6589 0.487 0.459 0.743 177 155 141 0 0
-0.3833 0.8056 -0.6598 0.460 0.440 0.771 174 150 136 0 0
-0.3884 0.8401 -0.6624 0.558 0.503 0.660 166 141 122 0 0
-0.3741 0.8543 -0.6549 0.865 -0.488 0.113 169 144 124 0 0
-0.3671 0.8626 -0.6512 0.962 -0.160 0.223 171 148 128 0 0
-0.3646 0.8685 -0.6499 0.701 -0.704 -0.118 155 131 112 0 0
-0.3629 0.8700 -0.6490 0.795 -0.584 -0.165 157 133 113 0 0
-0.3628 0.8724 -0.6489 0.746 -0.658 -0.105 171 146 127 0 0
-0.3618 0.8743 -0.6484 0.751 -0.636 0.178 179 157 137 0 0
-0.3537 0.8768 -0.6441 0.834 -0.499 0.236 197 183 168 0 0
-0.3515 0.8779 -0.6430 0.846 -0.402 0.349 200 188 173 0 0
-0.3507 0.8799 -0.6426 0.831 -0.412 0.373 202 189 175 0 0
-0.3496 0.8817 -0.6420 0.674 -0.658 0.334 197 183 170 0 0
-0.3446 0.8860 -0.6394 0.681 -0.729 0.074 166 144 129 0 0
-0.3445 0.8884 -0.6393 0.804 -0.276 0.526 162 142 125 0 0
-0.3483 0.9060 -0.6412 0.992 -0.094 -0.084 176 157 143 0 0
-0.3481 0.9084 -0.6411 0.977 -0.185 -0.106 180 162 146 0 0
-0.3243 0.9252 -0.6286 0.668 0.409 0.622 172 149 131 0 0
-0.3250 0.9309 -0.6290 0.863 0.496 -0.095 171 148 129 0 0
-0.3143 0.9669 -0.6233 0.905 -0.421 -0.057 156 132 113 0 0
-0.3148 0.9698 -0.6235 0.993 0.061 0.101 158 133 115 0 0
-0.3186 0.9965 -0.6255 0.764 0.321 0.559 153 126 109 0 0
-0.2982 1.0041 -0.6148 0.933 0.355 -0.056 174 157 144 0 0
-0.3079 1.0282 -0.6198 -0.261 -0.917 0.301 188 171 155 0 0
-0.2968 1.0271 -0.6140 0.313 0.015 0.950 189 173 158 0 0
-0.2910 1.0411 -0.6109 0.398 0.211 0.893 188 170 155 0 0
-0.2916 1.0443 -0.6112 0.333 0.175 0.926 192 176 161 0 0
-0.2804 1.0755 -0.6053 0.932 -0.359 -0.051 190 176 161 0 0
-0.2780 1.0817 -0.6040 0.998 -0.027 0.058 186 173 158 0 0
-0.2774 1.0839 -0.6037 0.958 -0.288 -0.010 178 163 147 0 0
-0.2767 1.0860 -0.6033 0.874 -0.479 0.077 171 152 136 0 0
-0.2755 1.0876 -0.6027 0.758 -0.562 0.331 161 142 127 0 0
-0.2730 1.0881 -0.6014 0.275 -0.831 0.484 152 135 120 0 0
-0.2549 1.1014 -0.5918 0.489 -0.303 0.818 177 158 144 0 0
-0.2459 1.1721 -0.5870 -0.017 -0.260 0.966 154 133 114 0 0
-0.2403 1.2014 -0.5840 -0.236 -0.824 0.515 167 146 129 0 0
-0.2385 1.2023 -0.5830 -0.002 -0.731 0.682 170 149 134 0 0
-0.2316 1.2035 -0.5794 0.334 -0.940 -0.076 174 155 140 0 0
-0.2295 1.2041 -0.5783 0.329 -0.907 -0.261 176 159 144 0 0
-0.2261 1.2032 -0.5765 -0.031 -0.997 -0.067 184 167 154 0 0
-0.2168 1.2043 -0.5716 0.534 -0.629 0.565 187 175 164 0 0
-0.2156 1.2060 -0.5710 0.593 -0.472 0.653 185 173 163 0 0
-0.2154 1.2086 -0.5709 0.676 0.017 0.737 178 164 152 0 0
-0.2160 1.2123 -0.5712 0.679 0.125 0.723 171 155 142 0 0
-0.2188 1.2245 -0.5726 0.822 0.172 0.543 162 145 133 0 0
-0.2205 1.2326 -0.5735 0.983 0.185 0.011 168 151 138 0 0
-0.2215 1.2368 -0.5740 0.930 0.251 0.269 165 147 136 0 0
-0.2203 1.2384 -0.5734 0.842 0.339 0.419 156 138 124 0 0
-0.2083 1.2696 -0.5670 0.774 -0.630 0.061 168 147 131 0 0
-0.2070 1.2711 -0.5663 0.774 -0.630 0.061 169 149 134 0 0
-0.2063 1.2733 -0.5659 0.517 -0.790 0.329 170 151 134 0 0
-0.2043 1.2738 -0.5649 0.553 -0.158 0.818 168 148 131 0 0
-0.2022 1.2929 -0.5637 0.607 0.048 0.793 181 165 151 0 0
-0.2006 1.2972 -0.5629 0.689 -0.478 0.545 174 157 139 0 0
-0.2005 1.3002 -0.5628 0.969 -0.241 0.051 169 151 135 0 0
-0.2007 1.3036 -0.5629 0.992 -0.006 0.126 156 136 119 0 0
-0.1987 1.3041 -0.5619 0.966 0.068 0.250 151 131 114 0 0
-0.1989 1.3075 -0.5620 0.966 0.068 0.250 144 125 109 0 0
-0.1993 1.3112 -0.5622 0.922 0.141 0.360 137 118 103 0 0
-0.1858 1.3122 -0.5551 0.289 0.017 0.957 168 150 135 0 0
-0.1865 1.3322 -0.5554 0.664 0.267 0.698 177 161 142 0 0
-0.1865 1.3354 -0.5554 0.750 0.361 0.554 167 149 130 0 0
-0.1885 1.3415 -0.5565 0.761 0.352 0.545 161 142 127 0 0
-0.1887 1.3450 -0.5565 0.951 0.150 0.271 161 143 127 0 0
-0.1684 1.3423 -0.5459 0.262 -0.010 0.965 160 141 126 0 0
-0.1686 1.3458 -0.5460 0.344 0.032 0.938 159 140 125 0 0
-0.1643 1.3688 -0.5437 0.930 0.367 0.025 171 153 139 0 0
-0.1660 1.3745 -0.5446 0.951 0.286 -0.116 165 148 135 0 0
-0.1660 1.3811 -0.5446 0.981 -0.093 -0.170 159 141 126 0 0
-0.1654 1.3836 -0.5443 0.850 -0.397 -0.348 157 139 125 0 0
-0.1648 1.3892 -0.5439 0.688 -0.722 0.074 164 146 133 0 0
-0.1614 1.3908 -0.5421 0.632 -0.759 0.159 166 149 136 0 0
-0.1441 1.4380 -0.5330 0.476 0.060 0.877 176 160 145 0 0
-0.1345 1.4742 -0.5278 0.314 0.112 0.943 152 134 119 0 0
-0.1341 1.4769 -0.5276 0.265 -0.056 0.963 151 133 118 0 0
-0.1284 1.4708 -0.5246 0.968 0.188 0.168 154 136 121 0 0
-0.5905 0.2184 -0.7721 0.853 -0.354 -0.384 162 139 118 0 0
-0.5880 0.2370 -0.7708 0.190 -0.851 0.489 171 149 126 0 0
-0.5849 0.2651 -0.7691 0.833 -0.496 0.247 155 130 109 0 0
-0.5878 0.2802 -0.7706 0.500 -0.551 0.668 156 131 110 0 0
-0.5730 0.2976 -0.7628 0.822 -0.568 -0.023 163 138 116 0 0
-0.5568 0.3109 -0.7542 0.385 -0.745 0.544 169 147 126 0 0
-0.5544 0.3128 -0.7529 0.577 0.050 0.815 165 142 124 0 0
-0.5610 0.3186 -0.7564 0.493 0.749 0.443 173 152 137 0 0
-0.5669 0.3206 -0.7595 0.027 -0.352 0.935 173 152 133 0 0
-0.5672 0.3225 -0.7597 0.072 -0.269 0.960 172 152 133 0 0
-0.5660 0.3244 -0.7590 0.088 -0.331 0.940 171 150 130 0 0
-0.5646 0.3264 -0.7583 0.054 -0.073 0.996 169 148 126 0 0
-0.5603 0.3496 -0.7560 0.835 -0.540 -0.105 156 133 110 0 0
-0.5590 0.3515 -0.7553 0.773 -0.428 -0.468 158 136 114 0 0
-0.5545 0.3572 -0.7529 0.661 -0.735 -0.150 159 134 114 0 0
-0.5670 0.3758 -0.7595 0.424 -0.864 -0.272 175 154 130 0 0
-0.5624 0.3776 -0.7571 0.324 -0.938 -0.125 179 157 134 0 0
-0.5575 0.3792 -0.7545 0.294 -0.934 -0.202 173 151 128 0 0
-0.5517 0.3809 -0.7514 0.319 -0.947 -0.019 173 151 129 0 0
-0.5377 0.4058 -0.7440 0.906 0.292 0.305 141 115 99 0 0
-0.5383 0.4078 -0.7443 0.906 0.292 0.305 134 111 95 0 0
-0.5209 0.4262 -0.7351 0.777 -0.381 0.501 182 161 141 0 0
-0.5163 0.4479 -0.7327 0.977 0.001 0.215 154 130 110 0 0
-0.5166 0.4500 -0.7329 0.997 -0.053 0.053 160 138 117 0 0
-0.5181 0.4543 -0.7336 0.947 0.224 -0.231 170 150 133 0 0
-0.5189 0.5025 -0.7340 0.004 -0.129 0.992 195 176 155 0 0
-0.4813 0.5267 -0.7142 0.405 -0.883 -0.236 175 153 132 0 0
-0.4817 0.5566 -0.7143 0.903 -0.425 0.054 166 141 123 0 0
-0.4727 0.5651 -0.7096 0.782 -0.373 0.500 179 157 136 0 0
-0.4706 0.5668 -0.7085 0.588 -0.302 0.750 180 159 140 0 0
-0.4370 0.6309 -0.6907 0.929 -0.256 -0.267 167 144 126 0 0
-0.4373 0.6332 -0.6909 0.625 -0.780 0.004 166 144 125 0 0
-0.4299 0.6506 -0.6869 0.751 0.013 0.660 188 168 151 0 0
-0.4309 0.6576 -0.6874 0.495 0.413 0.765 175 154 133 0 0
-0.4332 0.6629 -0.6886 0.996 0.062 -0.069 181 161 141 0 0
-0.4335 0.6653 -0.6888 0.996 -0.082 0.039 190 174 155 0 0
-0.4348 0.6680 -0.6895 0.777 -0.581 -0.241 205 191 173 0 0
-0.4331 0.6697 -0.6886 0.906 -0.393 -0.157 203 188 169 0 0
-0.4321 0.6716 -0.6881 0.800 -0.501 -0.329 184 166 148 0 0
-0.4186 0.6778 -0.6809 0.828 -0.560 -0.032 188 170 150 0 0
-0.4147 0.6875 -0.6789 0.219 -0.905 0.366 194 177 157 0 0
-0.4082 0.6917 -0.6755 0.665 -0.688 0.292 192 174 156 0 0
-0.4073 0.6936 -0.6750 0.833 -0.189 0.520 191 172 155 0 0
-0.4092 0.7080 -0.6760 0.986 -0.144 -0.078 174 151 131 0 0
-0.4129 0.7118 -0.6779 0.640 -0.753 -0.149 171 146 124 0 0
-0.4115 0.7136 -0.6772 0.769 -0.617 0.168 168 143 122 0 0
-0.4103 0.7154 -0.6765 0.719 -0.621 0.312 170 145 124 0 0
-0.4098 0.7174 -0.6763 0.544 -0.661 0.517 173 148 127 0 0
-0.4078 0.7189 -0.6752 0.506 -0.795 0.334 173 148 128 0 0
-0.4024 0.7257 -0.6724 0.433 -0.335 0.837 167 142 122 0 0
-0.4011 0.7507 -0.6716 0.926 -0.169 0.337 171 146 129 0 0
-0.4001 0.7526 -0.6711 0.890 -0.455 0.007 183 164 145 0 0
-0.3996 0.7547 -0.6709 0.842 -0.504 0.195 199 183 167 0 0
-0.3973 0.7583 -0.6696 0.389 -0.660 0.642 207 194 180 0 0
-0.3959 0.7600 -0.6689 0.433 -0.671 0.602 204 190 175 0 0
-0.3945 0.7617 -0.6681 0.243 -0.715 0.656 193 175 158 0 0
-0.3926 0.7632 -0.6672 0.218 -0.704 0.676 187 166 149 0 0
-0.3780 0.7985 -0.6594 0.836 -0.194 0.513 186 165 147 0 0
-0.3799 0.8212 -0.6603 0.462 -0.672 0.578 177 154 136 0 0
-0.3793 0.8233 -0.6600 0.721 -0.213 0.660 177 153 134 0 0
-0.3882 0.8431 -0.6647 0.697 0.606 0.384 169 142 124 0 0
-0.3655 0.8646 -0.6527 0.903 0.029 0.428 166 143 122 0 0
-0.3654 0.8671 -0.6527 0.856 -0.265 0.445 160 135 114 0 0
-0.3651 0.8694 -0.6525 0.696 -0.709 -0.111 163 138 117 0 0
-0.3635 0.8709 -0.6516 0.696 -0.709 -0.111 168 145 125 0 0
-0.3628 0.8730 -0.6513 0.571 -0.740 -0.354 183 162 141 0 0
-0.3607 0.8742 -0.6502 0.663 -0.665 -0.344 187 166 147 0 0
-0.3580 0.8750 -0.6488 0.692 -0.640 -0.334 187 167 148 0 0
-0.3508 0.8780 -0.6450 0.803 -0.596 0.005 199 186 172 0 0
-0.3496 0.8798 -0.6443 0.775 -0.431 0.462 197 183 169 0 0
-0.3488 0.8817 -0.6439 0.728 -0.546 0.414 197 184 170 0 0
-0.3475 0.8834 -0.6432 0.599 -0.794 0.105 200 187 173 0 0
-0.3458 0.8848 -0.6423 0.599 -0.794 0.105 189 172 157 0 0
-0.3448 0.8867 -0.6418 0.717 -0.695 -0.045 173 153 139 0 0
-0.3439 0.8886 -0.6413 0.858 -0.494 0.139 156 134 121 0 0
-0.3444 0.8914 -0.6416 0.968 0.077 0.240 158 137 123 0 0
-0.3483 0.9015 -0.6436 0.980 -0.174 0.100 182 165 148 0 0
-0.3487 0.9043 -0.6438 0.992 -0.094 -0.084 181 163 147 0 0
-0.3484 0.9067 -0.6437 0.992 -0.094 -0.084 176 157 142 0 0
-0.3482 0.9091 -0.6436 0.977 -0.185 -0.106 179 160 145 0 0
-0.3487 0.9145 -0.6438 0.834 0.192 0.518 174 153 138 0 0
-0.3214 0.9238 -0.6294 0.881 0.447 0.156 171 149 130 0 0
-0.3215 0.9264 -0.6295 0.881 0.387 -0.272 176 154 135 0 0
-0.3280 0.9362 -0.6329 0.863 0.336 -0.377 167 144 126 0 0
-0.3361 0.9549 -0.6371 0.923 -0.329 0.198 141 116 99 0 0
-0.3318 0.9675 -0.6348 0.008 -0.861 -0.509 163 140 122 0 0
-0.3138 0.9671 -0.6254 0.801 -0.599 -0.017 148 124 106 0 0
-0.3151 0.9707 -0.6261 0.819 -0.004 0.573 152 126 108 0 0
-0.3141 0.9963 -0.6255 0.527 -0.610 0.592 153 128 111 0 0
-0.2945 0.9991 -0.6152 0.921 -0.206 -0.332 165 146 132 0 0
-0.2988 1.0053 -0.6174 0.933 0.355 -0.056 166 147 133 0 0
-0.2994 1.0084 -0.6177 0.892 0.437 0.115 163 144 132 0 0
-0.2896 1.0432 -0.6125 0.240 0.097 0.966 191 175 159 0 0
-0.2789 1.0804 -0.6068 0.980 -0.101 -0.169 186 170 154 0 0
-0.2767 1.0811 -0.6057 0.839 -0.254 0.481 188 172 157 0 0
-0.2756 1.0828 -0.6051 0.547 -0.569 0.614 182 165 151 0 0
-0.2744 1.0846 -0.6045 0.547 -0.569 0.614 170 152 137 0 0
-0.2563 1.0924 -0.5950 0.657 -0.062 0.752 156 134 119 0 0
-0.2546 1.0935 -0.5940 0.676 0.013 0.737 165 145 129 0 0
-0.2540 1.0957 -0.5937 0.610 -0.231 0.758 170 153 139 0 0
-0.2535 1.0980 -0.5935 0.688 -0.268 0.675 174 156 142 0 0
-0.2528 1.1001 -0.5931 0.633 -0.274 0.724 172 154 140 0 0
-0.2531 1.1032 -0.5933 0.492 -0.392 0.777 168 150 136 0 0
-0.2540 1.1124 -0.5937 0.740 -0.040 0.672 167 148 134 0 0
-0.2540 1.1153 -0.5937 0.885 0.244 0.396 168 149 135 0 0
-0.2560 1.1201 -0.5948 0.961 0.231 -0.154 166 147 133 0 0
-0.2571 1.1239 -0.5953 0.961 0.231 -0.154 171 152 138 0 0
-0.2577 1.1274 -0.5956 0.792 0.391 0.470 171 152 138 0 0
-0.2463 1.1675 -0.5896 0.278 0.202 0.939 154 132 114 0 0
-0.2434 1.1702 -0.5880 -0.030 -0.273 0.961 151 130 112 0 0
-0.2381 1.1967 -0.5852 -0.182 -0.526 0.831 168 146 129 0 0
-0.2338 1.2038 -0.5829 0.112 -0.501 0.858 166 145 127 0 0
-0.2308 1.2034 -0.5813 -0.077 -0.676 0.733 166 147 131 0 0
-0.2281 1.2033 -0.5799 -0.041 -0.724 0.688 169 150 135 0 0
-0.2145 1.1995 -0.5728 0.754 -0.634 0.172 180 166 154 0 0
-0.2146 1.2026 -0.5728 0.696 -0.706 0.135 178 165 153 0 0
-0.2140 1.2048 -0.5725 0.762 -0.565 0.316 179 166 155 0 0
-0.2133 1.2070 -0.5721 0.966 -0.130 0.223 174 157 146 0 0
-0.2149 1.2118 -0.5730 0.866 0.261 0.426 167 151 139 0 0
-0.2157 1.2188 -0.5734 0.909 0.297 0.291 164 146 135 0 0
-0.2177 1.2241 -0.5744 0.917 0.216 0.334 166 149 138 0 0
-0.2181 1.2275 -0.5746 0.870 0.260 0.418 168 151 137 0 0
-0.2200 1.2327 -0.5756 0.930 0.251 0.269 170 153 139 0 0
-0.2208 1.2368 -0.5760 0.976 0.209 0.056 167 151 140 0 0
-0.2211 1.2402 -0.5762 0.940 0.254 0.228 161 142 129 0 0
-0.2208 1.2428 -0.5760 0.855 0.282 0.435 157 137 122 0 0
-0.2224 1.2478 -0.5769 0.803 0.194 0.563 150 128 114 0 0
-0.2233 1.2520 -0.5773 0.771 0.233 0.592 153 130 116 0 0
-0.2218 1.2532 -0.5765 0.384 -0.216 0.898 154 132 118 0 0
-0.2242 1.2592 -0.5778 0.738 -0.001 0.675 145 124 110 0 0
-0.2244 1.2625 -0.5779 0.881 -0.234 0.412 143 121 107 0 0
-0.2229 1.2638 -0.5771 0.861 -0.366 0.353 140 121 107 0 0
-0.2221 1.2659 -0.5767 0.873 -0.345 0.346 139 117 103 0 0
-0.2095 1.2719 -0.5700 0.589 -0.799 0.122 166 145 127 0 0
-0.2067 1.2747 -0.5686 0.247 -0.967 0.055 163 142 125 0 0
-0.2034 1.2736 -0.5668 0.488 -0.445 0.751 163 142 126 0 0
-0.1995 1.2966 -0.5647 0.640 -0.535 0.552 177 160 144 0 0
-0.1992 1.2993 -0.5645 0.981 -0.098 -0.167 175 158 141 0 0
-0.1983 1.3045 -0.5641 0.941 0.058 -0.333 161 140 122 0 0
-0.1977 1.3069 -0.5638 0.963 0.235 -0.134 149 130 111 0 0
-0.1980 1.3103 -0.5639 0.931 0.349 0.107 140 120 106 0 0
-0.1993 1.3152 -0.5646 0.931 0.269 0.245 134 115 100 0 0
-0.2003 1.3197 -0.5651 0.850 0.226 0.476 142 123 108 0 0
-0.1847 1.3339 -0.5569 0.761 0.352 0.545 160 140 123 0 0
-0.1867 1.3399 -0.5579 0.761 0.352 0.545 158 137 123 0 0
-0.1654 1.3390 -0.5467 0.223 0.046 0.974 149 131 116 0 0
-0.1603 1.3477 -0.5440 0.347 -0.936 -0.058 162 143 128 0 0
-0.1637 1.3656 -0.5458 0.907 0.373 0.193 169 151 138 0 0
-0.1664 1.3728 -0.5472 0.907 0.373 0.193 171 153 140 0 0
-0.1665 1.3762 -0.5473 0.960 0.275 0.046 165 147 133 0 0
-0.1682 1.3821 -0.5481 0.988 0.139 -0.074 164 146 132 0 0
-0.1678 1.3848 -0.5479 0.957 -0.107 -0.270 165 147 133 0 0
-0.1658 1.3917 -0.5469 0.761 -0.434 -0.482 170 153 139 0 0
-0.1614 1.3984 -0.5445 0.601 -0.316 0.734 174 159 143 0 0
-0.1618 1.4058 -0.5447 0.860 0.374 0.346 162 143 129 0 0
-0.1551 1.4225 -0.5412 0.470 0.227 0.853 144 125 111 0 0
-0.1462 1.4458 -0.5364 0.404 -0.637 0.657 179 164 150 0 0
-0.1386 1.4507 -0.5325 0.870 -0.312 0.383 152 133 119 0 0
-0.1377 1.4562 -0.5320 0.932 0.350 0.094 146 128 114 0 0
-0.1384 1.4607 -0.5323 0.797 -0.034 0.603 146 128 114 0 0
-0.1382 1.4639 -0.5322 0.951 -0.197 0.237 149 130 116 0 0
-0.1400 1.4703 -0.5331 0.988 0.074 0.137 151 131 117 0 0
-0.5921 0.2167 -0.7752 0.835 -0.530 -0.150 160 135 114 0 0
-0.5912 0.2186 -0.7747 0.838 -0.485 -0.249 160 135 115 0 0
-0.5919 0.2204 -0.7751 0.681 0.669 0.297 161 136 115 0 0
-0.5886 0.2728 -0.7733 0.983 0.087 -0.161 139 115 94 0 0
-0.5885 0.2747 -0.7733 0.926 -0.365 -0.090 138 116 97 0 0
-0.5795 0.2921 -0.7685 0.990 -0.003 0.138 151 128 107 0 0
-0.5731 0.2978 -0.7651 0.499 -0.721 0.482 163 139 115 0 0
-0.5522 0.3131 -0.7541 0.494 -0.050 0.868 177 160 142 0 0
-0.5612 0.3208 -0.7588 0.026 -0.431 0.902 179 161 144 0 0
-0.5600 0.3227 -0.7582 0.065 0.021 0.998 178 159 142 0 0
-0.5597 0.3246 -0.7580 0.046 -0.094 0.994 177 157 138 0 0
-0.5601 0.3266 -0.7582 0.055 0.026 0.998 172 152 131 0 0
-0.5625 0.3481 -0.7595 0.671 0.499 0.549 168 144 124 0 0
-0.5629 0.3501 -0.7597 0.502 -0.386 0.774 159 134 113 0 0
-0.5607 0.3519 -0.7585 0.591 -0.764 -0.259 158 135 115 0 0
-0.5461 0.3828 -0.7508 0.481 -0.875 -0.060 176 154 132 0 0
-0.5394 0.4164 -0.7472 0.014 -0.559 0.829 127 105 86 0 0
-0.5227 0.4247 -0.7384 0.300 -0.833 0.465 176 154 131 0 0
-0.5212 0.4265 -0.7376 0.632 -0.474 0.613 179 158 137 0 0
-0.5152 0.5085 -0.7344 0.081 0.219 0.972 159 134 112 0 0
-0.4799 0.5268 -0.7158 0.469 -0.857 -0.216 173 151 130 0 0
-0.4758 0.5343 -0.7136 0.525 -0.597 0.607 180 159 140 0 0
-0.4769 0.5580 -0.7141 0.695 -0.716 -0.066 178 155 134 0 0
-0.4751 0.5597 -0.7132 0.654 -0.650 0.388 190 169 149 0 0
-0.4744 0.5617 -0.7128 0.826 -0.386 0.411 181 159 139 0 0
-0.4669 0.5662 -0.7088 0.759 -0.098 0.644 178 154 135 0 0
-0.4356 0.6309 -0.6923 0.972 0.064 -0.226 161 136 116 0 0
-0.4368 0.6335 -0.6929 0.391 -0.896 -0.213 161 135 114 0 0
-0.4284 0.6483 -0.6885 0.911 -0.040 0.411 172 151 131 0 0
-0.4286 0.6506 -0.6885 0.871 -0.104 0.481 176 156 136 0 0
-0.4283 0.6527 -0.6884 0.806 -0.366 0.465 184 164 145 0 0
-0.4288 0.6573 -0.6887 0.496 0.448 0.743 174 153 132 0 0
-0.4283 0.6594 -0.6884 0.425 0.303 0.853 178 158 137 0 0
-0.4292 0.6620 -0.6889 0.425 0.303 0.853 184 166 147 0 0
-0.4313 0.6649 -0.6900 0.423 0.082 0.903 190 174 156 0 0
-0.4317 0.6696 -0.6902 0.417 0.096 0.904 197 182 163 0 0
-0.4137 0.6831 -0.6807 0.856 -0.460 -0.235 194 178 158 0 0
-0.4051 0.6932 -0.6761 0.660 -0.666 0.349 186 165 146 0 0
-0.4055 0.6956 -0.6763 0.945 -0.252 0.209 181 159 139 0 0
-0.4122 0.7120 -0.6798 0.598 -0.740 -0.308 174 148 129 0 0
-0.4084 0.7150 -0.6778 0.587 -0.753 -0.298 171 146 125 0 0
-0.4082 0.7172 -0.6777 0.650 -0.752 0.105 173 148 128 0 0
-0.4067 0.7189 -0.6769 0.506 -0.795 0.334 174 149 127 0 0
-0.4055 0.7206 -0.6763 0.393 -0.844 0.365 173 148 127 0 0
-0.4024 0.7239 -0.6747 0.526 -0.393 0.754 167 142 122 0 0
-0.4000 0.7530 -0.6734 0.726 -0.477 0.495 173 151 132 0 0
-0.3968 0.7562 -0.6717 0.467 -0.541 0.699 200 185 167 0 0
-0.3954 0.7579 -0.6709 0.344 -0.632 0.695 205 191 174 0 0
-0.3941 0.7597 -0.6703 0.271 -0.608 0.746 203 189 173 0 0
-0.3905 0.7626 -0.6684 0.218 -0.704 0.676 192 175 157 0 0
-0.3799 0.7952 -0.6627 0.868 -0.287 0.406 172 147 130 0 0
-0.3793 0.7973 -0.6625 0.868 -0.287 0.406 172 147 131 0 0
-0.3788 0.7994 -0.6622 0.878 -0.260 0.402 179 156 138 0 0
-0.3727 0.8226 -0.6589 0.644 -0.222 -0.732 162 135 116 0 0
-0.3863 0.8425 -0.6661 0.650 0.526 0.549 167 142 122 0 0
-0.3884 0.8487 -0.6672 0.744 0.545 0.386 175 151 130 0 0
-0.3623 0.8583 -0.6534 0.872 0.369 0.321 169 146 126 0 0
-0.3634 0.8615 -0.6540 0.872 0.369 0.321 172 148 128 0 0
-0.3611 0.8626 -0.6528 0.143 -0.565 0.812 169 146 126 0 0
-0.3597 0.8691 -0.6520 -0.080 -0.804 0.589 178 156 136 0 0
-0.3576 0.8704 -0.6509 0.100 -0.739 0.666 185 166 145 0 0
-0.3562 0.8720 -0.6502 0.222 -0.668 0.710 184 163 144 0 0
-0.3584 0.8758 -0.6513 0.871 -0.490 0.039 183 162 142 0 0
-0.3558 0.8767 -0.6500 0.430 -0.844 0.320 182 165 146 0 0
-0.3548 0.8786 -0.6494 0.511 -0.860 -0.016 188 172 154 0 0
-0.3498 0.8780 -0.6468 0.678 -0.556 0.481 191 177 161 0 0
-0.3484 0.8796 -0.6461 0.729 -0.331 0.599 193 179 164 0 0
-0.3479 0.8818 -0.6458 0.639 -0.602 0.478 194 181 165 0 0
-0.3432 0.8887 -0.6433 0.756 -0.653 -0.038 161 140 126 0 0
-0.3429 0.8911 -0.6432 0.931 -0.360 -0.067 158 136 122 0 0
-0.3479 0.9019 -0.6458 0.980 -0.168 0.108 180 163 147 0 0
-0.3481 0.9045 -0.6459 0.961 -0.213 0.176 184 166 151 0 0
-0.3483 0.9072 -0.6460 0.906 -0.071 0.417 183 166 150 0 0
-0.3482 0.9097 -0.6459 0.906 -0.071 0.417 183 164 149 0 0
-0.3502 0.9187 -0.6470 0.480 0.053 0.876 165 142 128 0 0
-0.3494 0.9207 -0.6465 0.465 -0.241 0.852 163 141 126 0 0
-0.3213 0.9243 -0.6317 0.889 0.458 0.022 170 148 130 0 0
-0.3234 0.9283 -0.6328 0.881 0.387 -0.272 174 151 134 0 0
-0.3277 0.9340 -0.6351 0.794 0.358 -0.491 175 153 136 0 0
-0.3136 0.9675 -0.6276 0.875 -0.455 -0.166 140 117 100 0 0
-0.3148 0.9711 -0.6282 0.901 0.123 0.417 145 120 103 0 0
-0.3122 0.9954 -0.6268 0.496 -0.863 0.097 152 127 110 0 0
-0.2949 1.0002 -0.6177 0.951 -0.018 -0.309 157 138 124 0 0
-0.2994 1.0064 -0.6201 0.933 0.355 -0.056 158 138 124 0 0
-0.2991 1.0088 -0.6199 0.900 0.426 -0.088 151 132 118 0 0
-0.3008 1.0129 -0.6208 0.862 0.480 0.162 145 123 109 0 0
-0.2884 1.0321 -0.6143 -0.069 -0.652 0.756 184 166 150 0 0
-0.2819 1.0318 -0.6108 0.920 0.312 0.237 178 160 146 0 0
-0.2846 1.0369 -0.6122 0.761 0.022 0.648 180 161 146 0 0
-0.2774 1.0550 -0.6084 0.631 0.025 0.775 179 160 145 0 0
-0.2746 1.0552 -0.6070 0.563 -0.347 0.750 173 153 136 0 0
-0.2738 1.0572 -0.6065 0.468 -0.599 0.650 175 155 138 0 0
-0.2728 1.0590 -0.6060 0.421 -0.899 0.123 178 161 144 0 0
-0.2586 1.0898 -0.5985 0.440 -0.811 0.387 150 128 113 0 0
-0.2567 1.0907 -0.5975 0.662 -0.271 0.698 148 127 110 0 0
-0.2538 1.0935 -0.5960 0.705 -0.424 0.568 156 137 119 0 0
-0.2530 1.0954 -0.5955 0.716 -0.473 0.513 164 145 130 0 0
-0.2529 1.1149 -0.5954 0.769 0.350 0.535 166 147 133 0 0
-0.2559 1.1264 -0.5971 0.586 0.224 0.778 166 148 134 0 0
-0.2471 1.1431 -0.5924 -0.247 -0.614 0.749 156 135 120 0 0
-0.2396 1.1525 -0.5884 0.261 0.187 0.947 157 137 121 0 0
-0.2434 1.1651 -0.5904 0.027 -0.107 0.994 151 129 113 0 0
-0.2415 1.1660 -0.5894 0.000 -0.197 0.980 150 128 111 0 0
-0.2351 1.1649 -0.5860 -0.251 -0.743 0.620 162 142 122 0 0
-0.2318 1.1788 -0.5843 0.369 0.442 0.817 162 141 124 0 0
-0.2348 1.1939 -0.5859 -0.084 -0.352 0.932 166 144 128 0 0
-0.2315 1.2020 -0.5841 0.338 -0.854 0.396 160 139 122 0 0
-0.2276 1.2005 -0.5820 0.495 -0.843 0.209 161 141 126 0 0
-0.2228 1.1980 -0.5795 0.541 -0.831 -0.125 162 142 127 0 0
-0.2219 1.2000 -0.5790 0.073 -0.994 0.083 161 142 127 0 0
