ply
format ascii 1.0
element vertex 806
property float x
property float y
property float z
property float nx
property float ny
property float nz
property uchar diffuse_red
property uchar diffuse_green
property uchar diffuse_blue
property uchar class
property uchar detection
end_header
-4.4921 -10.0929 -4.2930 -0.204 -0.026 0.979 223 222 227 0 0
-4.4632 -10.0689 -4.2863 -0.204 -0.026 0.979 223 222 227 0 0
-3.8516 -10.6738 -4.5434 -0.013 -0.210 0.978 223 222 228 0 0
-2.9954 -11.3180 -4.8307 0.059 0.574 0.817 220 220 228 0 0
-2.8810 -11.3857 -4.8625 -0.427 0.626 0.652 220 219 225 0 0
-2.2389 -11.3538 -4.8936 -0.759 0.541 0.364 213 211 215 0 0
-2.2152 -11.2982 -4.8752 -0.722 0.669 0.174 214 212 215 0 0
-2.1896 -11.2725 -4.8677 -0.722 0.669 0.174 215 213 218 0 0
-1.8981 -11.4543 -4.9521 -0.073 0.522 0.850 212 213 218 0 0
-12.1246 -7.8504 -2.9586 -0.208 0.130 0.969 220 211 202 0 0
-11.8294 -7.7605 -2.9462 -0.101 0.342 0.934 220 215 211 0 0
-5.3647 -9.7953 -4.1006 0.577 0.059 0.814 225 223 228 0 0
-5.3388 -9.8014 -4.1045 0.362 0.001 0.932 226 223 228 0 0
-5.3129 -9.8071 -4.1083 0.528 0.127 0.840 226 224 229 0 0
-5.1213 -9.9665 -4.1778 0.210 -0.106 0.972 225 222 228 0 0
-5.0963 -9.9810 -4.1846 0.204 -0.092 0.975 225 222 227 0 0
-4.9373 -10.0030 -4.2030 -0.101 -0.083 0.991 227 225 230 0 0
-4.8130 -9.8621 -4.1611 0.613 0.404 0.679 227 224 229 0 0
-4.7852 -10.0840 -4.2419 0.105 -0.012 0.994 225 223 228 0 0
-4.6329 -10.1753 -4.2846 -0.206 -0.070 0.976 224 221 227 0 0
-4.5781 -10.1679 -4.2856 -0.055 -0.125 0.991 225 222 228 0 0
-4.5480 -10.1359 -4.2762 0.542 -0.062 0.838 225 222 229 0 0
-4.5234 -10.1608 -4.2867 0.334 -0.175 0.926 225 223 229 0 0
-4.1465 -10.5597 -4.4538 0.069 -0.192 0.979 222 221 227 0 0
-4.1196 -10.5691 -4.4589 0.323 -0.193 0.927 222 221 226 0 0
-4.0910 -10.5497 -4.4539 0.408 -0.158 0.899 222 221 226 0 0
-3.6622 -10.8162 -4.5773 0.405 -0.225 0.886 222 221 227 0 0
-3.1370 -11.1968 -4.7477 0.132 -0.040 0.990 221 220 226 0 0
-2.4862 -11.4088 -4.8665 -0.252 0.453 0.855 217 217 225 0 0
-2.4599 -11.3791 -4.8577 -0.294 0.562 0.773 217 217 225 0 0
-2.4325 -11.3713 -4.8567 -0.154 0.335 0.929 216 215 223 0 0
-2.4043 -11.3759 -4.8602 0.231 0.384 0.894 216 213 220 0 0
-2.3458 -11.4206 -4.8800 0.586 0.282 0.760 215 213 218 0 0
-2.3193 -11.3991 -4.8742 0.299 0.194 0.934 212 210 214 0 0
-2.2913 -11.4017 -4.8769 -0.703 0.522 0.483 210 208 211 0 0
-2.2655 -11.3717 -4.8680 -0.662 0.533 0.527 210 208 210 0 0
-2.2366 -11.3885 -4.8759 -0.730 0.655 0.198 211 209 213 0 0
-2.1287 -11.3496 -4.8692 0.526 0.580 0.622 215 213 219 0 0
-2.0159 -11.3780 -4.8868 0.587 0.650 0.482 216 215 223 0 0
-1.9554 -11.4379 -4.9122 0.836 0.537 0.115 217 217 223 0 0
-1.8410 -11.4771 -4.9337 0.094 0.658 0.747 214 213 219 0 0
-1.8143 -11.4672 -4.9320 0.272 0.487 0.830 216 215 221 0 0
-11.6568 -7.8373 -2.9588 0.595 0.114 0.795 226 222 221 0 0
-11.6354 -7.8457 -2.9632 0.650 0.192 0.735 226 223 224 0 0
-5.4909 -3.4858 -1.8310 -0.688 0.724 0.042 84 60 15 0 0
-5.4033 -9.8846 -4.1016 -0.137 0.165 0.977 227 225 230 0 0
-5.1339 -10.0744 -4.1868 0.210 -0.106 0.972 224 223 228 0 0
-5.1088 -10.0897 -4.1939 0.210 -0.106 0.972 224 222 227 0 0
-4.8217 -10.1851 -4.2469 -0.125 -0.017 0.992 225 223 228 0 0
-4.0982 -10.6961 -4.4761 0.407 -0.182 0.895 222 221 226 0 0
-3.9201 -11.0301 -4.6062 -0.023 -0.145 0.989 221 220 226 0 0
-2.8517 -11.3923 -4.8059 -0.225 0.532 0.816 210 209 215 0 0
-2.4872 -11.3885 -4.8289 0.227 0.321 0.920 218 218 226 0 0
-2.4593 -11.3899 -4.8313 0.089 0.354 0.931 217 217 225 0 0
-2.4308 -11.3989 -4.8364 0.363 0.290 0.885 216 214 222 0 0
-2.2907 -11.4116 -4.8502 -0.765 0.520 0.381 209 207 212 0 0
-2.2645 -11.3886 -4.8439 -0.539 0.703 0.464 210 208 212 0 0
-2.2362 -11.3966 -4.8486 -0.506 0.139 0.852 212 210 214 0 0
-2.2125 -11.3409 -4.8305 -0.482 0.432 0.762 213 211 216 0 0
-2.1517 -11.4135 -4.8602 0.540 0.593 0.598 215 213 218 0 0
-2.0934 -11.4496 -4.8769 0.640 0.333 0.693 214 213 219 0 0
-2.0085 -11.4682 -4.8892 -0.036 0.819 0.572 217 216 223 0 0
-1.9819 -11.4560 -4.8866 0.594 0.754 0.282 218 217 223 0 0
-1.8101 -11.5152 -4.9190 0.275 0.750 0.602 216 215 221 0 0
-1.7041 -11.4720 -4.9108 -0.173 0.373 0.911 210 209 216 0 0
-1.4214 -11.5373 -4.9529 -0.130 0.154 0.979 212 211 216 0 0
-1.3983 -11.5032 -4.9424 -0.070 0.272 0.960 210 208 213 0 0
-11.6960 -7.9017 -2.9526 0.082 0.129 0.988 224 220 219 0 0
-5.5081 -3.5015 -1.8206 -0.656 0.626 0.422 71 41 10 0 0
-5.4874 -3.4832 -1.8156 -0.656 0.626 0.422 71 41 10 0 0
-5.4402 -3.4725 -1.8150 -0.249 0.945 0.211 77 46 12 0 0
-5.5856 -9.8604 -4.0527 0.170 -0.039 0.985 226 224 229 0 0
-5.5614 -9.8770 -4.0601 0.200 -0.072 0.977 226 224 230 0 0
-5.5529 -9.9841 -4.0984 0.374 0.114 0.920 226 224 229 0 0
-5.4951 -9.9649 -4.0955 0.078 0.051 0.996 227 224 230 0 0
-5.4690 -9.9717 -4.0997 0.073 0.359 0.930 227 225 230 0 0
-5.4398 -9.9597 -4.0974 -0.002 0.052 0.999 227 225 230 0 0
-5.2040 -10.2013 -4.1983 0.211 -0.196 0.958 225 223 228 0 0
-5.1296 -10.2584 -4.2234 0.329 -0.188 0.925 226 224 230 0 0
-5.0421 -10.2206 -4.2159 0.043 -0.104 0.994 224 223 229 0 0
-4.1396 -10.9446 -4.5314 0.303 -0.187 0.934 223 222 227 0 0
-4.1092 -10.9080 -4.5205 0.413 -0.185 0.892 222 221 226 0 0
-3.7510 -11.0603 -4.5982 0.717 0.133 0.684 222 221 227 0 0
-3.0199 -11.4279 -4.7767 0.117 0.609 0.784 220 220 225 0 0
-2.8498 -11.4434 -4.7936 0.008 0.481 0.877 212 211 217 0 0
-2.5105 -11.4766 -4.8281 -0.034 0.547 0.836 219 219 227 0 0
-2.4847 -11.4338 -4.8148 0.392 0.408 0.825 219 219 225 0 0
-2.4569 -11.4307 -4.8156 0.344 0.330 0.879 216 216 222 0 0
-2.3129 -11.4991 -4.8493 -0.544 0.361 0.758 211 209 214 0 0
-2.2892 -11.4362 -4.8288 -0.631 0.450 0.631 211 209 213 0 0
-2.2610 -11.4416 -4.8326 -0.713 0.368 0.597 212 210 215 0 0
-2.1515 -11.4199 -4.8323 0.565 0.367 0.739 214 212 217 0 0
-1.9500 -11.5074 -4.8767 -0.422 0.525 0.739 219 218 226 0 0
-1.9222 -11.5074 -4.8785 0.160 0.851 0.501 217 216 222 0 0
-1.8942 -11.5105 -4.8815 0.375 0.746 0.551 214 213 219 0 0
-1.8372 -11.5275 -4.8913 0.275 0.750 0.602 213 212 218 0 0
-1.8091 -11.5310 -4.8944 0.146 0.545 0.826 216 215 221 0 0
-1.7811 -11.5340 -4.8974 0.146 0.545 0.826 214 213 220 0 0
-5.4452 -3.4957 -1.8081 0.114 0.988 0.107 77 43 10 0 0
-5.6308 -9.9785 -4.0628 0.142 -0.074 0.987 226 225 230 0 0
-5.5989 -9.9524 -4.0558 0.206 -0.120 0.971 227 226 231 0 0
-5.5324 -10.0413 -4.0914 0.268 0.033 0.963 226 224 229 0 0
-5.2523 -10.3613 -4.2223 0.267 -0.195 0.944 225 224 229 0 0
-5.2284 -10.3882 -4.2333 0.223 -0.199 0.954 225 224 230 0 0
-4.4384 -11.1657 -4.5587 0.427 0.303 0.852 224 222 228 0 0
-4.3554 -11.2087 -4.5793 0.451 0.318 0.834 224 223 229 0 0
-4.2035 -11.0868 -4.5469 -0.305 0.005 0.952 221 219 224 0 0
-3.0475 -11.4361 -4.7473 -0.110 0.749 0.653 220 219 225 0 0
-2.8483 -11.4801 -4.7761 -0.041 0.350 0.936 215 214 220 0 0
-2.5090 -11.5043 -4.8076 -0.054 0.648 0.759 218 218 226 0 0
-2.2563 -11.5113 -4.8271 -0.509 0.185 0.841 214 212 217 0 0
-2.1487 -11.4594 -4.8162 0.314 0.432 0.845 216 215 220 0 0
-1.9228 -11.5059 -4.8478 0.370 0.367 0.853 215 214 220 0 0
-1.8062 -11.5660 -4.8767 0.272 0.487 0.830 216 215 221 0 0
-1.3075 -11.5837 -4.9166 -0.070 0.021 0.997 214 213 219 0 0
-5.6630 -2.9689 -1.5954 0.078 0.986 0.151 164 122 16 0 0
-5.6421 -2.9503 -1.5904 -0.224 0.797 0.561 171 130 20 0 0
-5.4722 -3.4971 -1.7920 -0.628 0.504 0.593 83 51 15 0 0
-5.4257 -3.4885 -1.7922 0.397 0.756 0.520 88 55 15 0 0
-5.4104 -3.4857 -1.7923 0.495 0.512 0.702 96 63 18 0 0
-5.3817 -3.4868 -1.7946 -0.114 0.714 0.691 123 89 19 0 0
-5.6479 -10.0910 -4.0724 -0.088 -0.122 0.989 227 226 232 0 0
-5.5668 -10.0992 -4.0808 0.104 0.005 0.995 228 227 232 0 0
-5.2770 -10.5491 -4.2569 0.356 -0.188 0.915 227 226 231 0 0
-5.1396 -10.5719 -4.2741 0.134 -0.174 0.976 226 225 231 0 0
-4.6381 -10.8678 -4.4111 0.117 -0.164 0.979 224 223 228 0 0
-4.5977 -11.0409 -4.4740 0.535 -0.211 0.818 224 223 229 0 0
-4.4416 -11.2288 -4.5500 0.524 0.198 0.828 224 223 228 0 0
-4.3560 -11.2423 -4.5605 -0.005 0.192 0.981 223 221 227 0 0
-2.9330 -11.4731 -4.7375 0.552 0.528 0.645 213 211 217 0 0
-2.3097 -11.5510 -4.8070 -0.038 0.681 0.731 213 212 218 0 0
-2.0557 -11.5819 -4.8350 0.459 0.691 0.558 216 215 220 0 0
-2.0012 -11.5659 -4.8331 -0.223 0.509 0.831 214 213 219 0 0
-1.9196 -11.5462 -4.8318 0.370 0.367 0.853 211 210 216 0 0
-1.8879 -11.5887 -4.8488 0.204 0.310 0.929 209 208 216 0 0
-1.8322 -11.5889 -4.8526 0.464 0.520 0.717 214 213 219 0 0
-13.8293 -8.4008 -2.9005 0.267 0.058 0.962 214 209 208 0 0
-13.0764 -8.5083 -2.9891 -0.333 0.604 0.724 217 209 205 0 0
-13.0601 -8.5247 -2.9958 0.408 -0.034 0.913 217 210 204 0 0
-5.8872 -3.0850 -1.6065 0.888 0.416 -0.198 122 90 10 0 0
-5.6659 -2.9837 -1.5867 -0.725 0.541 0.426 161 119 15 0 0
-5.4425 -3.5032 -1.7814 0.010 0.776 0.631 93 59 17 0 0
-5.4266 -3.4992 -1.7811 0.416 0.637 0.649 102 67 19 0 0
-5.4119 -3.4985 -1.7819 0.495 0.512 0.702 103 70 19 0 0
-5.3886 -3.4710 -1.7740 0.608 0.630 0.483 112 79 14 0 0
-5.3766 -3.4785 -1.7774 0.393 0.800 0.453 146 109 25 0 0
-5.3632 -3.4820 -1.7795 0.008 0.886 0.464 171 132 38 0 0
-4.9624 -3.4241 -1.7869 -0.765 0.395 0.509 103 84 47 0 0
-5.8336 -10.2139 -4.0736 0.177 -0.148 0.973 226 225 230 0 0
-5.3817 -10.5156 -4.2088 0.274 -0.198 0.941 226 226 230 0 0
-5.1850 -10.7167 -4.2917 0.076 -0.164 0.984 226 226 232 0 0
-4.8618 -11.1124 -4.4506 0.520 0.165 0.838 224 222 228 0 0
-4.6436 -11.2447 -4.5112 0.384 0.616 0.688 223 222 228 0 0
-4.6156 -11.2557 -4.5169 0.384 0.616 0.688 224 222 227 0 0
-4.4770 -11.3315 -4.5526 -0.372 0.125 0.920 223 221 226 0 0
-3.3018 -11.4793 -4.6840 0.140 0.729 0.670 216 215 221 0 0
-3.1590 -11.5155 -4.7063 0.233 0.906 0.352 217 216 222 0 0
-3.1305 -11.5150 -4.7081 -0.111 0.932 0.345 215 212 219 0 0
-3.1021 -11.5116 -4.7088 -0.135 0.869 0.477 213 210 217 0 0
-2.5907 -11.5544 -4.7586 -0.245 0.742 0.624 214 213 221 0 0
-2.3084 -11.5731 -4.7843 0.205 0.789 0.580 214 213 219 0 0
-2.0827 -11.5965 -4.8079 -0.521 0.623 0.583 218 217 223 0 0
-1.4333 -11.6923 -4.8854 0.240 0.591 0.770 213 214 221 0 0
-13.8350 -8.3876 -2.8675 -0.017 0.694 0.720 214 209 208 0 0
-13.0918 -8.5404 -2.9711 -0.207 0.572 0.794 217 209 206 0 0
-13.1155 -8.6047 -2.9916 0.055 0.254 0.966 216 208 205 0 0
-5.8830 -3.0822 -1.5919 0.693 0.662 -0.286 119 87 10 0 0
-5.6436 -2.9686 -1.5693 -0.714 0.496 0.494 163 120 17 0 0
-5.3884 -3.4782 -1.7619 0.541 0.838 0.072 144 106 20 0 0
-5.3765 -3.4863 -1.7655 -0.083 0.947 -0.311 167 127 32 0 0
-5.3465 -3.4827 -1.7663 -0.423 0.893 -0.154 191 155 39 0 0
-4.9666 -3.4487 -1.7807 -0.754 0.462 0.467 124 79 64 0 0
-5.7818 -10.4025 -4.1132 -0.047 -0.124 0.991 228 226 231 0 0
-5.4264 -10.6397 -4.2191 0.235 -0.169 0.957 227 226 232 0 0
-4.6996 -11.2454 -4.4771 -0.009 0.477 0.879 221 219 224 0 0
-4.6197 -11.3227 -4.5091 0.888 0.022 0.460 223 220 227 0 0
-4.5089 -11.3881 -4.5392 -0.451 0.587 0.673 222 220 225 0 0
-3.3010 -11.4984 -4.6601 0.337 0.767 0.546 215 214 220 0 0
-3.1582 -11.5332 -4.6819 0.117 0.869 0.481 216 215 221 0 0
-3.1297 -11.5241 -4.6807 -0.007 0.962 0.274 213 212 218 0 0
-3.1012 -11.5255 -4.6832 -0.135 0.869 0.477 212 211 217 0 0
-2.9013 -11.5684 -4.7116 0.380 0.571 0.728 218 217 223 0 0
-2.8726 -11.5804 -4.7177 0.198 0.570 0.798 217 216 222 0 0
-2.5605 -11.5931 -4.7436 0.234 0.560 0.795 211 210 216 0 0
-2.1966 -11.5725 -4.7615 0.404 0.356 0.843 216 215 220 0 0
-2.1382 -11.6049 -4.7766 0.380 0.371 0.847 215 214 219 0 0
-2.0521 -11.6329 -4.7922 0.086 0.736 0.671 212 211 217 0 0
-13.9826 -8.4623 -2.8549 0.078 0.857 0.509 213 207 207 0 0
-13.9106 -8.4505 -2.8559 0.425 0.378 0.822 214 209 206 0 0
-13.8402 -8.4403 -2.8572 0.216 0.452 0.866 214 209 208 0 0
-13.8294 -8.4620 -2.8654 0.103 0.301 0.948 215 211 210 0 0
-13.7920 -8.4543 -2.8654 0.600 -0.114 0.792 216 211 211 0 0
-13.2656 -8.5813 -2.9451 0.318 0.028 0.948 218 213 213 0 0
-5.6456 -2.9810 -1.5598 -0.719 0.502 0.480 158 116 28 0 0
-5.6215 -2.9538 -1.5522 -0.714 0.496 0.494 136 98 22 0 0
-5.3433 -11.0609 -4.3391 0.062 0.171 0.983 225 224 229 0 0
-5.3152 -11.0677 -4.3434 0.186 0.114 0.976 225 224 229 0 0
-5.2859 -11.0665 -4.3450 0.343 0.040 0.938 226 224 230 0 0
-5.2608 -11.0944 -4.3563 0.515 0.389 0.764 226 224 229 0 0
-5.0862 -11.0930 -4.3679 0.266 0.292 0.919 225 224 230 0 0
-4.9807 -11.1797 -4.4048 -0.149 0.490 0.859 223 221 226 0 0
-4.9507 -11.1717 -4.4041 -0.149 0.490 0.859 221 219 224 0 0
-4.9218 -11.1726 -4.4064 -0.476 0.495 0.727 222 220 225 0 0
-4.8950 -11.1929 -4.4152 0.091 0.985 0.145 222 220 225 0 0
-4.8370 -11.1932 -4.4193 0.771 0.358 0.526 221 219 224 0 0
-4.8045 -11.1601 -4.4102 0.911 0.145 0.385 220 218 223 0 0
-4.6771 -11.3355 -4.4789 0.466 0.432 0.772 222 219 226 0 0
-4.6262 -11.4148 -4.5095 0.941 0.120 0.318 221 220 225 0 0
-3.7291 -11.4576 -4.5861 0.043 0.720 0.693 219 218 224 0 0
-3.4421 -11.4146 -4.5913 0.722 0.687 0.085 218 217 223 0 0
-3.1574 -11.5446 -4.6553 0.064 0.928 0.366 217 216 222 0 0
-3.0151 -11.5387 -4.6632 0.394 0.440 0.807 217 216 222 0 0
-2.6457 -11.5783 -4.7022 -0.128 0.492 0.861 214 213 219 0 0
-2.6174 -11.5790 -4.7044 0.272 0.792 0.546 216 215 220 0 0
-2.4741 -11.6254 -4.7302 0.147 0.459 0.876 215 215 222 0 0
-2.3889 -11.6358 -4.7396 -0.175 0.350 0.921 218 217 223 0 0
-2.3583 -11.6751 -4.7551 -0.377 0.741 0.556 218 217 224 0 0
-2.3340 -11.6140 -4.7360 -0.102 0.384 0.918 217 216 222 0 0
-2.2200 -11.6381 -4.7521 0.170 0.524 0.835 217 216 222 0 0
-2.1634 -11.6456 -4.7585 -0.007 0.509 0.861 212 209 215 0 0
-2.1060 -11.6636 -4.7686 -0.189 0.691 0.698 214 212 218 0 0
-1.9962 -11.6381 -4.7675 0.291 0.910 0.295 212 211 217 0 0
-1.9643 -11.6834 -4.7852 0.112 0.477 0.872 214 213 219 0 0
-1.8826 -11.6606 -4.7830 0.237 0.695 0.679 213 212 219 0 0
-14.0352 -8.4666 -2.8247 -0.323 0.873 0.364 212 208 206 0 0
-14.0137 -8.4765 -2.8295 -0.027 0.737 0.676 212 206 205 0 0
-13.9791 -8.4723 -2.8305 0.105 0.800 0.591 212 207 206 0 0
-13.9495 -8.4734 -2.8329 0.328 0.548 0.769 214 208 206 0 0
-13.9262 -8.4813 -2.8372 0.328 0.548 0.769 214 209 206 0 0
-13.2355 -8.6671 -2.9482 0.591 0.048 0.805 215 210 206 0 0
-13.2081 -8.6706 -2.9513 0.531 0.039 0.847 217 209 207 0 0
-13.1238 -8.7888 -2.9973 0.371 0.156 0.915 219 214 212 0 0
-12.9892 -8.7362 -2.9888 -0.566 0.709 0.420 218 210 205 0 0
-5.6071 -2.9590 -1.5414 -0.598 0.794 0.110 126 85 12 0 0
-5.8117 -10.7560 -4.1729 -0.111 -0.011 0.994 225 224 230 0 0
-5.2906 -11.1192 -4.3323 0.404 0.106 0.909 225 222 226 0 0
-5.1195 -11.1462 -4.3534 0.079 0.084 0.993 224 222 228 0 0
-5.0877 -11.1249 -4.3483 0.422 0.262 0.868 225 223 229 0 0
-5.0405 -11.2132 -4.3816 0.568 0.051 0.821 223 221 226 0 0
-5.0099 -11.2015 -4.3797 0.682 0.195 0.704 223 221 226 0 0
-4.9512 -11.1974 -4.3824 -0.142 0.031 0.989 222 220 225 0 0
-4.9190 -11.1699 -4.3753 0.055 0.219 0.974 223 221 226 0 0
-4.8974 -11.2351 -4.3990 0.292 0.778 0.556 222 220 225 0 0
-4.8664 -11.2178 -4.3952 0.762 0.291 0.579 221 219 224 0 0
-4.7004 -11.2981 -4.4341 -0.197 0.469 0.861 222 219 225 0 0
-4.6195 -11.3666 -4.4629 0.687 0.462 0.561 222 221 226 0 0
-3.7290 -11.4950 -4.5684 0.090 0.530 0.843 219 218 224 0 0
-3.7003 -11.4978 -4.5713 0.041 0.660 0.750 216 215 221 0 0
-3.6714 -11.4926 -4.5715 0.110 0.636 0.764 214 213 219 0 0
-3.5565 -11.4936 -4.5798 0.355 0.448 0.820 218 217 223 0 0
-3.4995 -11.5079 -4.5887 0.223 0.249 0.942 219 218 224 0 0
-3.3567 -11.5538 -4.6142 0.029 0.956 0.292 219 218 223 0 0
-3.2137 -11.5460 -4.6214 0.204 0.906 0.372 217 216 222 0 0
-3.1279 -11.5674 -4.6347 0.210 0.722 0.659 217 216 222 0 0
-3.0138 -11.5768 -4.6458 0.524 0.327 0.787 218 217 223 0 0
-2.9554 -11.6487 -4.6743 0.516 0.357 0.778 219 218 224 0 0
-2.7563 -11.6412 -4.6855 0.233 0.574 0.785 216 215 221 0 0
-2.7284 -11.6270 -4.6827 0.065 0.423 0.904 212 211 217 0 0
-2.4720 -11.6631 -4.7127 0.132 0.519 0.845 216 216 223 0 0
-2.4447 -11.6452 -4.7086 0.263 0.525 0.810 217 216 223 0 0
-2.4157 -11.6586 -4.7151 -0.167 0.531 0.831 218 217 224 0 0
-2.3875 -11.6601 -4.7176 0.263 0.525 0.810 219 218 224 0 0
-2.3573 -11.6929 -4.7308 -0.377 0.741 0.556 219 218 224 0 0
-2.2450 -11.6848 -4.7359 -0.024 0.893 0.449 216 215 221 0 0
-2.2167 -11.6880 -4.7389 0.098 0.991 0.096 215 214 219 0 0
-2.1615 -11.6738 -4.7379 0.202 0.582 0.788 208 206 212 0 0
-2.1334 -11.6744 -4.7401 0.077 0.588 0.805 208 206 212 0 0
-2.1045 -11.6860 -4.7460 -0.189 0.691 0.698 212 210 217 0 0
-2.0484 -11.6867 -4.7502 0.243 0.644 0.726 213 212 218 0 0
-1.9062 -11.7122 -4.7687 0.304 0.793 0.527 214 213 219 0 0
-1.8774 -11.7215 -4.7738 -0.197 0.766 0.612 214 213 220 0 0
-14.1124 -8.4645 -2.7905 0.205 0.386 0.900 215 209 207 0 0
-14.0867 -8.4698 -2.7941 0.205 0.386 0.900 214 209 206 0 0
-14.0971 -8.5140 -2.8083 0.583 0.661 0.473 214 209 206 0 0
-14.0427 -8.5217 -2.8147 0.091 0.972 0.218 212 206 205 0 0
-13.9862 -8.4937 -2.8092 -0.095 0.991 0.094 213 208 206 0 0
-13.9525 -8.4903 -2.8104 0.116 0.980 0.162 214 209 207 0 0
-13.9428 -8.5133 -2.8188 0.305 0.446 0.842 215 210 209 0 0
-13.3152 -8.6673 -2.9146 0.372 0.174 0.912 218 213 211 0 0
-13.2074 -8.6475 -2.9155 0.378 0.511 0.772 217 211 208 0 0
-5.6331 -2.9631 -1.5274 -0.182 0.982 -0.050 196 147 14 0 0
-5.6188 -2.9613 -1.5278 -0.225 0.974 0.027 198 144 17 0 0
-5.2272 -3.6918 -1.8015 0.902 0.255 0.347 168 131 35 0 0
-5.1749 -3.7151 -1.8130 0.558 0.242 0.794 197 157 45 0 0
-5.1655 -3.7342 -1.8201 0.670 -0.054 0.740 199 161 52 0 0
-6.0793 -10.8101 -4.1427 0.530 -0.190 0.826 228 226 231 0 0
-6.0721 -10.9197 -4.1802 0.477 -0.071 0.876 227 226 231 0 0
-5.9386 -10.9877 -4.2124 -0.441 0.391 0.808 226 224 230 0 0
-5.5120 -11.2464 -4.3294 -0.224 0.975 0.001 227 226 232 0 0
-5.0703 -11.2383 -4.3576 0.394 0.694 0.603 222 220 225 0 0
-5.0421 -11.2465 -4.3623 0.670 0.223 0.708 221 219 224 0 0
-4.9823 -11.2345 -4.3624 0.076 0.168 0.983 222 220 225 0 0
-4.9507 -11.2142 -4.3578 -0.268 0.041 0.962 223 221 226 0 0
-4.9215 -11.2125 -4.3592 -0.474 0.081 0.877 223 221 226 0 0
-4.8678 -11.2518 -4.3763 0.762 0.291 0.579 221 219 224 0 0
-4.7596 -11.3302 -4.4102 0.371 0.855 0.362 222 220 225 0 0
-4.7027 -11.3438 -4.4188 -0.607 0.616 0.502 221 218 224 0 0
-4.6500 -11.4031 -4.4425 0.669 0.621 0.408 222 220 225 0 0
-4.6191 -11.3856 -4.4388 0.481 0.678 0.556 224 222 227 0 0
-4.3546 -11.3486 -4.4448 0.367 0.853 0.372 220 218 223 0 0
-4.3262 -11.3557 -4.4491 0.766 0.585 0.266 220 218 223 0 0
-4.2964 -11.3435 -4.4471 0.593 0.768 0.244 221 219 224 0 0
-4.2693 -11.3690 -4.4576 0.557 0.823 0.108 222 220 225 0 0
-3.6997 -11.5188 -4.5479 0.106 0.570 0.815 217 216 222 0 0
-3.6426 -11.5367 -4.5579 0.128 0.850 0.510 216 215 221 0 0
-3.5561 -11.5282 -4.5611 0.355 0.448 0.820 218 217 223 0 0
-3.2985 -11.5499 -4.5864 0.128 0.956 0.263 218 217 223 0 0
-3.2700 -11.5497 -4.5883 -0.039 0.793 0.608 218 217 223 0 0
-3.1268 -11.6114 -4.6192 0.332 0.441 0.834 217 216 222 0 0
-3.0982 -11.6138 -4.6219 0.182 0.685 0.705 217 216 222 0 0
-3.0410 -11.6254 -4.6299 -0.094 0.371 0.924 218 217 223 0 0
-3.0127 -11.6095 -4.6265 0.366 0.411 0.835 218 217 223 0 0
-2.9546 -11.6629 -4.6485 0.441 0.622 0.647 219 218 224 0 0
-2.9260 -11.6659 -4.6515 0.203 0.696 0.689 220 219 225 0 0
-2.7271 -11.6541 -4.6615 0.025 0.791 0.611 213 212 218 0 0
-2.6155 -11.6130 -4.6554 0.444 0.704 0.554 216 215 221 0 0
-2.5578 -11.6400 -4.6685 0.452 0.665 0.595 219 218 224 0 0
-2.5279 -11.6734 -4.6819 0.561 0.543 0.625 219 218 224 0 0
-2.3285 -11.7031 -4.7058 -0.146 0.850 0.507 216 215 221 0 0
-2.1608 -11.6867 -4.7120 0.219 0.976 0.005 207 206 212 0 0
-2.1312 -11.7067 -4.7208 0.238 0.626 0.743 208 207 213 0 0
-2.1022 -11.7186 -4.7269 0.042 0.707 0.706 211 209 216 0 0
-1.8806 -11.6918 -4.7333 0.265 0.634 0.726 215 215 221 0 0
-14.0056 -8.5287 -2.7915 0.037 0.093 0.995 214 209 208 0 0
-13.9460 -8.4971 -2.7851 -0.129 0.344 0.930 215 210 209 0 0
-13.2273 -8.7944 -2.9352 0.393 -0.025 0.919 219 215 214 0 0
-13.2220 -8.8248 -2.9458 0.319 0.034 0.947 220 216 216 0 0
-13.1207 -8.8504 -2.9615 0.477 0.088 0.875 217 210 207 0 0
-13.0065 -8.8603 -2.9728 -0.122 0.199 0.972 217 209 203 0 0
-5.8944 -3.1054 -1.5432 -0.410 0.587 -0.698 113 82 12 0 0
-5.8704 -3.0814 -1.5369 -0.330 0.601 -0.728 116 84 8 0 0
-5.7719 -3.0104 -1.5200 -0.488 0.576 -0.656 157 113 10 0 0
-5.7441 -2.9756 -1.5103 -0.554 0.566 -0.611 177 130 12 0 0
-5.6159 -2.9610 -1.5144 -0.225 0.974 0.027 204 150 15 0 0
-5.3567 -3.4553 -1.6983 0.034 0.974 0.223 211 174 40 0 0
-5.2749 -3.5157 -1.7243 0.749 0.659 0.065 169 126 18 0 0
-5.2588 -3.5098 -1.7234 0.990 0.097 0.105 172 129 21 0 0
-5.2280 -3.7032 -1.7904 0.930 0.251 0.270 170 132 34 0 0
-5.1782 -3.7352 -1.8046 0.558 0.242 0.794 195 154 42 0 0
-5.7745 -11.0724 -4.2221 0.381 0.158 0.911 223 221 224 0 0
-5.7267 -11.1357 -4.2466 -0.185 0.571 0.800 223 221 226 0 0
-5.2186 -11.2733 -4.3285 0.336 0.447 0.829 221 216 219 0 0
-5.0702 -11.2587 -4.3340 0.394 0.694 0.603 223 221 226 0 0
-5.0423 -11.2694 -4.3395 0.818 0.342 0.462 221 219 224 0 0
-5.0178 -11.3082 -4.3543 0.818 0.342 0.462 222 220 225 0 0
-4.9566 -11.2853 -4.3509 0.224 0.183 0.957 223 221 225 0 0
-4.8686 -11.2810 -4.3556 -0.119 0.196 0.973 221 218 223 0 0
-4.8127 -11.3024 -4.3667 0.298 0.443 0.846 222 220 225 0 0
-4.7841 -11.3073 -4.3704 0.196 0.518 0.833 224 222 227 0 0
-4.7575 -11.3322 -4.3806 0.278 0.910 0.308 223 221 226 0 0
-4.4654 -11.3114 -4.3941 0.134 0.280 0.951 221 219 224 0 0
-4.4405 -11.3613 -4.4126 -0.188 0.486 0.853 220 218 223 0 0
-4.2684 -11.3812 -4.4314 0.705 0.706 0.061 221 219 224 0 0
-3.6419 -11.5560 -4.5339 0.097 0.712 0.695 218 217 223 0 0
-3.6132 -11.5615 -4.5378 0.103 0.784 0.613 218 217 223 0 0
-3.5843 -11.5566 -4.5382 0.258 0.715 0.650 217 216 222 0 0
-3.5272 -11.5776 -4.5492 0.247 0.342 0.907 216 215 221 0 0
-3.4988 -11.6030 -4.5597 0.160 0.294 0.942 216 215 221 0 0
-3.4412 -11.5970 -4.5618 -0.227 0.402 0.887 217 216 222 0 0
-2.9811 -11.7433 -4.6431 0.462 0.847 0.262 218 217 223 0 0
-2.9536 -11.6869 -4.6261 0.441 0.622 0.647 218 217 223 0 0
-2.9246 -11.7042 -4.6340 0.252 0.438 0.863 218 217 223 0 0
-2.7536 -11.6988 -4.6442 0.233 0.574 0.785 215 214 220 0 0
-2.7261 -11.6727 -4.6374 0.025 0.791 0.611 214 213 219 0 0
-2.2727 -11.6961 -4.6770 -0.137 0.951 0.277 209 208 213 0 0
-2.1293 -11.7342 -4.6999 0.620 0.661 0.424 212 210 217 0 0
-2.0711 -11.7591 -4.7123 -0.062 0.571 0.818 215 214 220 0 0
-2.0434 -11.7552 -4.7129 -0.062 0.571 0.818 215 214 220 0 0
-2.0150 -11.7583 -4.7160 0.500 0.609 0.615 215 214 220 0 0
-14.1886 -8.5407 -2.7545 0.414 -0.305 0.858 212 207 206 0 0
-14.1053 -8.5839 -2.7748 0.131 -0.120 0.984 214 210 207 0 0
-13.3821 -8.8104 -2.9013 0.122 0.226 0.966 216 211 208 0 0
-13.3191 -8.8084 -2.9051 0.164 0.047 0.985 217 212 211 0 0
-13.2533 -8.8766 -2.9324 0.429 0.086 0.899 221 217 218 0 0
-13.2048 -8.8551 -2.9287 0.165 0.245 0.956 220 216 216 0 0
-13.0737 -8.8819 -2.9469 0.401 0.731 0.553 216 207 204 0 0
-13.0541 -8.8954 -2.9528 0.567 0.469 0.677 216 209 204 0 0
-13.0278 -8.9387 -2.9690 0.530 0.239 0.813 217 210 204 0 0
-5.3489 -3.0536 -1.5506 -0.443 0.871 -0.214 242 240 184 0 0
-5.3340 -3.0494 -1.5503 -0.415 0.896 -0.158 202 158 55 0 0
-5.2741 -3.5212 -1.7117 0.350 0.808 -0.474 179 136 23 0 0
-5.1910 -3.7368 -1.7893 0.026 0.637 0.770 182 142 38 0 0
-6.2971 -11.0463 -4.1462 0.499 0.703 0.507 224 221 224 0 0
-5.7315 -11.1825 -4.2315 -0.087 0.721 0.687 225 220 224 0 0
-5.1008 -11.2901 -4.3119 -0.031 0.253 0.967 223 221 226 0 0
-5.0460 -11.3203 -4.3258 0.193 0.387 0.902 222 220 225 0 0
-4.9595 -11.3315 -4.3357 0.218 0.288 0.933 223 221 226 0 0
-4.8422 -11.3278 -4.3427 0.149 0.178 0.973 219 217 222 0 0
-4.8139 -11.3352 -4.3472 0.298 0.337 0.893 223 221 226 0 0
-4.7851 -11.3390 -4.3504 0.196 0.518 0.833 223 221 226 0 0
-4.7607 -11.3848 -4.3675 -0.039 0.782 0.622 221 219 224 0 0
-4.6763 -11.4182 -4.3845 0.475 0.743 0.471 219 217 222 0 0
-4.3240 -11.3758 -4.3953 -0.347 0.604 0.718 221 219 224 0 0
-3.6408 -11.5618 -4.5054 0.135 0.879 0.457 218 217 223 0 0
-3.6122 -11.5699 -4.5102 0.128 0.850 0.510 218 217 223 0 0
-3.5271 -11.6320 -4.5369 0.251 0.335 0.908 217 216 222 0 0
-3.4983 -11.6374 -4.5407 0.277 0.404 0.872 218 217 223 0 0
-3.4693 -11.6251 -4.5386 0.052 0.465 0.884 218 217 223 0 0
-3.2109 -11.6523 -4.5659 0.220 0.484 0.847 219 218 224 0 0
-3.1822 -11.6625 -4.5714 0.169 0.407 0.897 219 218 224 0 0
-3.1535 -11.6742 -4.5773 0.345 0.512 0.787 219 218 224 0 0
-3.0097 -11.7155 -4.6012 0.413 0.815 0.407 218 217 223 0 0
-2.9804 -11.7483 -4.6142 0.301 0.866 0.398 216 215 221 0 0
-2.7518 -11.7387 -4.6271 0.503 0.573 0.647 214 213 219 0 0
-2.5535 -11.7223 -4.6357 0.121 0.586 0.801 220 219 225 0 0
-2.5251 -11.7245 -4.6384 0.121 0.586 0.801 221 220 226 0 0
-2.4103 -11.7519 -4.6556 -0.125 0.660 0.741 215 214 220 0 0
-2.3558 -11.7191 -4.6486 -0.210 0.969 0.129 214 213 219 0 0
-2.1564 -11.7515 -4.6734 0.568 0.514 0.642 212 211 217 0 0
-2.0974 -11.7863 -4.6892 0.230 0.612 0.756 214 213 219 0 0
-14.2491 -8.6195 -2.7482 0.523 -0.317 0.791 211 207 206 0 0
-14.1690 -8.7006 -2.7808 0.051 0.062 0.997 216 211 210 0 0
-13.5525 -8.8079 -2.8600 -0.050 0.303 0.952 220 216 216 0 0
-13.4792 -8.8302 -2.8726 0.234 0.177 0.956 215 210 207 0 0
-13.4494 -8.8313 -2.8751 0.641 0.250 0.726 216 211 208 0 0
-13.4367 -8.8526 -2.8830 0.502 -0.011 0.865 216 211 208 0 0
-13.0660 -8.8865 -2.9206 -0.459 0.635 0.622 217 209 206 0 0
-13.0548 -8.9104 -2.9293 0.472 0.793 0.386 216 210 206 0 0
-13.0587 -9.0679 -2.9811 -0.179 0.473 0.863 218 212 209 0 0
-13.0091 -9.0445 -2.9769 -0.326 0.537 0.778 218 212 208 0 0
-5.5974 -2.9268 -1.4775 0.675 0.628 -0.388 204 152 15 0 0
-5.5886 -2.9391 -1.4821 0.675 0.628 -0.388 179 126 17 0 0
-5.2947 -3.0194 -1.5296 0.012 0.993 0.114 229 189 29 0 0
-5.2798 -3.5006 -1.6899 0.793 0.594 -0.134 186 143 27 0 0
-5.2757 -3.5346 -1.7015 0.908 0.313 0.277 184 142 28 0 0
-5.2466 -3.6319 -1.7358 0.866 0.401 0.298 200 160 40 0 0
-5.1765 -3.7460 -1.7785 0.913 0.384 0.133 188 146 39 0 0
-5.8102 -11.1453 -4.1832 0.538 0.215 0.815 222 220 224 0 0
-5.7026 -11.2051 -4.2106 0.011 0.682 0.731 225 223 226 0 0
-5.1043 -11.3384 -4.2972 0.295 0.348 0.890 224 222 227 0 0
-5.0752 -11.3405 -4.3000 0.094 0.370 0.924 224 222 227 0 0
-5.0468 -11.3478 -4.3044 0.477 0.468 0.744 223 220 225 0 0
-5.0225 -11.3893 -4.3198 0.610 0.609 0.507 221 219 224 0 0
-4.9870 -11.3374 -4.3052 0.056 0.377 0.925 221 219 223 0 0
-4.9608 -11.3641 -4.3159 0.111 0.438 0.892 222 220 225 0 0
-4.8992 -11.3367 -4.3112 0.331 0.090 0.939 218 216 221 0 0
-4.8768 -11.3979 -4.3330 -0.119 0.196 0.973 217 212 218 0 0
-4.8434 -11.3602 -4.3229 0.255 0.228 0.940 219 215 221 0 0
-4.8160 -11.3774 -4.3306 0.298 0.337 0.893 221 219 224 0 0
-4.7888 -11.3960 -4.3387 -0.004 0.783 0.622 222 220 225 0 0
-4.7277 -11.3700 -4.3344 0.187 0.864 0.468 219 217 222 0 0
-4.6998 -11.3821 -4.3404 0.155 0.963 0.220 218 216 221 0 0
-4.6736 -11.4125 -4.3523 0.753 0.607 0.252 219 217 222 0 0
-4.6467 -11.4368 -4.3623 0.843 0.529 0.101 220 219 224 0 0
-4.6179 -11.4413 -4.3658 0.468 0.507 0.724 219 217 223 0 0
-4.5038 -11.4715 -4.3839 0.008 0.409 0.912 223 221 226 0 0
-4.3279 -11.4552 -4.3909 -0.288 0.501 0.816 221 219 224 0 0
-3.8132 -11.5811 -4.4692 -0.169 0.287 0.943 220 218 223 0 0
-3.5833 -11.6141 -4.4964 0.444 0.279 0.852 219 218 224 0 0
-3.5547 -11.6241 -4.5017 0.322 0.348 0.880 218 217 223 0 0
-3.5263 -11.6500 -4.5123 0.443 0.439 0.782 219 218 224 0 0
-3.4977 -11.6674 -4.5201 0.315 0.549 0.774 220 219 225 0 0
-3.4681 -11.6096 -4.5031 -0.489 0.810 0.323 218 217 223 0 0
-3.4393 -11.6008 -4.5022 -0.440 0.859 0.261 215 214 220 0 0
-3.3823 -11.6528 -4.5235 -0.039 0.461 0.887 214 213 219 0 0
-3.1525 -11.7056 -4.5573 0.345 0.512 0.787 219 218 224 0 0
-3.1237 -11.7164 -4.5629 0.345 0.512 0.787 216 215 221 0 0
-3.0374 -11.7386 -4.5763 0.233 0.934 0.272 219 218 224 0 0
-3.0086 -11.7446 -4.5804 0.233 0.934 0.272 217 216 222 0 0
-2.9798 -11.7506 -4.5844 0.233 0.934 0.272 213 212 218 0 0
-2.7221 -11.7628 -4.6067 0.233 0.574 0.785 216 215 221 0 0
-2.4091 -11.7733 -4.6324 -0.118 0.755 0.645 213 211 217 0 0
-2.3527 -11.7700 -4.6353 -0.351 0.807 0.475 214 213 219 0 0
-2.2991 -11.7242 -4.6240 0.226 0.911 0.346 212 211 217 0 0
-2.1545 -11.7796 -4.6526 0.568 0.514 0.642 215 214 220 0 0
-2.0965 -11.8011 -4.6638 0.268 0.466 0.843 216 215 221 0 0
-2.0135 -11.7843 -4.6641 -0.001 0.357 0.934 217 216 222 0 0
-1.9526 -11.8397 -4.6868 -0.357 0.699 0.619 215 215 220 0 0
-1.9261 -11.8210 -4.6825 -0.040 0.654 0.756 216 215 221 0 0
-1.1800 -11.9830 -4.7890 -0.632 0.753 0.184 214 217 226 0 0
-14.2853 -8.6723 -2.7348 0.673 -0.308 0.673 215 210 210 0 0
-14.2254 -8.7761 -2.7732 0.051 0.062 0.997 218 212 213 0 0
-13.7231 -8.9121 -2.8538 -0.164 0.444 0.881 219 215 215 0 0
-13.5811 -8.8193 -2.8334 0.319 0.092 0.943 220 216 214 0 0
-13.5805 -8.8545 -2.8450 0.075 0.253 0.964 218 213 213 0 0
-13.4859 -8.8520 -2.8509 0.121 0.244 0.962 215 210 207 0 0
-13.4196 -8.9196 -2.8779 0.214 -0.024 0.977 217 212 212 0 0
-13.3753 -8.9404 -2.8879 0.264 0.032 0.964 219 215 216 0 0
-13.0867 -8.9261 -2.9038 -0.084 0.806 0.586 217 210 207 0 0
-13.0721 -8.9838 -2.9238 0.830 0.548 0.106 216 211 207 0 0
-13.1101 -9.0692 -2.9492 -0.011 0.182 0.983 217 212 209 0 0
-13.0746 -9.0634 -2.9498 -0.011 0.182 0.983 217 212 209 0 0
-13.1180 -9.1563 -2.9773 -0.450 0.495 0.743 219 214 211 0 0
-13.0500 -9.1101 -2.9669 -0.450 0.495 0.743 219 214 212 0 0
-5.5940 -2.9251 -1.4638 0.601 0.694 -0.397 203 150 12 0 0
-5.3106 -3.0344 -1.5199 -0.183 0.925 -0.332 232 182 32 0 0
-5.2794 -3.0209 -1.5177 -0.094 0.977 0.190 233 200 41 0 0
-5.2784 -3.5037 -1.6766 0.910 0.138 0.392 188 145 26 0 0
-5.2571 -3.6262 -1.7185 0.806 0.279 0.522 194 153 33 0 0
-5.2472 -3.6422 -1.7244 0.839 0.327 0.434 200 160 42 0 0
-5.2281 -3.7283 -1.7541 0.939 0.302 0.168 171 130 31 0 0
-5.2124 -3.7249 -1.7541 0.567 0.823 -0.040 170 130 29 0 0
-5.1876 -3.7412 -1.7612 -0.432 0.863 -0.263 172 132 29 0 0
-5.1968 -11.3919 -4.2777 -0.368 0.366 0.854 223 222 225 0 0
-5.1645 -11.3699 -4.2728 -0.369 0.306 0.878 224 222 226 0 0
-5.0451 -11.3547 -4.2763 0.335 0.393 0.856 222 219 223 0 0
-5.0237 -11.4202 -4.2994 0.684 0.619 0.385 220 216 220 0 0
-4.9954 -11.4296 -4.3045 0.581 0.726 0.367 219 215 219 0 0
-4.9627 -11.4011 -4.2975 0.111 0.438 0.892 221 218 224 0 0
-4.9310 -11.3806 -4.2930 0.323 0.143 0.936 220 218 222 0 0
-4.9028 -11.3903 -4.2982 0.371 0.204 0.906 217 215 219 0 0
-4.8463 -11.4093 -4.3084 0.298 0.337 0.893 219 217 222 0 0
-4.8182 -11.4197 -4.3139 0.298 0.337 0.893 221 219 224 0 0
-4.7871 -11.4020 -4.3103 0.275 0.674 0.686 222 220 225 0 0
-4.7586 -11.4090 -4.3146 -0.135 0.799 0.585 221 219 224 0 0
-4.7288 -11.4037 -4.3150 -0.135 0.799 0.585 220 218 223 0 0
-4.7006 -11.4136 -4.3202 -0.295 0.770 0.566 219 217 222 0 0
-4.5916 -11.4966 -4.3554 0.128 0.541 0.831 218 216 221 0 0
-4.5046 -11.5051 -4.3643 0.100 0.513 0.853 223 221 226 0 0
-4.3265 -11.4613 -4.3626 -0.391 0.295 0.872 220 218 223 0 0
-4.2489 -11.6032 -4.4149 0.460 0.497 0.736 220 218 223 0 0
-4.2203 -11.6133 -4.4202 0.348 0.855 0.384 219 218 223 0 0
-3.8144 -11.6506 -4.4614 0.305 0.336 0.891 219 217 223 0 0
-3.5258 -11.6846 -4.4932 0.443 0.439 0.782 219 218 224 0 0
-3.4971 -11.6978 -4.4996 0.420 0.506 0.754 219 218 224 0 0
-3.4672 -11.6199 -4.4761 -0.489 0.810 0.323 218 217 223 0 0
-3.4384 -11.6088 -4.4745 -0.440 0.859 0.261 216 215 221 0 0
-3.4104 -11.6824 -4.5007 -0.215 0.712 0.668 215 213 219 0 0
-3.3816 -11.6880 -4.5046 0.078 0.439 0.895 216 214 221 0 0
-3.3529 -11.6931 -4.5083 -0.073 0.438 0.896 218 216 222 0 0
-3.0078 -11.7548 -4.5532 0.595 0.679 0.431 216 215 221 0 0
-2.7784 -11.7752 -4.5763 0.266 0.635 0.725 217 216 222 0 0
-2.7495 -11.7857 -4.5818 0.233 0.574 0.785 217 216 222 0 0
-2.6927 -11.7797 -4.5839 0.498 0.233 0.835 218 217 223 0 0
-2.4360 -11.7981 -4.6083 -0.118 0.755 0.645 212 211 217 0 0
-2.0946 -11.8297 -4.6430 0.227 0.350 0.909 217 216 222 0 0
-2.0658 -11.8364 -4.6473 -0.039 0.339 0.940 218 217 223 0 0
-2.0373 -11.8411 -4.6508 -0.185 0.325 0.927 218 217 223 0 0
-1.7485 -11.9206 -4.6976 0.427 0.587 0.688 212 213 218 0 0
-1.2113 -11.9660 -4.7509 -0.662 0.622 0.418 216 216 226 0 0
-13.6734 -8.8688 -2.8146 -0.277 0.896 0.347 219 215 215 0 0
-13.6105 -8.8675 -2.8187 0.319 0.092 0.943 217 211 210 0 0
-13.5499 -8.9052 -2.8354 0.055 0.259 0.964 215 210 207 0 0
-13.5133 -8.8984 -2.8358 0.121 0.244 0.962 215 210 207 0 0
-13.4944 -8.9125 -2.8417 0.149 0.217 0.965 215 210 207 0 0
-13.4669 -8.9166 -2.8450 0.251 0.087 0.964 216 211 209 0 0
-13.4863 -8.9762 -2.8631 0.277 0.173 0.945 217 211 210 0 0
-13.4674 -8.9906 -2.8692 0.214 -0.024 0.977 217 213 212 0 0
-13.2541 -9.0323 -2.8981 -0.029 0.678 0.735 216 211 207 0 0
-13.2470 -9.0614 -2.9082 -0.096 0.343 0.934 216 211 207 0 0
-13.1994 -9.0411 -2.9049 -0.004 0.313 0.950 216 211 207 0 0
-13.1102 -8.9692 -2.8878 0.142 0.732 0.666 216 211 208 0 0
-13.1391 -9.0428 -2.9098 0.440 0.489 0.753 217 212 208 0 0
-13.0755 -9.1564 -2.9515 -0.450 0.495 0.743 219 215 214 0 0
-13.0097 -9.1125 -2.9419 -0.420 0.499 0.758 219 215 214 0 0
-12.3802 -8.8892 -2.9140 -0.076 -0.010 0.997 217 202 176 0 0
-5.6630 -2.9713 -1.4606 -0.255 0.736 0.627 213 166 14 0 0
-5.2819 -3.5712 -1.6841 0.678 -0.063 0.732 190 147 31 0 0
-5.2590 -3.6408 -1.7084 0.767 0.299 0.568 193 150 30 0 0
-5.2483 -3.6539 -1.7135 0.839 0.327 0.434 199 158 39 0 0
-5.2275 -3.7346 -1.7414 0.931 0.364 0.005 172 132 32 0 0
-5.1946 -3.7218 -1.7396 -0.119 0.880 -0.459 169 130 31 0 0
-5.1823 -3.7304 -1.7432 -0.433 0.794 -0.426 170 131 29 0 0
-5.1425 -3.7458 -1.7511 -0.863 0.487 -0.131 191 150 37 0 0
-5.8836 -11.2619 -4.1554 0.725 0.385 0.571 224 222 226 0 0
-5.3448 -11.4137 -4.2437 0.333 0.042 0.942 224 219 223 0 0
-5.0498 -11.4140 -4.2650 0.215 0.784 0.582 218 215 220 0 0
-5.0201 -11.4112 -4.2662 0.139 0.968 0.210 218 213 217 0 0
-4.9945 -11.4434 -4.2785 0.489 0.607 0.627 218 213 217 0 0
-4.9634 -11.4289 -4.2760 0.239 0.151 0.959 221 217 221 0 0
-4.9355 -11.4416 -4.2822 0.431 0.232 0.872 219 217 221 0 0
-4.8191 -11.4502 -4.2933 -0.024 0.371 0.928 222 220 225 0 0
-4.7381 -11.5184 -4.3214 -0.083 0.425 0.902 220 218 223 0 0
-4.6809 -11.5347 -4.3308 0.074 0.450 0.890 219 217 222 0 0
-4.6506 -11.5241 -4.3296 0.413 0.391 0.823 220 218 223 0 0
-4.6210 -11.5213 -4.3308 0.126 0.492 0.861 218 216 221 0 0
-4.3057 -11.6047 -4.3807 -0.422 0.521 0.741 219 217 222 0 0
-4.2470 -11.6008 -4.3836 0.418 0.465 0.780 220 218 223 0 0
-4.2195 -11.6270 -4.3941 0.103 0.876 0.471 219 219 222 0 0
-3.5835 -11.7343 -4.4748 0.701 0.082 0.708 220 219 225 0 0
-3.5252 -11.7087 -4.4706 0.407 0.468 0.784 219 218 224 0 0
-3.4967 -11.7359 -4.4815 0.321 0.599 0.734 219 218 224 0 0
-3.4096 -11.7048 -4.4776 -0.445 0.607 0.658 216 215 221 0 0
-3.3810 -11.7253 -4.4864 0.078 0.439 0.895 216 215 221 0 0
-3.0643 -11.7757 -4.5255 -0.108 0.741 0.663 215 214 220 0 0
-3.0354 -11.7853 -4.5307 0.261 0.671 0.694 216 215 221 0 0
-2.9194 -11.8386 -4.5565 0.641 0.616 0.458 217 216 222 0 0
-2.8909 -11.8312 -4.5561 0.474 0.790 0.389 217 216 222 0 0
-2.8336 -11.8288 -4.5594 0.160 0.757 0.633 218 217 223 0 0
-2.4607 -11.8638 -4.5976 0.082 0.582 0.809 215 214 220 0 0
-2.4346 -11.8214 -4.5856 -0.171 0.841 0.513 214 213 219 0 0
-1.7770 -11.9222 -4.6657 0.727 0.604 0.326 213 212 218 0 0
-1.7446 -11.9650 -4.6820 0.567 0.416 0.711 213 212 218 0 0
-1.1805 -11.9953 -4.7324 0.627 0.284 0.726 214 216 225 0 0
-1.1470 -12.0358 -4.7480 0.632 0.231 0.740 215 216 225 0 0
-13.6931 -8.9056 -2.7967 -0.430 0.852 0.299 217 214 212 0 0
-13.6548 -8.8972 -2.7968 0.109 0.746 0.657 216 212 211 0 0
-13.6255 -8.8990 -2.7995 0.109 0.746 0.657 215 210 208 0 0
-13.6068 -8.9496 -2.8172 -0.127 0.326 0.937 215 210 208 0 0
-13.4989 -8.9686 -2.8312 0.179 -0.020 0.984 215 211 210 0 0
-13.4941 -8.9998 -2.8417 0.254 0.025 0.967 216 212 211 0 0
-13.4728 -9.0113 -2.8470 0.254 0.025 0.967 218 214 214 0 0
-13.4759 -9.0521 -2.8600 0.110 0.238 0.965 219 215 216 0 0
-13.4494 -9.0577 -2.8637 0.264 0.032 0.964 221 217 218 0 0
-13.4000 -9.0731 -2.8723 0.250 0.103 0.963 222 218 219 0 0
-13.3541 -9.0552 -2.8698 0.051 0.416 0.908 220 216 216 0 0
-13.3151 -9.0454 -2.8694 0.186 0.211 0.960 218 214 212 0 0
-13.2958 -9.0596 -2.8754 -0.386 0.678 0.626 217 211 210 0 0
-13.2993 -9.1018 -2.8889 -0.174 0.292 0.941 216 211 208 0 0
-13.2529 -9.0829 -2.8861 -0.176 0.255 0.951 217 212 208 0 0
-13.2069 -9.0645 -2.8834 -0.174 0.292 0.941 216 211 208 0 0
-13.1888 -9.1958 -2.9274 0.281 0.144 0.949 219 215 213 0 0
-13.1373 -9.2093 -2.9355 -0.178 0.288 0.941 221 217 216 0 0
-13.0671 -9.1601 -2.9245 0.623 0.310 0.718 222 218 217 0 0
-13.0706 -9.2037 -2.9384 0.272 0.325 0.906 221 217 216 0 0
-5.6387 -2.9506 -1.4422 0.561 0.764 -0.318 212 164 11 0 0
-5.2610 -3.6560 -1.6986 0.710 0.247 0.659 191 147 27 0 0
-5.2245 -3.7324 -1.7260 0.906 0.357 -0.226 171 133 32 0 0
-5.1086 -11.4342 -4.2368 -0.245 0.631 0.736 221 219 223 0 0
-4.9948 -11.4669 -4.2556 0.489 0.607 0.627 218 215 219 0 0
-4.9677 -11.4877 -4.2643 0.285 0.169 0.944 219 216 220 0 0
-4.6220 -11.5553 -4.3112 0.126 0.492 0.861 219 217 222 0 0
-4.5928 -11.5577 -4.3141 0.126 0.492 0.861 219 217 222 0 0
-4.5648 -11.5720 -4.3207 0.104 0.542 0.834 220 218 224 0 0
-4.5061 -11.5718 -4.3249 0.073 0.495 0.866 222 220 225 0 0
-4.3060 -11.6357 -4.3601 0.018 0.526 0.850 218 216 221 0 0
-4.2755 -11.6177 -4.3564 0.058 0.697 0.715 217 215 220 0 0
-4.2474 -11.6337 -4.3637 0.418 0.465 0.780 218 216 221 0 0
-4.2187 -11.6423 -4.3685 0.235 0.634 0.737 220 218 223 0 0
-4.0159 -11.6691 -4.3918 0.170 0.905 0.390 221 220 226 0 0
-3.6978 -11.7128 -4.4290 -0.171 0.198 0.965 218 217 223 0 0
-3.6404 -11.7363 -4.4407 -0.525 0.598 0.606 217 216 222 0 0
-3.6114 -11.7333 -4.4418 0.221 0.394 0.892 218 217 223 0 0
-3.5533 -11.7262 -4.4437 0.191 0.962 0.197 219 218 224 0 0
-3.5242 -11.7167 -4.4427 0.426 0.770 0.474 219 218 224 0 0
-3.4092 -11.7658 -4.4670 -0.032 0.538 0.842 216 215 221 0 0
-3.1494 -11.8211 -4.5036 0.318 0.334 0.887 215 214 220 0 0
-3.0634 -11.7910 -4.5001 -0.088 0.789 0.608 215 214 220 0 0
-3.0347 -11.7911 -4.5022 -0.315 0.770 0.555 216 215 221 0 0
-2.8326 -11.8485 -4.5354 -0.020 0.748 0.664 219 218 224 0 0
-1.9203 -11.9007 -4.6181 -0.046 0.657 0.753 211 212 217 0 0
-1.5720 -12.0063 -4.6775 0.354 0.429 0.831 214 214 222 0 0
-1.5061 -12.0901 -4.7095 -0.082 0.165 0.983 215 215 223 0 0
-1.3989 -12.0443 -4.7023 0.401 0.302 0.865 214 214 222 0 0
-1.1374 -12.1126 -4.7433 0.523 0.230 0.821 215 215 225 0 0
-13.6589 -8.9884 -2.7975 0.007 0.394 0.919 215 210 207 0 0
-13.6177 -9.0498 -2.8203 0.427 -0.068 0.902 216 210 210 0 0
-13.4894 -9.1201 -2.8523 -0.109 0.476 0.873 221 217 218 0 0
-13.4711 -9.1356 -2.8586 0.136 0.212 0.968 221 217 218 0 0
-13.3263 -9.1491 -2.8735 -0.169 0.402 0.900 217 212 209 0 0
-13.2891 -9.1417 -2.8738 -0.206 0.584 0.785 217 212 209 0 0
-13.2499 -9.1317 -2.8734 0.300 -0.045 0.953 218 213 210 0 0
-13.1174 -9.1987 -2.9046 -0.150 0.521 0.840 221 217 216 0 0
-13.0581 -9.1632 -2.8974 0.195 0.251 0.948 222 218 217 0 0
-13.0895 -9.2419 -2.9206 -0.211 0.905 0.368 221 217 216 0 0
-5.8972 -3.0892 -1.4549 -0.140 0.519 0.843 215 184 67 0 0
-5.6634 -2.9868 -1.4387 -0.277 0.677 0.682 212 163 12 0 0
-5.5967 -2.9187 -1.4216 0.373 0.920 -0.123 210 155 8 0 0
-5.3163 -3.0736 -1.4919 0.358 0.337 0.871 246 216 24 0 0
-5.3182 -3.1627 -1.5205 0.747 0.502 0.436 244 216 21 0 0
-5.2706 -3.5497 -1.6489 -0.575 0.586 0.571 200 159 38 0 0
-5.2646 -3.6765 -1.6903 0.247 0.969 -0.021 187 142 25 0 0
-5.8313 -11.3396 -4.1234 -0.106 0.867 0.487 225 223 226 0 0
-5.3529 -11.5108 -4.2134 0.483 0.527 0.699 224 221 225 0 0
-5.2943 -11.5174 -4.2197 -0.107 0.842 0.529 225 220 224 0 0
-5.2650 -11.5201 -4.2227 -0.481 0.865 0.145 227 222 226 0 0
-5.2326 -11.5002 -4.2186 -0.624 0.776 0.087 226 223 228 0 0
-5.2011 -11.4862 -4.2164 -0.323 0.366 0.873 220 218 223 0 0
-5.1713 -11.4844 -4.2180 -0.440 0.452 0.776 218 216 219 0 0
-5.1401 -11.4716 -4.2161 -0.276 0.660 0.699 218 216 219 0 0
-4.9930 -11.4732 -4.2272 -0.095 0.755 0.649 221 216 220 0 0
-4.9061 -11.4841 -4.2371 0.556 0.676 0.483 221 219 224 0 0
-4.8803 -11.5167 -4.2495 0.157 0.695 0.702 223 221 226 0 0
-4.6243 -11.6042 -4.2963 0.058 0.559 0.827 219 218 223 0 0
-4.5959 -11.6154 -4.3019 -0.100 0.540 0.836 220 218 223 0 0
-4.5070 -11.6060 -4.3053 0.073 0.495 0.866 222 220 225 0 0
-4.3070 -11.6753 -4.3422 0.265 0.581 0.769 214 212 217 0 0
-4.2781 -11.6826 -4.3466 0.265 0.581 0.769 215 213 218 0 0
-3.8728 -11.7632 -4.4020 0.506 0.671 0.542 220 219 224 0 0
-3.8438 -11.7656 -4.4049 -0.071 0.594 0.801 218 217 223 0 0
-3.6401 -11.7710 -4.4214 0.339 0.658 0.672 217 215 222 0 0
-3.6114 -11.7861 -4.4283 0.133 0.605 0.785 218 215 222 0 0
-3.5816 -11.7476 -4.4180 -0.196 0.745 0.638 219 216 223 0 0
-3.4666 -11.8048 -4.4448 0.399 0.469 0.788 218 217 223 0 0
-3.4370 -11.7536 -4.4305 0.148 0.612 0.776 217 216 222 0 0
-3.4085 -11.7879 -4.4436 0.617 0.669 0.414 217 216 222 0 0
-3.3799 -11.8310 -4.4596 0.707 0.394 0.587 217 216 222 0 0
-3.2641 -11.8445 -4.4723 0.139 0.411 0.901 218 217 223 0 0
-3.1773 -11.8533 -4.4815 0.454 0.419 0.786 218 217 223 0 0
-3.1483 -11.8652 -4.4874 0.318 0.334 0.887 216 215 221 0 0
-2.5132 -11.9493 -4.5605 0.145 0.798 0.585 217 216 222 0 0
-2.4557 -11.9551 -4.5666 0.218 0.588 0.779 216 215 221 0 0
-2.4289 -11.9225 -4.5580 -0.084 0.500 0.862 216 215 221 0 0
-2.0812 -12.0103 -4.6115 0.148 0.319 0.936 211 210 217 0 0
-1.5955 -12.0545 -4.6610 0.082 0.685 0.723 215 215 223 0 0
-1.5692 -12.0381 -4.6576 0.358 0.361 0.861 215 215 223 0 0
-1.5388 -12.0576 -4.6661 0.602 0.460 0.652 215 215 223 0 0
-1.5058 -12.0997 -4.6821 0.524 0.296 0.799 216 216 224 0 0
-1.3366 -12.1007 -4.6946 -0.608 0.745 0.274 214 214 222 0 0
-13.5217 -9.2109 -2.8503 0.049 0.181 0.982 220 216 215 0 0
-13.4951 -9.2168 -2.8541 0.188 0.187 0.964 218 214 212 0 0
-13.4542 -9.2051 -2.8534 0.374 0.294 0.879 216 211 210 0 0
-13.3158 -9.1888 -2.8582 0.460 0.704 0.541 217 212 209 0 0
-13.1345 -9.2346 -2.8861 0.478 0.403 0.780 222 218 218 0 0
-13.1056 -9.2374 -2.8891 0.519 0.116 0.847 221 216 216 0 0
-5.9353 -3.1205 -1.4485 0.326 0.104 0.940 204 170 67 0 0
-5.6362 -2.9585 -1.4182 0.519 0.717 0.464 212 161 10 0 0
-5.6034 -2.9431 -1.4157 -0.211 0.951 0.227 210 157 7 0 0
-5.3290 -3.1613 -1.5057 0.795 0.356 0.491 252 224 27 0 0
-5.3684 -3.5946 -1.6418 0.801 0.300 0.518 219 183 28 0 0
-5.3538 -3.5942 -1.6428 0.883 0.176 0.434 212 175 30 0 0
-5.6809 -11.3472 -4.1063 0.120 0.294 0.948 221 217 221 0 0
-5.4642 -11.4787 -4.1643 -0.374 0.585 0.720 224 221 224 0 0
-5.3811 -11.5204 -4.1837 0.299 0.549 0.781 225 221 224 0 0
-5.3524 -11.5281 -4.1882 0.655 0.472 0.590 224 221 224 0 0
-5.3244 -11.5401 -4.1941 0.677 0.692 0.253 222 220 223 0 0
-5.2937 -11.5334 -4.1942 -0.107 0.842 0.529 222 217 221 0 0
-5.2629 -11.5253 -4.1938 -0.529 0.821 0.216 221 217 221 0 0
-5.2338 -11.5299 -4.1974 -0.219 0.601 0.769 221 218 222 0 0
-5.2029 -11.5198 -4.1965 -0.219 0.601 0.769 219 217 220 0 0
-5.1717 -11.5080 -4.1949 -0.023 0.456 0.890 218 216 220 0 0
-5.1417 -11.5044 -4.1960 -0.023 0.456 0.890 220 216 220 0 0
-5.0488 -11.4692 -4.1914 -0.204 0.570 0.796 220 218 221 0 0
-5.0209 -11.4820 -4.1976 0.249 0.529 0.811 220 217 221 0 0
-4.9373 -11.5222 -4.2166 0.014 0.544 0.839 222 220 225 0 0
-4.9077 -11.5201 -4.2180 -0.172 0.495 0.851 223 221 226 0 0
-4.6259 -11.6451 -4.2786 0.083 0.468 0.880 220 218 223 0 0
-4.5965 -11.6458 -4.2810 0.083 0.468 0.880 220 218 224 0 0
-4.5367 -11.6347 -4.2818 0.058 0.559 0.827 220 218 223 0 0
-4.5074 -11.6352 -4.2841 0.015 0.576 0.817 221 219 224 0 0
-4.4779 -11.6337 -4.2858 -0.084 0.500 0.862 221 219 224 0 0
-4.3900 -11.6340 -4.2923 0.488 0.650 0.583 221 219 224 0 0
-3.8722 -11.7832 -4.3778 0.506 0.671 0.542 219 218 224 0 0
-3.8137 -11.7792 -4.3808 0.254 0.584 0.771 218 217 223 0 0
-3.6688 -11.8033 -4.3991 0.204 0.979 0.008 215 214 220 0 0
-3.6399 -11.8093 -4.4031 0.204 0.979 0.008 215 214 220 0 0
-3.6108 -11.8116 -4.4060 -0.063 0.647 0.760 217 216 222 0 0
-3.4079 -11.8245 -4.4249 0.563 0.233 0.793 217 216 222 0 0
-3.2632 -11.9437 -4.4736 -0.046 0.854 0.519 219 218 224 0 0
-3.1760 -11.9443 -4.4802 -0.076 0.676 0.733 218 217 223 0 0
-3.1472 -11.9134 -4.4723 0.195 0.378 0.905 218 217 223 0 0
-3.0893 -11.9138 -4.4767 -0.239 0.348 0.906 220 219 225 0 0
-3.0606 -11.9001 -4.4744 -0.239 0.348 0.906 219 218 224 0 0
-3.0313 -11.9250 -4.4845 0.236 0.423 0.875 219 218 224 0 0
-2.9732 -11.9458 -4.4954 0.041 0.344 0.938 218 217 224 0 0
-2.7138 -11.9475 -4.5148 0.175 0.363 0.915 212 211 217 0 0
-2.6551 -11.9791 -4.5292 0.283 0.782 0.555 216 215 221 0 0
-2.4812 -12.0130 -4.5528 0.157 0.585 0.796 216 215 221 0 0
-2.3711 -11.9366 -4.5363 -0.099 0.206 0.973 217 216 222 0 0
-2.1086 -12.0273 -4.5845 0.266 0.681 0.682 211 210 216 0 0
-2.0805 -12.0225 -4.5850 0.175 0.500 0.848 212 211 218 0 0
-1.5564 -12.1588 -4.6668 0.031 0.809 0.587 216 216 224 0 0
-1.3891 -12.1386 -4.6725 -0.633 0.733 0.251 217 217 225 0 0
-1.3624 -12.1264 -4.6706 -0.522 0.798 0.301 216 216 224 0 0
-1.3360 -12.1130 -4.6682 -0.438 0.745 0.504 215 215 223 0 0
-13.4624 -9.2295 -2.8317 0.056 0.294 0.954 216 211 211 0 0
-13.4371 -9.2369 -2.8359 0.055 0.339 0.939 216 211 209 0 0
-13.3547 -9.1744 -2.8220 -0.241 0.834 0.497 217 211 209 0 0
-13.3472 -9.2034 -2.8318 0.404 0.699 0.591 216 211 211 0 0
-13.2209 -9.3183 -2.8776 -0.237 0.882 0.408 222 218 219 0 0
-13.1773 -9.3028 -2.8759 0.170 0.396 0.902 221 217 217 0 0
-5.9534 -3.1374 -1.4388 0.162 0.181 0.970 189 154 61 0 0
-5.9404 -3.1399 -1.4405 0.162 0.181 0.970 214 181 79 0 0
-5.9296 -3.1474 -1.4437 0.202 0.171 0.964 216 184 70 0 0
-5.5997 -2.9406 -1.4019 0.515 0.851 -0.103 210 156 7 0 0
-5.3687 -3.0837 -1.4644 0.339 0.555 0.760 171 86 56 0 0
-5.3560 -3.0862 -1.4661 -0.013 0.482 0.876 226 162 42 0 0
-5.3423 -3.0857 -1.4670 0.043 0.428 0.903 250 215 35 0 0
-5.3270 -3.1212 -1.4794 0.132 0.965 -0.227 254 234 35 0 0
-5.2760 -3.6819 -1.6619 -0.309 0.665 -0.680 187 141 23 0 0
-5.2581 -3.6704 -1.6595 -0.196 0.711 -0.675 187 141 23 0 0
-5.6839 -11.3848 -4.0876 0.345 0.296 0.891 222 220 224 0 0
-5.6094 -11.4750 -4.1219 0.440 0.229 0.868 222 218 222 0 0
-5.5576 -11.5249 -4.1416 -0.030 0.416 0.909 223 221 225 0 0
-5.4979 -11.5246 -4.1458 0.064 0.438 0.897 225 220 224 0 0
-5.4665 -11.5137 -4.1447 -0.355 0.413 0.839 225 221 224 0 0
-5.3541 -11.5602 -4.1677 0.528 0.572 0.628 223 220 223 0 0
-5.2955 -11.5667 -4.1741 0.406 0.019 0.914 219 214 218 0 0
-5.2707 -11.6034 -4.1876 0.330 0.209 0.921 218 215 218 0 0
-5.2104 -11.5979 -4.1902 -0.292 0.220 0.931 219 217 221 0 0
-5.1766 -11.5663 -4.1826 0.068 0.210 0.975 219 217 221 0 0
-5.1478 -11.5729 -4.1868 -0.432 0.173 0.885 219 217 220 0 0
-5.1134 -11.5354 -4.1774 -0.432 0.173 0.885 220 217 220 0 0
-5.0014 -11.5873 -4.2021 0.083 0.085 0.993 222 220 225 0 0
-4.9723 -11.5913 -4.2055 0.012 0.089 0.996 223 221 226 0 0
-4.9133 -11.5925 -4.2102 -0.657 0.328 0.679 222 220 224 0 0
-4.6259 -11.6680 -4.2553 0.335 0.451 0.827 221 219 224 0 0
-4.5669 -11.6678 -4.2596 -0.049 0.391 0.919 219 217 222 0 0
-4.5370 -11.6627 -4.2601 -0.049 0.391 0.919 220 218 223 0 0
-4.5085 -11.6729 -4.2655 0.221 0.435 0.873 221 219 224 0 0
-4.4771 -11.6487 -4.2600 0.372 0.277 0.886 222 220 225 0 0
-4.2800 -11.7634 -4.3110 0.503 0.225 0.835 219 217 222 0 0
-4.2508 -11.7666 -4.3142 0.500 0.278 0.820 219 217 223 0 0
-3.8716 -11.8033 -4.3536 0.506 0.671 0.542 219 218 223 0 0
-3.8428 -11.8125 -4.3587 0.135 0.758 0.638 219 218 223 0 0
-3.6686 -11.8409 -4.3805 0.027 0.439 0.898 216 215 221 0 0
-3.6395 -11.8432 -4.3833 0.124 0.682 0.720 216 215 221 0 0
-3.6106 -11.8523 -4.3883 0.438 0.690 0.577 218 217 223 0 0
-3.5231 -11.8446 -4.3923 0.001 0.266 0.964 217 216 222 0 0
-3.4940 -11.8398 -4.3929 -0.011 0.455 0.890 217 216 221 0 0
-3.1750 -11.9778 -4.4602 -0.143 0.588 0.796 219 218 224 0 0
-3.0883 -11.9406 -4.4547 0.228 0.420 0.878 222 221 227 0 0
-3.0594 -11.9405 -4.4567 -0.203 0.442 0.874 220 219 224 0 0
-2.6814 -12.0348 -4.5145 0.224 0.392 0.892 215 214 220 0 0
-2.4236 -12.0166 -4.5275 -0.206 0.454 0.867 218 217 223 0 0
-2.3398 -11.9835 -4.5231 -0.142 0.415 0.899 216 214 219 0 0
-2.2248 -11.9993 -4.5365 0.453 0.385 0.804 209 208 214 0 0
-1.9932 -12.0518 -4.5702 -0.171 0.668 0.725 217 216 224 0 0
-1.9356 -12.0615 -4.5775 -0.115 0.424 0.899 216 216 224 0 0
-13.2182 -9.3294 -2.8524 -0.289 0.865 0.411 222 218 219 0 0
-5.9705 -3.1518 -1.4283 -0.119 0.279 0.953 164 129 48 0 0
-5.9539 -3.1458 -1.4276 -0.042 0.289 0.956 190 155 70 0 0
-5.9357 -3.1360 -1.4259 -0.590 0.425 0.687 212 178 80 0 0
-5.9116 -3.1120 -1.4200 -0.590 0.425 0.687 217 187 71 0 0
-5.8599 -3.1556 -1.4376 -0.528 0.157 0.835 217 183 41 0 0
-5.6092 -2.9377 -1.3870 0.811 0.570 -0.132 209 155 8 0 0
