ply
format ascii 1.0
element vertex 835
property float x
property float y
property float z
property float nx
property float ny
property float nz
property uchar diffuse_red
property uchar diffuse_green
property uchar diffuse_blue
property uchar class
property uchar detection
end_header
-0.8453 0.9312 -0.3592 0.837 0.485 0.255 102 43 23 0 0
-0.8453 0.9341 -0.3583 0.659 0.326 0.678 105 45 24 0 0
-0.8466 0.9371 -0.3577 0.654 0.233 0.719 107 47 25 0 0
-0.8479 0.9400 -0.3572 0.629 -0.238 0.740 109 48 26 0 0
-0.8479 0.9429 -0.3563 0.525 -0.380 0.762 112 50 29 0 0
-0.8474 0.9458 -0.3553 0.578 -0.202 0.790 116 54 30 0 0
-0.8502 0.9517 -0.3543 0.711 0.196 0.676 124 59 32 0 0
-0.8393 0.9655 -0.3470 0.742 -0.009 0.670 141 72 43 0 0
-0.8489 0.9690 -0.3486 0.419 -0.489 0.765 144 73 45 0 0
-0.8676 1.0581 -0.3268 0.984 -0.104 -0.141 212 123 97 0 0
-0.8671 1.0610 -0.3257 0.969 -0.136 -0.207 199 103 80 0 0
-0.8663 1.0667 -0.3238 0.990 -0.139 -0.029 200 106 83 0 0
-0.8754 1.0767 -0.3233 0.884 -0.447 0.133 196 94 80 0 0
-0.8797 1.0802 -0.3235 0.864 0.436 0.251 196 92 80 0 0
-0.8875 1.0931 -0.3218 0.712 0.078 0.698 196 97 81 0 0
-0.8880 1.0962 -0.3210 0.769 -0.018 0.639 198 99 84 0 0
-0.9408 1.1467 -0.3207 0.522 -0.532 0.666 202 183 170 0 0
-0.9636 1.2680 -0.2901 0.605 -0.083 0.792 184 163 144 0 0
-0.9626 1.2801 -0.2861 0.572 -0.623 0.534 183 162 145 0 0
-0.9554 1.3058 -0.2762 0.404 0.100 0.909 183 163 146 0 0
-0.9589 1.3650 -0.2591 0.506 0.161 0.847 189 172 156 0 0
-0.9478 1.5281 -0.2061 0.520 0.095 0.849 193 176 161 0 0
-0.9502 1.5321 -0.2055 0.545 0.122 0.829 195 180 167 0 0
-0.9520 1.5359 -0.2049 0.545 0.122 0.829 194 177 164 0 0
-0.9405 1.5341 -0.2022 0.524 -0.630 0.573 186 168 153 0 0
-0.9515 1.5628 -0.1965 0.302 -0.002 0.953 178 160 142 0 0
-0.9511 1.5657 -0.1955 0.251 -0.222 0.942 173 155 137 0 0
-0.9232 1.5832 -0.1822 0.521 0.648 0.555 190 177 161 0 0
-0.9273 1.5880 -0.1819 0.411 0.446 0.795 191 178 164 0 0
-0.9321 1.5932 -0.1817 0.387 0.346 0.855 192 178 165 0 0
-0.9376 1.5987 -0.1816 0.447 0.381 0.809 190 177 162 0 0
-0.9447 1.6079 -0.1808 0.687 0.263 0.677 190 176 161 0 0
-0.9453 1.6622 -0.1644 0.456 0.115 0.882 165 143 129 0 0
-0.9485 1.6668 -0.1639 0.378 0.038 0.925 166 146 132 0 0
-0.9391 1.6770 -0.1580 0.978 0.087 0.188 177 160 145 0 0
-0.9353 1.6781 -0.1566 0.957 0.202 -0.209 170 151 136 0 0
-0.9468 1.7587 -0.1353 0.381 0.039 0.924 172 154 136 0 0
-0.9457 1.7670 -0.1324 0.216 -0.201 0.956 173 156 135 0 0
-0.9461 1.7702 -0.1316 0.176 -0.220 0.960 172 153 133 0 0
-0.9466 1.7735 -0.1307 0.176 -0.220 0.960 168 149 131 0 0
-0.9475 1.7770 -0.1299 0.219 -0.218 0.951 169 150 131 0 0
-0.9497 1.7812 -0.1292 0.266 -0.074 0.961 169 151 131 0 0
-0.9515 1.7852 -0.1285 0.264 -0.040 0.964 168 150 131 0 0
-0.9531 1.7891 -0.1278 0.285 0.009 0.958 166 147 128 0 0
-0.9553 1.7934 -0.1271 0.290 0.013 0.957 165 146 127 0 0
-0.9576 1.7977 -0.1265 0.309 -0.068 0.949 167 149 130 0 0
-0.9307 1.8352 -0.1073 0.752 -0.239 0.614 163 142 127 0 0
-0.9304 1.8380 -0.1063 0.817 0.025 0.575 161 141 126 0 0
-0.9338 1.8814 -0.0940 0.195 -0.245 0.950 168 151 132 0 0
-0.9308 1.8824 -0.0929 0.407 0.303 0.862 168 150 132 0 0
-1.0018 0.0562 -0.6753 0.705 -0.419 0.572 182 164 142 0 0
-1.0043 0.0782 -0.6693 0.500 -0.249 0.830 182 164 141 0 0
-1.0007 0.0931 -0.6637 0.761 -0.305 0.573 185 167 146 0 0
-1.0021 0.1321 -0.6522 0.566 -0.282 0.775 165 142 123 0 0
-1.0045 0.2829 -0.6067 0.609 -0.231 0.759 197 180 164 0 0
-0.9748 0.4448 -0.5487 0.652 -0.555 0.517 192 174 157 0 0
-0.9726 0.4486 -0.5469 0.650 -0.488 0.583 195 178 160 0 0
-0.9755 0.4510 -0.5469 0.463 0.268 0.845 200 184 168 0 0
-0.9787 0.4566 -0.5462 0.382 0.415 0.826 203 186 171 0 0
-0.9709 0.5034 -0.5296 0.353 -0.603 0.715 197 180 164 0 0
-0.9854 0.5356 -0.5239 0.588 -0.740 0.327 191 169 146 0 0
-0.8628 0.6705 -0.4472 0.506 -0.330 0.797 197 83 61 0 0
-0.8620 0.6736 -0.4461 0.597 -0.783 0.171 192 81 60 0 0
-0.8554 0.7186 -0.4304 0.502 -0.188 0.844 104 63 47 0 0
-0.7915 0.7897 -0.3902 0.730 -0.196 0.655 116 70 28 0 0
-0.7908 0.7926 -0.3891 0.819 0.160 0.551 140 94 39 0 0
-0.8082 0.8030 -0.3909 0.982 0.176 0.067 102 58 21 0 0
-0.8033 0.8401 -0.3782 0.723 -0.121 0.681 177 86 34 0 0
-0.8202 0.8569 -0.3779 0.566 -0.119 0.815 160 87 37 0 0
-0.8232 0.8797 -0.3718 0.667 0.135 0.733 134 64 29 0 0
-0.8273 0.8826 -0.3721 0.558 0.160 0.814 133 64 31 0 0
-0.8289 0.8855 -0.3717 0.490 -0.150 0.859 131 62 30 0 0
-0.8316 0.8884 -0.3716 0.436 -0.036 0.899 130 60 32 0 0
-0.8346 0.8913 -0.3716 0.398 -0.002 0.917 129 58 31 0 0
-0.8384 0.8943 -0.3717 0.449 0.131 0.884 126 58 30 0 0
-0.8402 0.8972 -0.3714 0.426 0.170 0.889 124 58 31 0 0
-0.8423 0.9146 -0.3666 0.837 0.490 -0.242 113 50 27 0 0
-0.8424 0.9175 -0.3658 0.936 0.158 -0.314 108 45 23 0 0
-0.8445 0.9263 -0.3637 0.925 0.263 -0.274 103 43 24 0 0
-0.8455 0.9292 -0.3631 0.888 0.393 -0.237 105 44 24 0 0
-0.8456 0.9321 -0.3622 0.893 0.450 0.002 107 46 25 0 0
-0.8443 0.9349 -0.3610 0.834 0.329 0.444 111 50 28 0 0
-0.8457 0.9379 -0.3605 0.834 0.329 0.444 114 52 28 0 0
-0.8398 0.9751 -0.3474 0.686 -0.395 0.611 157 81 56 0 0
-0.8730 0.9922 -0.3518 0.475 -0.854 -0.211 167 71 56 0 0
-0.8410 1.0069 -0.3381 0.098 -0.598 0.795 207 96 79 0 0
-0.8489 1.0221 -0.3357 0.397 -0.118 0.910 211 97 79 0 0
-0.8588 1.0522 -0.3294 0.605 -0.014 0.796 201 89 75 0 0
-0.8676 1.0620 -0.3289 0.969 -0.136 -0.207 199 90 77 0 0
-0.8667 1.0648 -0.3278 0.990 -0.139 -0.029 199 90 77 0 0
-0.8753 1.0777 -0.3263 0.909 -0.355 -0.217 195 90 79 0 0
-0.8798 1.0812 -0.3265 0.800 0.572 0.180 194 90 78 0 0
-0.8830 1.0846 -0.3264 0.939 0.173 0.298 195 90 79 0 0
-0.8839 1.0877 -0.3258 0.724 -0.011 0.690 193 90 75 0 0
-0.8896 1.1063 -0.3217 0.895 0.255 0.365 185 95 84 0 0
-0.9564 1.2796 -0.2880 0.356 -0.355 0.864 173 151 132 0 0
-0.9530 1.2941 -0.2826 0.424 0.054 0.904 183 163 145 0 0
-0.9549 1.2976 -0.2821 0.429 -0.063 0.901 183 162 143 0 0
-0.9483 1.3020 -0.2788 0.451 0.301 0.840 185 164 147 0 0
-0.9481 1.3507 -0.2639 0.242 -0.269 0.932 182 163 146 0 0
-0.9500 1.3573 -0.2624 0.301 -0.132 0.944 185 165 149 0 0
-0.9224 1.4743 -0.2187 0.268 -0.097 0.958 196 182 166 0 0
-0.9263 1.4787 -0.2184 0.530 -0.467 0.708 197 182 167 0 0
-0.9437 1.5276 -0.2085 0.520 0.095 0.849 178 160 141 0 0
-0.9445 1.5611 -0.1985 0.369 0.006 0.929 182 164 148 0 0
-0.9445 1.5641 -0.1976 0.286 -0.142 0.948 183 166 150 0 0
-0.9204 1.5832 -0.1848 0.540 0.606 0.584 185 169 153 0 0
-0.9240 1.5878 -0.1844 0.466 0.111 0.878 188 173 159 0 0
-0.9537 1.7429 -0.1456 0.735 -0.674 0.070 153 132 115 0 0
-0.9453 1.7651 -0.1363 0.264 -0.114 0.958 175 158 141 0 0
-0.9462 1.7866 -0.1300 0.232 -0.044 0.972 175 158 140 0 0
-0.9474 1.7902 -0.1293 0.199 -0.111 0.974 174 156 137 0 0
-0.9513 1.7955 -0.1288 0.189 -0.192 0.963 172 153 136 0 0
-0.9387 1.8030 -0.1228 0.314 0.320 0.894 164 143 126 0 0
-0.9338 1.8267 -0.1142 0.641 -0.335 0.691 151 130 111 0 0
-0.9226 1.8786 -0.0951 0.726 0.032 0.687 164 145 128 0 0
-0.9214 1.8807 -0.0941 0.797 -0.309 0.519 168 150 132 0 0
-1.0007 0.0903 -0.6682 0.927 0.050 0.371 172 150 129 0 0
-1.0021 0.1492 -0.6506 0.482 -0.279 0.830 185 168 150 0 0
-1.0090 0.2191 -0.6312 0.439 0.182 0.880 185 168 150 0 0
-1.0003 0.2883 -0.6076 0.690 -0.392 0.609 193 177 160 0 0
-0.9994 0.2919 -0.6062 0.580 -0.316 0.751 194 177 160 0 0
-0.9844 0.4139 -0.5645 0.762 0.122 0.636 190 171 154 0 0
-0.9714 0.4400 -0.5527 0.631 -0.503 0.590 199 183 167 0 0
-0.9718 0.4463 -0.5509 0.652 -0.555 0.517 197 180 163 0 0
-0.9706 0.4498 -0.5495 0.695 -0.281 0.662 190 173 155 0 0
-0.9724 0.4557 -0.5482 0.357 -0.019 0.934 187 168 148 0 0
-0.8566 0.6780 -0.4465 0.472 -0.658 0.587 188 80 60 0 0
-0.8732 0.7027 -0.4437 0.817 0.539 0.205 107 66 48 0 0
-0.8734 0.7057 -0.4429 0.875 0.193 0.443 106 65 47 0 0
-0.8096 0.8436 -0.3821 0.357 0.557 0.750 154 72 37 0 0
-0.8010 0.8466 -0.3787 0.852 -0.435 0.292 149 72 34 0 0
-0.8151 0.8606 -0.3785 0.580 -0.497 0.645 137 69 31 0 0
-0.8205 0.8634 -0.3793 0.894 -0.379 0.240 135 68 29 0 0
-0.8187 0.8663 -0.3778 0.927 -0.350 0.135 136 70 30 0 0
-0.8273 0.8749 -0.3777 0.765 -0.039 0.643 133 68 31 0 0
-0.8267 0.8806 -0.3758 0.612 -0.071 0.787 128 60 31 0 0
-0.8274 0.8835 -0.3751 0.605 -0.265 0.750 127 60 32 0 0
-0.8325 0.8864 -0.3757 0.568 -0.061 0.821 125 57 29 0 0
-0.8419 0.9155 -0.3696 0.923 0.368 0.111 105 41 23 0 0
-0.8437 0.9184 -0.3692 0.936 0.158 -0.314 105 42 24 0 0
-0.8428 0.9271 -0.3663 0.994 0.017 -0.109 108 46 26 0 0
-0.8429 0.9300 -0.3654 0.998 0.064 0.020 110 48 26 0 0
-0.8438 0.9358 -0.3639 0.826 0.475 0.303 114 53 29 0 0
-0.8444 0.9387 -0.3632 0.843 0.343 0.415 117 55 32 0 0
-0.8276 0.9951 -0.3410 0.660 -0.705 0.258 181 78 67 0 0
-0.8237 0.9977 -0.3391 0.717 0.437 0.543 187 81 68 0 0
-0.8681 1.0630 -0.3321 0.969 -0.136 -0.207 200 89 79 0 0
-0.8675 1.0659 -0.3310 0.969 -0.136 -0.207 199 88 78 0 0
-0.8846 1.0711 -0.3344 0.611 -0.778 0.145 198 88 78 0 0
-0.9350 1.1478 -0.3256 0.505 -0.465 0.727 204 186 174 0 0
-0.9510 1.2886 -0.2872 0.517 -0.543 0.661 176 155 138 0 0
-0.9503 1.2976 -0.2842 0.423 -0.106 0.900 185 165 147 0 0
-0.9457 1.3572 -0.2647 0.272 -0.057 0.961 186 167 152 0 0
-0.9407 1.4222 -0.2433 0.535 -0.176 0.827 181 162 146 0 0
-0.9337 1.4288 -0.2393 0.542 -0.562 0.624 188 170 153 0 0
-0.9199 1.4745 -0.2213 0.469 -0.066 0.881 190 173 157 0 0
-0.9186 1.4770 -0.2201 0.596 -0.071 0.800 194 177 164 0 0
-0.9423 1.5103 -0.2169 0.535 -0.008 0.845 178 160 141 0 0
-0.9196 1.6520 -0.1669 0.439 -0.288 0.851 164 145 129 0 0
-0.9485 1.7354 -0.1498 0.300 -0.107 0.948 172 153 137 0 0
-0.9494 1.7389 -0.1490 0.310 -0.062 0.949 167 148 132 0 0
-0.9355 1.7581 -0.1391 0.551 -0.182 0.814 176 159 140 0 0
-0.9365 1.7616 -0.1383 0.462 0.034 0.886 176 159 141 0 0
-0.9340 1.7720 -0.1344 0.421 -0.256 0.870 179 164 148 0 0
-0.9361 1.7762 -0.1337 0.270 -0.251 0.929 172 155 139 0 0
-0.9316 1.8268 -0.1169 0.962 -0.181 0.203 157 135 120 0 0
-0.9297 1.8286 -0.1158 0.849 -0.522 -0.087 157 134 120 0 0
-0.9287 1.8309 -0.1148 0.655 -0.755 0.043 152 131 115 0 0
-0.9293 1.8754 -0.1014 0.040 -0.689 0.723 168 151 133 0 0
-0.9278 1.8774 -0.1003 0.278 -0.452 0.848 167 148 130 0 0
-0.9247 1.8813 -0.0982 0.884 -0.056 0.465 164 146 129 0 0
-0.9202 1.8814 -0.0969 0.956 -0.292 -0.000 164 146 128 0 0
-0.9990 0.0618 -0.6802 0.823 -0.482 0.301 185 168 151 0 0
-0.9958 0.0799 -0.6737 0.831 -0.010 0.557 187 170 148 0 0
-0.9970 0.0959 -0.6691 0.695 -0.611 0.379 172 152 129 0 0
-0.9873 0.1201 -0.6589 0.706 -0.498 0.504 176 154 134 0 0
-0.9953 0.1428 -0.6543 0.797 -0.382 0.468 184 165 147 0 0
-0.9938 0.1468 -0.6526 0.688 -0.552 0.471 187 170 155 0 0
-0.9967 0.1488 -0.6528 0.612 0.034 0.790 189 172 155 0 0
-0.9960 0.2871 -0.6103 0.843 -0.320 0.432 193 175 158 0 0
-0.9952 0.2907 -0.6090 0.868 -0.314 0.383 195 179 160 0 0
-0.9946 0.2975 -0.6067 0.615 -0.453 0.645 198 181 164 0 0
-0.9762 0.3652 -0.5806 0.502 0.085 0.861 185 166 146 0 0
-0.9712 0.4567 -0.5512 0.559 0.303 0.772 183 163 143 0 0
-0.9765 0.5357 -0.5285 0.330 -0.029 0.944 192 168 150 0 0
-0.8654 0.7044 -0.4443 0.578 -0.586 0.567 109 68 50 0 0
-0.8605 0.7256 -0.4364 0.805 0.551 0.218 110 67 51 0 0
-0.8412 0.9134 -0.3733 0.938 0.300 0.177 110 43 25 0 0
-0.8429 0.9164 -0.3728 0.899 0.427 0.095 110 45 25 0 0
-0.8438 0.9193 -0.3722 0.920 0.393 -0.013 110 45 27 0 0
-0.8454 0.9223 -0.3718 0.996 0.081 0.034 111 48 28 0 0
-0.8458 0.9252 -0.3710 0.945 0.291 0.150 113 50 30 0 0
-0.8450 0.9281 -0.3699 0.908 0.348 0.232 113 51 29 0 0
-0.8345 0.9363 -0.3643 0.569 -0.319 0.758 121 58 33 0 0
-0.8209 0.9983 -0.3413 0.865 0.313 0.392 191 84 70 0 0
-0.8279 1.0104 -0.3397 0.667 0.555 0.496 206 92 76 0 0
-0.8154 1.0205 -0.3329 0.056 0.023 0.998 206 89 74 0 0
-0.8463 1.0266 -0.3402 0.795 -0.561 0.231 206 89 74 0 0
-0.8885 1.0696 -0.3394 0.682 -0.658 -0.320 198 89 79 0 0
-0.9362 1.1399 -0.3319 0.387 -0.804 0.451 196 172 154 0 0
-0.9335 1.1425 -0.3303 0.417 -0.794 0.441 196 172 155 0 0
-0.9316 1.1482 -0.3279 0.588 -0.307 0.748 200 181 167 0 0
-0.9467 1.2825 -0.2913 0.497 -0.179 0.849 179 158 141 0 0
-0.9489 1.2861 -0.2909 0.517 -0.543 0.661 182 160 143 0 0
-0.9470 1.2886 -0.2895 0.609 -0.455 0.650 183 162 145 0 0
-0.9450 1.2942 -0.2872 0.620 -0.002 0.784 201 186 172 0 0
-0.9368 1.3858 -0.2568 0.382 -0.422 0.822 190 172 158 0 0
-0.9356 1.3975 -0.2529 0.507 0.189 0.841 194 178 163 0 0
-0.9398 1.4140 -0.2490 0.560 -0.669 0.489 183 165 149 0 0
-0.9366 1.4219 -0.2457 0.538 -0.161 0.827 185 166 150 0 0
-0.9309 1.4290 -0.2418 0.690 -0.461 0.558 188 170 154 0 0
-0.9314 1.4322 -0.2410 0.680 -0.709 0.184 189 172 156 0 0
-0.9311 1.4351 -0.2400 0.751 -0.595 0.286 189 171 155 0 0
-0.9124 1.6174 -0.1788 0.394 -0.068 0.917 182 165 150 0 0
-0.9159 1.6515 -0.1694 0.635 -0.246 0.732 162 143 127 0 0
-0.9161 1.6545 -0.1685 0.560 -0.465 0.686 172 153 136 0 0
-0.9398 1.7142 -0.1572 0.832 0.234 -0.503 152 132 116 0 0
-0.9394 1.7169 -0.1562 0.864 0.269 -0.426 152 131 115 0 0
-0.9060 1.7283 -0.1429 0.701 0.708 0.088 158 138 121 0 0
-0.9338 1.7555 -0.1428 0.388 -0.004 0.922 174 157 139 0 0
-0.9318 1.7603 -0.1407 0.528 0.058 0.847 180 162 146 0 0
-0.9284 1.7614 -0.1394 0.718 -0.009 0.696 181 166 149 0 0
-0.9262 1.7660 -0.1373 0.936 0.207 0.286 192 179 163 0 0
-0.9269 1.7694 -0.1365 0.974 0.224 0.027 188 174 157 0 0
-0.9277 1.7728 -0.1357 0.974 0.224 0.027 179 162 145 0 0
-0.9325 1.8021 -0.1281 0.284 -0.382 0.879 169 150 131 0 0
-0.9274 1.8374 -0.1158 0.995 -0.091 -0.035 151 127 110 0 0
-0.9273 1.8403 -0.1149 0.944 -0.122 -0.306 152 130 114 0 0
-0.9212 1.8395 -0.1134 0.893 0.397 -0.212 155 134 118 0 0
-0.9182 1.8698 -0.1032 0.662 -0.745 0.074 168 151 133 0 0
-0.9198 1.8854 -0.0989 0.830 -0.311 0.464 165 146 129 0 0
-0.9844 0.1220 -0.6611 0.706 -0.498 0.504 172 151 128 0 0
-0.9871 0.1306 -0.6593 0.335 -0.227 0.914 179 159 142 0 0
-0.9939 0.1506 -0.6552 0.583 -0.053 0.811 192 175 159 0 0
-0.9930 0.1543 -0.6538 0.496 -0.272 0.825 189 172 152 0 0
-0.9935 0.2919 -0.6118 0.868 -0.314 0.383 189 172 153 0 0
-0.9707 0.4640 -0.5524 0.785 0.008 0.620 191 170 153 0 0
-0.9598 0.5144 -0.5337 0.965 0.116 0.234 193 175 156 0 0
-0.9709 0.5408 -0.5289 0.630 -0.547 0.551 190 164 143 0 0
-0.9728 0.5436 -0.5286 0.839 -0.465 0.281 189 164 142 0 0
-0.9635 0.5931 -0.5107 0.473 -0.261 0.841 165 129 112 0 0
-0.9628 0.5964 -0.5095 0.552 -0.471 0.688 159 121 103 0 0
-0.9623 0.6060 -0.5064 0.693 -0.286 0.662 126 80 69 0 0
-0.9651 0.6088 -0.5064 0.679 -0.105 0.727 123 76 66 0 0
-0.8473 0.6777 -0.4505 0.279 -0.240 0.930 198 84 65 0 0
-0.8475 0.6806 -0.4497 0.373 -0.487 0.790 196 80 60 0 0
-0.8635 0.7261 -0.4405 0.714 0.674 0.190 111 69 52 0 0
-0.8672 0.7287 -0.4408 0.704 0.691 0.167 111 68 51 0 0
-0.7899 0.8147 -0.3916 0.646 0.213 -0.733 209 184 78 0 0
-0.8114 0.8224 -0.3956 0.501 -0.355 -0.789 190 145 53 0 0
-0.8228 0.8737 -0.3833 0.820 0.570 -0.053 124 61 29 0 0
-0.8304 0.9025 -0.3767 0.280 -0.299 0.912 111 44 26 0 0
-0.8231 1.0051 -0.3431 0.944 0.311 -0.113 201 88 73 0 0
-0.8236 1.0080 -0.3424 0.938 0.220 -0.267 203 89 75 0 0
-0.8742 1.0628 -0.3406 0.960 0.036 0.278 197 86 77 0 0
-0.8819 1.0668 -0.3417 0.441 -0.219 0.870 196 86 76 0 0
-0.8791 1.0693 -0.3400 0.498 -0.657 0.566 195 86 76 0 0
-0.9326 1.1373 -0.3351 0.276 -0.814 0.511 202 180 165 0 0
-0.9280 1.1396 -0.3330 0.255 -0.823 0.507 196 173 157 0 0
-0.9312 1.3400 -0.2726 0.244 -0.393 0.886 195 180 165 0 0
-0.9308 1.3760 -0.2615 0.319 0.083 0.944 187 168 153 0 0
-0.9355 1.3866 -0.2596 0.399 -0.551 0.733 192 175 160 0 0
-0.9327 1.3917 -0.2572 0.469 -0.413 0.781 191 174 158 0 0
-0.9320 1.3944 -0.2562 0.469 -0.413 0.781 191 175 159 0 0
-0.9331 1.3978 -0.2555 0.461 -0.315 0.830 197 181 166 0 0
-0.9340 1.4041 -0.2538 0.427 0.121 0.896 185 167 151 0 0
-0.9366 1.4080 -0.2534 0.480 -0.163 0.862 177 157 140 0 0
-0.9346 1.4104 -0.2521 0.483 -0.345 0.805 180 161 144 0 0
-0.9310 1.4302 -0.2449 0.894 -0.166 0.417 185 168 151 0 0
-0.9219 1.4389 -0.2396 0.976 0.063 0.207 188 171 155 0 0
-0.9065 1.4688 -0.2259 0.904 0.237 0.355 172 153 133 0 0
-0.9224 1.4779 -0.2278 0.816 -0.280 0.505 174 153 135 0 0
-0.9199 1.4799 -0.2264 0.817 0.062 0.573 175 155 136 0 0
-0.9207 1.4832 -0.2257 0.817 0.062 0.573 175 155 137 0 0
-0.9219 1.4866 -0.2250 0.833 0.188 0.520 176 156 137 0 0
-0.9031 1.5762 -0.1920 0.291 0.029 0.956 184 167 153 0 0
-0.9042 1.5796 -0.1913 0.213 -0.182 0.960 186 171 158 0 0
-0.9049 1.5828 -0.1905 0.186 -0.231 0.955 188 175 160 0 0
-0.9074 1.6163 -0.1810 0.394 -0.068 0.917 179 162 147 0 0
-0.9196 1.6339 -0.1792 0.810 0.547 0.209 174 156 140 0 0
-0.9129 1.6483 -0.1728 0.665 -0.169 0.727 162 142 126 0 0
-0.9130 1.6513 -0.1719 0.635 -0.246 0.732 166 146 131 0 0
-0.9385 1.6850 -0.1692 0.953 0.301 -0.018 155 134 118 0 0
-0.9081 1.7308 -0.1462 0.701 0.708 0.088 168 149 132 0 0
-0.9140 1.7370 -0.1460 0.711 0.701 0.057 164 144 128 0 0
-0.9222 1.7503 -0.1443 0.708 -0.417 0.570 174 157 139 0 0
-0.9232 1.7598 -0.1418 0.628 0.131 0.768 183 167 151 0 0
-0.9233 1.7775 -0.1364 0.704 -0.342 0.623 171 153 134 0 0
-0.9269 1.8002 -0.1305 0.331 -0.152 0.931 174 157 139 0 0
-0.9234 1.8011 -0.1292 0.175 -0.317 0.932 170 151 132 0 0
-0.9235 1.8335 -0.1193 0.763 -0.032 0.646 152 130 114 0 0
-0.9219 1.8384 -0.1173 0.883 0.313 0.350 152 131 114 0 0
-0.9226 1.8417 -0.1165 0.870 0.394 0.298 158 135 119 0 0
-0.9254 1.8464 -0.1159 0.912 0.319 0.258 161 140 122 0 0
-0.9281 1.8510 -0.1153 0.723 0.617 0.310 164 143 126 0 0
-0.9330 1.8659 -0.1122 0.940 -0.342 -0.018 166 149 132 0 0
-0.9197 1.8751 -0.1055 0.962 -0.249 -0.115 174 157 139 0 0
-0.9869 0.1477 -0.6577 0.545 -0.417 0.727 181 161 144 0 0
-0.9864 0.1512 -0.6564 0.544 -0.501 0.673 190 173 155 0 0
-0.9684 0.3658 -0.5854 0.714 0.510 0.480 194 176 156 0 0
-0.9704 0.3684 -0.5852 0.714 0.510 0.480 192 174 154 0 0
-0.9667 0.4625 -0.5553 0.885 -0.172 0.432 186 163 144 0 0
-0.9584 0.5123 -0.5375 0.997 0.062 0.050 182 158 137 0 0
-0.9691 0.5419 -0.5317 0.790 -0.021 0.613 174 147 125 0 0
-0.9707 0.5512 -0.5293 0.956 -0.147 0.256 166 136 115 0 0
-0.9705 0.5544 -0.5282 0.948 0.022 0.317 167 139 118 0 0
-0.9591 0.6010 -0.5106 0.453 -0.192 0.871 147 112 95 0 0
-0.9616 0.6133 -0.5076 0.655 -0.400 0.641 124 77 67 0 0
-0.9499 0.6214 -0.5016 0.631 -0.680 0.373 115 67 58 0 0
-0.8416 0.6851 -0.4499 0.402 -0.592 0.699 196 82 62 0 0
-0.8355 0.6946 -0.4451 0.602 -0.754 0.263 116 69 52 0 0
-0.8275 0.7592 -0.4230 0.903 0.103 -0.418 127 57 41 0 0
-0.7955 0.8153 -0.3963 0.695 0.219 -0.684 210 183 78 0 0
-0.8078 0.8432 -0.3914 0.052 -0.191 0.980 145 78 36 0 0
-0.7843 0.8688 -0.3765 0.945 0.238 0.223 115 55 29 0 0
-0.8042 0.8716 -0.3816 0.779 0.474 0.410 116 55 31 0 0
-0.8094 0.8830 -0.3797 0.876 0.032 0.481 108 43 25 0 0
-0.8454 0.9066 -0.3832 0.557 0.790 -0.256 118 48 29 0 0
-0.8295 0.9120 -0.3768 0.595 -0.452 0.664 120 48 30 0 0
-0.8163 0.9514 -0.3608 0.870 -0.298 0.393 137 72 43 0 0
-0.8167 0.9543 -0.3600 0.924 -0.099 0.371 138 71 42 0 0
-0.8218 1.0088 -0.3449 0.849 -0.227 -0.476 199 83 72 0 0
-0.8430 1.0223 -0.3470 0.627 0.250 -0.738 200 83 72 0 0
-0.8786 1.0585 -0.3466 0.077 -0.537 0.840 196 82 75 0 0
-0.8734 1.0608 -0.3443 0.997 0.040 0.073 195 83 74 0 0
-0.8735 1.0637 -0.3434 0.971 -0.105 0.214 194 83 76 0 0
-0.8784 1.0702 -0.3429 0.552 -0.593 0.586 188 81 75 0 0
-0.8811 1.0765 -0.3418 0.761 0.183 -0.623 184 80 74 0 0
-0.8972 1.0966 -0.3404 0.544 0.602 -0.584 169 102 93 0 0
-0.9314 1.2929 -0.2906 0.797 0.059 0.601 200 184 171 0 0
-0.9324 1.2962 -0.2898 0.809 -0.114 0.577 194 178 162 0 0
-0.9212 1.3171 -0.2801 0.681 -0.074 0.729 199 184 170 0 0
-0.9282 1.3222 -0.2806 0.523 -0.342 0.780 199 186 170 0 0
-0.9250 1.3242 -0.2790 0.658 -0.248 0.711 198 183 168 0 0
-0.9216 1.3832 -0.2600 0.361 -0.360 0.860 188 170 155 0 0
-0.9175 1.3849 -0.2583 0.649 -0.138 0.748 188 171 154 0 0
-0.9186 1.3882 -0.2575 0.550 -0.154 0.821 191 173 158 0 0
-0.9233 1.3928 -0.2576 0.352 -0.168 0.921 195 178 163 0 0
-0.9238 1.3959 -0.2567 0.464 0.205 0.862 198 182 167 0 0
-0.9290 1.4066 -0.2550 0.484 0.252 0.838 191 175 159 0 0
-0.9274 1.4331 -0.2464 0.901 -0.195 0.388 183 162 146 0 0
-0.9180 1.4417 -0.2410 0.978 -0.009 0.209 184 166 150 0 0
-0.9099 1.4743 -0.2286 0.717 0.062 0.694 170 151 132 0 0
-0.9120 1.4780 -0.2281 0.658 -0.134 0.741 173 152 132 0 0
-0.9154 1.4823 -0.2278 0.417 0.556 0.719 173 152 133 0 0
-0.9086 1.4826 -0.2257 0.402 -0.073 0.913 171 150 131 0 0
-0.9248 1.5575 -0.2076 0.421 -0.155 0.894 184 166 151 0 0
-0.8916 1.5606 -0.1968 0.679 0.238 0.695 179 162 146 0 0
-0.8999 1.6110 -0.1838 0.539 -0.237 0.808 183 166 151 0 0
-0.9006 1.6143 -0.1830 0.674 0.198 0.712 178 160 144 0 0
-0.9181 1.6345 -0.1820 0.618 0.256 0.743 166 147 131 0 0
-0.9211 1.6389 -0.1815 0.591 0.179 0.787 169 150 133 0 0
-0.9110 1.6428 -0.1773 0.854 -0.143 0.499 169 151 134 0 0
-0.9106 1.6455 -0.1764 0.811 -0.108 0.574 168 149 133 0 0
-0.9108 1.6486 -0.1755 0.811 -0.108 0.574 164 145 130 0 0
-0.9103 1.6513 -0.1745 0.665 -0.169 0.727 169 150 134 0 0
-0.9204 1.6681 -0.1724 0.621 0.132 0.773 160 139 124 0 0
-0.9257 1.6797 -0.1704 0.569 0.077 0.819 158 138 122 0 0
-0.9187 1.7468 -0.1478 0.415 -0.308 0.856 174 157 138 0 0
-0.9195 1.7767 -0.1389 0.668 -0.364 0.648 170 152 132 0 0
-0.9221 1.8428 -0.1194 0.870 0.394 0.298 158 135 119 0 0
-0.9232 1.8465 -0.1187 0.947 -0.087 0.309 162 141 124 0 0
-0.9846 0.0507 -0.6903 -0.005 0.600 0.800 183 163 139 0 0
-0.9892 0.0517 -0.6914 -0.003 0.599 0.801 174 153 131 0 0
-0.9756 0.1205 -0.6662 0.504 -0.203 0.840 184 165 146 0 0
-0.9756 0.1238 -0.6652 0.606 -0.268 0.749 175 155 134 0 0
-0.9769 0.1559 -0.6558 0.377 -0.635 0.674 195 177 159 0 0
-0.9668 0.4376 -0.5665 0.619 -0.380 0.688 171 146 125 0 0
-0.9632 0.4641 -0.5573 0.849 -0.285 0.445 176 150 129 0 0
-0.9551 0.6024 -0.5125 0.448 -0.172 0.877 144 111 95 0 0
-0.8332 0.6956 -0.4474 0.602 -0.754 0.263 133 68 49 0 0
-0.8300 0.6989 -0.4455 0.651 -0.755 0.074 118 71 56 0 0
-0.8488 0.7173 -0.4455 0.440 -0.285 0.852 111 70 52 0 0
-0.8402 0.7474 -0.4337 0.567 -0.098 0.818 108 60 45 0 0
-0.7838 0.8696 -0.3793 0.933 0.207 0.295 111 49 27 0 0
-0.8052 0.8753 -0.3840 0.822 0.420 0.384 106 45 26 0 0
-0.8068 0.8781 -0.3836 0.841 0.416 0.347 105 42 22 0 0
-0.8071 0.8810 -0.3828 0.866 -0.022 0.500 105 41 23 0 0
-0.8074 0.8838 -0.3821 0.884 -0.061 0.463 106 43 23 0 0
-0.8059 0.8923 -0.3790 0.952 -0.173 0.254 114 45 26 0 0
-0.8052 0.8951 -0.3779 0.948 -0.265 0.178 116 46 27 0 0
-0.8062 0.8980 -0.3774 0.951 -0.070 0.301 118 48 28 0 0
-0.8328 0.9043 -0.3834 0.791 -0.441 0.423 120 49 29 0 0
-0.8319 0.9071 -0.3823 0.798 -0.414 0.439 122 50 32 0 0
-0.8136 0.9465 -0.3647 0.942 -0.322 0.100 140 75 46 0 0
-0.8139 0.9493 -0.3639 0.997 0.035 -0.075 142 77 49 0 0
-0.8139 0.9522 -0.3631 0.997 0.035 -0.075 140 73 46 0 0
-0.8155 0.9551 -0.3626 0.975 0.126 0.183 143 77 49 0 0
-0.8160 0.9580 -0.3619 0.975 0.126 0.183 142 73 47 0 0
-0.8180 0.9695 -0.3590 0.700 -0.432 0.569 159 90 63 0 0
-0.8173 0.9723 -0.3579 0.996 0.080 -0.027 161 92 68 0 0
-0.8171 1.0007 -0.3492 0.532 -0.101 0.841 188 77 66 0 0
-0.8227 1.0069 -0.3489 0.713 0.368 0.596 195 79 69 0 0
-0.8517 1.0300 -0.3506 0.611 0.016 -0.792 196 80 73 0 0
-0.8723 1.0587 -0.3480 0.968 -0.041 0.248 191 80 74 0 0
-0.8722 1.0616 -0.3471 0.998 -0.031 0.060 189 80 74 0 0
-0.8729 1.0646 -0.3464 0.939 -0.228 0.256 188 78 74 0 0
-0.8736 1.0676 -0.3456 0.747 0.116 0.655 186 78 73 0 0
-0.9228 1.1347 -0.3399 0.220 -0.444 0.869 189 163 146 0 0
-0.9388 1.2290 -0.3158 0.561 -0.092 0.823 202 185 172 0 0
-0.9394 1.2322 -0.3150 0.561 -0.092 0.823 195 178 164 0 0
-0.9398 1.2353 -0.3141 0.588 -0.130 0.798 191 173 159 0 0
-0.9239 1.2468 -0.3059 0.816 -0.523 0.246 184 164 147 0 0
-0.9342 1.2887 -0.2961 0.791 0.189 0.581 198 181 166 0 0
-0.9186 1.3115 -0.2844 0.761 -0.547 0.348 187 169 151 0 0
-0.9172 1.3142 -0.2832 0.761 -0.547 0.348 190 173 157 0 0
-0.9167 1.3170 -0.2822 0.936 -0.305 0.174 196 180 165 0 0
-0.9246 1.3223 -0.2830 0.523 -0.342 0.780 199 185 169 0 0
-0.9221 1.3245 -0.2815 0.593 -0.155 0.790 198 182 168 0 0
-0.9223 1.3276 -0.2807 0.598 -0.220 0.771 197 181 166 0 0
-0.9224 1.3306 -0.2797 0.598 -0.220 0.771 192 176 160 0 0
-0.9128 1.3428 -0.2732 0.717 -0.612 0.333 188 170 155 0 0
-0.9108 1.3511 -0.2700 0.754 0.114 0.647 194 176 162 0 0
-0.9119 1.3604 -0.2675 0.351 -0.483 0.802 181 160 141 0 0
-0.9127 1.3695 -0.2649 0.213 -0.456 0.864 186 169 152 0 0
-0.9249 1.4065 -0.2573 0.443 0.245 0.863 192 177 162 0 0
-0.9128 1.4202 -0.2495 0.915 -0.393 0.090 169 147 128 0 0
-0.9062 1.4740 -0.2310 0.796 0.275 0.540 175 156 139 0 0
-0.9170 1.5435 -0.2129 0.538 0.191 0.821 163 140 123 0 0
-0.9206 1.5480 -0.2126 0.557 0.191 0.808 167 146 129 0 0
-0.8964 1.6106 -0.1862 0.539 -0.237 0.808 185 168 153 0 0
-0.8973 1.6140 -0.1855 0.594 0.196 0.781 181 163 148 0 0
-0.9159 1.6495 -0.1802 0.360 -0.051 0.932 173 154 138 0 0
-0.9075 1.6512 -0.1771 0.638 -0.251 0.728 174 156 141 0 0
-0.9162 1.6732 -0.1730 0.210 -0.057 0.976 169 149 131 0 0
-0.8936 1.7254 -0.1502 0.406 0.425 0.809 180 164 147 0 0
-0.9088 1.7426 -0.1495 0.302 -0.068 0.951 177 159 142 0 0
-0.9158 1.7788 -0.1405 0.518 -0.503 0.692 171 153 136 0 0
-0.9115 1.7851 -0.1373 0.230 -0.239 0.943 175 158 138 0 0
-0.9167 1.7970 -0.1353 0.462 0.125 0.878 177 158 141 0 0
-0.9142 1.8189 -0.1278 0.733 0.523 0.436 166 148 129 0 0
-0.9214 1.8408 -0.1232 0.761 0.355 0.543 155 134 117 0 0
-0.9200 1.8722 -0.1132 0.830 -0.405 -0.384 163 144 126 0 0
-0.9172 1.8733 -0.1120 0.885 -0.448 -0.125 164 146 129 0 0
-0.9790 0.0507 -0.6923 -0.073 0.083 0.994 178 161 136 0 0
-0.9824 0.0556 -0.6919 -0.048 0.312 0.949 173 152 130 0 0
-0.9736 0.1090 -0.6728 0.210 -0.266 0.941 175 155 133 0 0
-0.9701 0.1334 -0.6643 0.449 -0.470 0.760 181 161 139 0 0
-0.9671 0.1412 -0.6610 0.547 -0.564 0.618 192 175 157 0 0
-0.9650 0.1454 -0.6590 0.547 -0.564 0.618 192 177 159 0 0
-0.9677 0.1832 -0.6483 0.378 0.479 0.792 194 178 161 0 0
-0.9693 0.2020 -0.6431 0.770 -0.306 0.560 190 172 154 0 0
-0.9781 0.2537 -0.6299 0.580 -0.455 0.676 187 169 149 0 0
-0.9570 0.3386 -0.5975 0.845 0.176 0.505 181 162 138 0 0
-0.9644 0.4229 -0.5739 0.497 -0.189 0.847 202 185 170 0 0
-0.9604 0.4304 -0.5704 0.539 0.439 0.719 205 190 174 0 0
-0.9585 0.5138 -0.5443 0.901 -0.132 0.413 180 153 133 0 0
-0.8314 0.6878 -0.4525 0.356 -0.527 0.771 198 85 67 0 0
-0.8309 0.6966 -0.4497 0.547 -0.798 0.253 175 78 55 0 0
-0.8270 0.7000 -0.4475 0.547 -0.798 0.253 129 73 59 0 0
-0.8278 0.7028 -0.4469 0.387 -0.373 0.843 119 72 56 0 0
-0.8277 0.7057 -0.4460 0.329 -0.404 0.854 114 69 52 0 0
-0.8441 0.7215 -0.4461 0.675 0.209 0.708 114 72 55 0 0
-0.8370 0.7484 -0.4357 0.567 -0.098 0.818 118 66 47 0 0
-0.8333 0.7575 -0.4318 0.995 0.040 -0.093 137 61 43 0 0
-0.7842 0.8677 -0.3832 0.979 -0.099 0.179 107 46 26 0 0
-0.7827 0.8705 -0.3819 0.810 0.353 0.468 103 43 23 0 0
-0.8038 0.8790 -0.3857 0.922 0.188 0.339 107 45 25 0 0
-0.8057 0.8818 -0.3854 0.942 0.123 0.311 112 47 27 0 0
-0.8031 0.8875 -0.3829 0.802 -0.429 0.416 116 48 28 0 0
-0.8022 0.8903 -0.3817 0.802 -0.429 0.416 117 48 28 0 0
-0.8168 0.9646 -0.3634 0.956 -0.020 0.294 153 84 59 0 0
-0.8166 0.9675 -0.3624 0.939 -0.102 0.328 147 73 51 0 0
-0.8167 0.9703 -0.3616 0.947 0.300 0.112 150 76 54 0 0
-0.8119 1.0068 -0.3490 0.597 -0.559 0.575 192 77 67 0 0
-0.8376 1.0351 -0.3481 0.723 0.265 -0.638 190 78 73 0 0
-0.8704 1.0594 -0.3505 0.950 0.176 0.259 185 75 68 0 0
-0.8722 1.0625 -0.3501 0.994 -0.100 0.053 184 72 68 0 0
-0.8733 1.0656 -0.3495 0.997 0.051 -0.065 181 74 70 0 0
-0.8751 1.0688 -0.3491 0.934 0.233 0.270 181 74 70 0 0
-0.8827 1.0816 -0.3475 0.889 0.422 -0.179 176 78 72 0 0
-0.8823 1.0846 -0.3464 0.591 0.777 -0.216 174 80 72 0 0
-0.8904 1.0916 -0.3467 0.885 0.318 -0.341 164 87 79 0 0
-0.8914 1.0947 -0.3461 0.971 -0.025 -0.238 152 94 86 0 0
-0.8930 1.0980 -0.3456 0.867 -0.493 0.077 151 104 94 0 0
-0.8948 1.1012 -0.3451 0.733 0.582 0.353 152 107 97 0 0
-0.9185 1.1259 -0.3447 0.217 -0.377 0.900 190 161 145 0 0
-0.9208 1.1293 -0.3444 0.331 -0.694 0.639 189 162 146 0 0
-0.9059 1.1628 -0.3296 0.655 0.162 0.738 201 183 167 0 0
-0.9044 1.1655 -0.3283 0.917 0.208 0.341 197 179 162 0 0
-0.9026 1.1682 -0.3270 0.952 0.305 0.041 197 178 163 0 0
-0.9059 1.1778 -0.3250 0.520 -0.377 0.766 198 181 163 0 0
-0.9058 1.1808 -0.3241 0.424 -0.182 0.887 200 183 168 0 0
-0.9042 1.1834 -0.3228 0.409 -0.239 0.881 205 187 173 0 0
-0.9371 1.2328 -0.3176 0.544 -0.186 0.818 192 174 159 0 0
-0.9353 1.2354 -0.3163 0.408 -0.076 0.910 196 179 164 0 0
-0.9355 1.2385 -0.3154 0.452 -0.104 0.886 201 184 172 0 0
-0.9209 1.2471 -0.3083 0.572 -0.819 0.042 173 152 132 0 0
-0.9213 1.2503 -0.3075 0.837 -0.361 0.411 184 163 146 0 0
-0.9202 1.2530 -0.3063 0.882 -0.140 0.449 188 168 153 0 0
-0.9322 1.2893 -0.2988 0.763 0.370 0.530 197 180 165 0 0
-0.9244 1.2992 -0.2934 0.976 0.043 0.212 205 192 179 0 0
-0.9221 1.3016 -0.2920 0.976 0.005 -0.216 202 186 172 0 0
-0.9187 1.3217 -0.2848 0.580 -0.553 0.598 196 180 164 0 0
-0.9190 1.3248 -0.2840 0.475 -0.167 0.864 196 179 164 0 0
-0.9122 1.3407 -0.2770 0.557 -0.446 0.701 177 157 140 0 0
-0.9103 1.3431 -0.2757 0.437 -0.591 0.678 186 167 151 0 0
-0.9100 1.3490 -0.2738 0.945 0.118 0.304 193 176 162 0 0
-0.9068 1.3599 -0.2695 0.395 -0.594 0.701 185 166 149 0 0
-0.9199 1.4059 -0.2594 0.457 0.152 0.877 195 179 164 0 0
-0.9194 1.4087 -0.2584 0.337 -0.194 0.921 195 179 164 0 0
-0.9118 1.4210 -0.2523 0.807 -0.377 0.454 176 156 139 0 0
-0.9040 1.4803 -0.2318 0.086 0.094 0.992 178 158 142 0 0
-0.9055 1.4838 -0.2312 0.082 -0.041 0.996 183 163 146 0 0
-0.9164 1.5327 -0.2195 0.440 -0.479 0.760 188 174 159 0 0
-0.9155 1.5352 -0.2184 0.440 -0.479 0.760 186 170 154 0 0
-0.9115 1.5395 -0.2159 0.340 -0.336 0.879 176 158 142 0 0
-0.9090 1.5413 -0.2146 0.358 -0.120 0.926 168 148 133 0 0
-0.8933 1.5492 -0.2075 0.173 0.204 0.964 176 157 140 0 0
-0.8771 1.5680 -0.1968 0.943 -0.221 0.248 179 161 146 0 0
-0.8755 1.5731 -0.1948 0.980 -0.196 -0.025 174 155 139 0 0
-0.8851 1.6065 -0.1874 0.496 0.134 0.858 183 165 150 0 0
-0.8953 1.6230 -0.1854 0.405 0.253 0.879 175 158 142 0 0
-0.9044 1.6392 -0.1833 0.318 0.194 0.928 177 159 142 0 0
-0.9067 1.6433 -0.1827 0.303 0.182 0.936 179 162 146 0 0
-0.9119 1.6488 -0.1826 0.355 0.322 0.878 177 160 144 0 0
-0.9045 1.6598 -0.1770 0.217 0.185 0.958 179 161 144 0 0
-0.9070 1.6698 -0.1747 0.212 0.140 0.967 174 154 137 0 0
-0.9166 1.7160 -0.1634 -0.064 -0.448 0.892 176 159 140 0 0
-0.9010 1.7105 -0.1604 0.217 -0.089 0.972 175 158 140 0 0
-0.8967 1.7111 -0.1589 0.331 0.171 0.928 174 157 138 0 0
-0.9046 1.7212 -0.1582 0.130 0.007 0.992 177 160 145 0 0
-0.9085 1.7263 -0.1578 0.112 -0.020 0.994 180 163 146 0 0
-0.9055 1.7480 -0.1503 0.558 -0.058 0.828 180 163 147 0 0
-0.9073 1.7519 -0.1496 0.516 0.296 0.804 177 160 142 0 0
-0.9137 1.7760 -0.1441 0.464 -0.574 0.675 173 155 136 0 0
-0.9126 1.7783 -0.1431 0.407 -0.777 0.480 174 156 138 0 0
-0.9103 1.7799 -0.1419 0.228 -0.822 0.522 174 155 137 0 0
-0.9089 1.7820 -0.1409 0.549 -0.358 0.755 177 159 142 0 0
-0.9111 1.7892 -0.1393 0.547 0.037 0.836 173 155 135 0 0
-0.9087 1.7907 -0.1382 0.342 -0.224 0.912 173 155 135 0 0
-0.9147 1.8644 -0.1174 0.724 0.278 0.631 162 144 125 0 0
-0.9194 1.8703 -0.1170 0.622 0.421 0.661 162 143 126 0 0
-0.9664 0.0542 -0.6911 0.034 0.049 0.998 176 155 134 0 0
-0.9812 0.0632 -0.6928 0.396 -0.630 0.668 177 155 134 0 0
-0.9628 0.1437 -0.6625 0.547 -0.564 0.618 190 173 155 0 0
-0.9606 0.1479 -0.6606 0.547 -0.564 0.618 197 181 163 0 0
-0.9717 0.2243 -0.6406 0.351 -0.532 0.771 199 182 165 0 0
-0.9693 0.2285 -0.6386 0.398 -0.554 0.731 182 162 141 0 0
-0.9642 0.3176 -0.6097 0.333 -0.552 0.764 200 184 169 0 0
-0.9657 0.4072 -0.5827 0.754 0.071 0.653 179 158 139 0 0
-0.9576 0.5211 -0.5454 0.652 -0.294 0.699 170 144 124 0 0
-0.9537 0.5441 -0.5371 0.371 -0.423 0.827 169 140 118 0 0
-0.8283 0.6977 -0.4519 0.537 -0.755 0.376 192 79 58 0 0
-0.8235 0.7069 -0.4476 0.381 -0.395 0.836 119 72 54 0 0
-0.8328 0.7554 -0.4356 0.459 -0.527 0.715 185 75 53 0 0
-0.8333 0.7582 -0.4349 0.959 0.060 0.278 189 74 50 0 0
-0.8160 0.7682 -0.4265 0.776 -0.630 -0.030 189 72 48 0 0
-0.7716 0.7990 -0.4036 0.802 -0.276 0.529 164 67 34 0 0
-0.7977 0.8148 -0.4067 0.931 0.275 0.240 188 114 45 0 0
-0.7983 0.8176 -0.4060 0.974 0.197 0.109 188 112 41 0 0
-0.7789 0.8629 -0.3862 0.960 -0.024 0.279 105 45 23 0 0
-0.8362 0.9090 -0.3896 0.651 -0.695 0.305 130 53 31 0 0
-0.8160 0.9655 -0.3661 0.956 -0.020 0.294 152 77 58 0 0
-0.8135 0.9681 -0.3645 0.888 0.150 0.436 153 74 59 0 0
-0.8230 0.9716 -0.3663 0.902 0.243 0.356 160 82 67 0 0
-0.8236 0.9745 -0.3656 0.889 0.387 0.246 152 70 55 0 0
-0.8249 0.9775 -0.3651 0.893 0.402 0.204 149 63 52 0 0
-0.8261 0.9804 -0.3646 0.960 0.209 0.186 151 62 51 0 0
-0.8063 1.0100 -0.3495 0.506 -0.157 0.848 188 73 66 0 0
-0.8487 1.0315 -0.3558 0.517 -0.729 -0.449 187 75 71 0 0
-0.8590 1.0472 -0.3541 0.266 -0.197 0.944 184 74 68 0 0
-0.8623 1.0506 -0.3541 0.182 -0.095 0.979 182 71 70 0 0
-0.8697 1.0603 -0.3534 0.973 0.146 0.178 178 70 67 0 0
-0.8723 1.0635 -0.3532 0.992 0.084 0.091 177 73 68 0 0
-0.8726 1.0665 -0.3524 0.992 0.084 0.091 177 73 68 0 0
-0.8735 1.0725 -0.3508 0.943 0.001 0.334 176 73 69 0 0
-0.9101 1.1316 -0.3439 0.429 -0.404 0.808 189 161 145 0 0
-0.9092 1.1345 -0.3427 0.792 -0.382 0.477 185 158 143 0 0
-0.9028 1.1693 -0.3301 0.952 0.305 0.041 197 180 165 0 0
-0.9021 1.1721 -0.3290 0.814 -0.044 0.580 198 180 165 0 0
-0.9316 1.2387 -0.3176 0.560 -0.058 0.826 206 190 177 0 0
-0.9219 1.2455 -0.3126 0.436 -0.899 0.035 200 184 169 0 0
-0.9190 1.2478 -0.3110 0.493 -0.845 0.205 197 181 167 0 0
-0.9167 1.2502 -0.3095 0.680 -0.606 0.413 198 181 167 0 0
-0.9203 1.2571 -0.3085 0.568 0.455 0.686 193 176 160 0 0
-0.9193 1.2960 -0.2963 0.715 0.575 0.398 196 179 164 0 0
-0.9227 1.2999 -0.2961 0.895 0.425 -0.132 193 174 159 0 0
-0.9068 1.3492 -0.2762 0.379 -0.132 0.916 193 176 159 0 0
-0.9103 1.4216 -0.2551 0.782 -0.361 0.508 196 179 164 0 0
-0.9034 1.4753 -0.2365 0.856 0.382 0.348 183 166 151 0 0
-0.8929 1.4742 -0.2337 0.070 -0.182 0.981 188 172 158 0 0
-0.9031 1.5400 -0.2166 0.281 -0.029 0.959 175 156 141 0 0
-0.8770 1.5693 -0.1997 0.972 -0.231 0.045 172 153 138 0 0
-0.8754 1.5743 -0.1977 1.000 -0.008 -0.012 173 152 137 0 0
-0.8934 1.6321 -0.1855 0.436 0.022 0.900 176 159 143 0 0
-0.9032 1.6399 -0.1861 0.123 -0.143 0.982 177 160 144 0 0
-0.9013 1.6419 -0.1849 0.318 0.194 0.928 180 163 148 0 0
-0.8965 1.6570 -0.1788 0.286 0.178 0.942 180 163 148 0 0
-0.9002 1.6618 -0.1784 0.237 0.181 0.954 183 166 151 0 0
-0.8915 1.7066 -0.1620 0.114 -0.131 0.985 175 158 140 0 0
-0.8885 1.7079 -0.1607 0.224 0.112 0.968 175 157 139 0 0
-0.9008 1.7233 -0.1598 0.178 -0.112 0.978 179 163 147 0 0
-0.8975 1.7274 -0.1575 0.057 -0.662 0.748 184 168 152 0 0
-0.8878 1.7306 -0.1536 0.737 0.669 0.096 186 170 154 0 0
-0.9138 1.8360 -0.1292 0.332 -0.293 0.897 162 140 123 0 0
-0.9596 0.0582 -0.6914 0.077 -0.020 0.997 180 162 140 0 0
-0.9685 0.1059 -0.6795 0.710 -0.616 0.340 178 160 139 0 0
-0.9605 0.1291 -0.6700 0.228 -0.391 0.892 192 174 158 0 0
-0.9596 0.1328 -0.6686 0.250 -0.318 0.915 189 173 157 0 0
-0.9617 0.1447 -0.6655 0.552 -0.345 0.759 177 157 137 0 0
-0.9603 0.1486 -0.6639 0.543 -0.386 0.746 184 165 146 0 0
-0.9603 0.1519 -0.6629 0.362 -0.359 0.860 189 173 156 0 0
-0.9596 0.1586 -0.6606 0.370 -0.658 0.656 194 178 161 0 0
-0.9685 0.2618 -0.6318 0.447 -0.343 0.826 200 185 169 0 0
-0.9636 0.4084 -0.5853 0.702 0.274 0.658 166 142 125 0 0
-0.9534 0.4878 -0.5579 0.916 -0.204 0.345 192 173 153 0 0
-0.9559 0.4904 -0.5578 0.943 -0.314 0.112 187 167 146 0 0
-0.9548 0.4938 -0.5564 0.935 -0.114 0.337 182 161 141 0 0
-0.9534 0.4973 -0.5550 0.877 0.179 0.447 180 158 138 0 0
-0.9516 0.5009 -0.5533 0.827 -0.197 0.527 178 156 136 0 0
-0.9532 0.5037 -0.5529 0.826 -0.079 0.558 182 161 141 0 0
-0.9530 0.5069 -0.5519 0.783 -0.161 0.601 173 151 130 0 0
-0.8094 0.8180 -0.4125 0.886 -0.110 -0.451 178 74 34 0 0
-0.8112 0.8208 -0.4122 0.760 -0.105 -0.641 176 72 36 0 0
-0.8038 0.8806 -0.3916 0.890 0.154 0.428 126 59 34 0 0
-0.8001 0.8919 -0.3870 0.704 -0.325 0.632 128 57 35 0 0
-0.7995 0.8947 -0.3860 0.589 -0.613 0.527 126 53 33 0 0
-0.8442 0.9159 -0.3932 0.955 0.290 -0.055 134 54 38 0 0
-0.8194 0.9552 -0.3736 0.621 -0.575 0.533 153 83 61 0 0
-0.8721 1.0645 -0.3562 0.913 -0.146 0.380 174 70 67 0 0
-0.9077 1.1322 -0.3464 0.512 -0.089 0.854 181 152 138 0 0
-0.9096 1.1356 -0.3459 0.896 -0.390 -0.214 181 151 137 0 0
-0.9048 1.1377 -0.3438 0.824 -0.357 0.440 190 163 149 0 0
-0.8998 1.1996 -0.3233 0.441 -0.251 0.862 190 172 157 0 0
-0.8892 1.2003 -0.3199 0.586 -0.158 0.795 189 170 155 0 0
-0.8982 1.2111 -0.3193 0.314 0.354 0.881 189 169 155 0 0
-0.9186 1.2186 -0.3232 0.221 -0.359 0.907 192 174 159 0 0
-0.9186 1.2217 -0.3223 0.258 -0.017 0.966 191 173 159 0 0
-0.9144 1.2418 -0.3149 0.228 -0.175 0.958 203 189 175 0 0
-0.9152 1.2449 -0.3141 0.228 -0.175 0.958 210 196 184 0 0
-0.9139 1.2476 -0.3129 0.244 -0.344 0.907 210 196 185 0 0
-0.9138 1.2566 -0.3101 0.319 -0.218 0.922 197 180 165 0 0
-0.9177 1.2967 -0.2991 0.676 0.375 0.634 190 172 157 0 0
-0.9153 1.2990 -0.2976 0.276 -0.316 0.908 184 164 148 0 0
-0.9150 1.3019 -0.2966 0.286 -0.600 0.747 181 160 142 0 0
-0.9135 1.3255 -0.2890 0.635 -0.310 0.708 179 159 141 0 0
-0.9010 1.3485 -0.2781 0.649 -0.387 0.655 186 166 149 0 0
-0.9020 1.3518 -0.2774 0.616 -0.267 0.741 182 162 144 0 0
-0.9078 1.4219 -0.2576 0.694 -0.260 0.671 195 178 163 0 0
-0.8989 1.4689 -0.2405 0.942 0.271 0.196 188 170 156 0 0
-0.9007 1.4726 -0.2400 0.856 0.382 0.348 185 169 154 0 0
-0.9026 1.4762 -0.2394 0.856 0.382 0.348 189 173 158 0 0
-0.8971 1.5211 -0.2240 0.358 -0.183 0.916 189 173 158 0 0
-0.9058 1.5306 -0.2237 0.773 -0.363 0.520 196 182 166 0 0
-0.9035 1.5326 -0.2224 0.557 -0.222 0.800 190 175 163 0 0
-0.8786 1.5683 -0.2038 0.934 -0.329 0.138 164 143 127 0 0
-0.8745 1.5866 -0.1970 0.931 0.038 0.364 166 147 131 0 0
-0.8734 1.5890 -0.1959 0.887 0.385 0.256 171 153 137 0 0
-0.8751 1.5927 -0.1953 0.902 0.349 0.256 175 159 143 0 0
-0.8700 1.5931 -0.1936 0.806 0.162 0.569 176 158 144 0 0
-0.8708 1.5964 -0.1928 0.713 -0.149 0.685 176 159 144 0 0
-0.8887 1.6311 -0.1877 0.436 0.022 0.900 179 162 146 0 0
-0.8922 1.6386 -0.1865 0.194 -0.132 0.972 178 161 145 0 0
-0.8881 1.6569 -0.1796 0.120 -0.056 0.991 182 166 150 0 0
-0.8879 1.6597 -0.1787 0.219 -0.336 0.916 184 168 153 0 0
-0.8931 1.6653 -0.1786 0.189 0.206 0.960 186 170 155 0 0
-0.9032 1.6851 -0.1756 0.246 0.317 0.916 179 162 144 0 0
-0.8890 1.7037 -0.1655 0.223 -0.352 0.909 175 157 140 0 0
-0.8902 1.7073 -0.1648 0.339 -0.060 0.939 175 156 140 0 0
-0.8904 1.7102 -0.1640 0.469 0.218 0.856 174 156 138 0 0
-0.8928 1.7145 -0.1634 0.463 0.096 0.881 172 154 137 0 0
-0.8844 1.7272 -0.1569 0.755 0.641 0.139 186 172 157 0 0
-0.9013 1.8123 -0.1360 0.468 0.001 0.884 157 137 120 0 0
-0.9028 1.8161 -0.1353 0.486 0.090 0.869 162 141 123 0 0
-0.9049 1.8203 -0.1347 0.514 0.284 0.809 164 143 126 0 0
-0.9083 1.8282 -0.1333 0.516 0.049 0.855 167 148 131 0 0
-0.9099 1.8321 -0.1326 0.516 0.049 0.855 165 145 126 0 0
-0.9520 0.0592 -0.6924 0.181 0.013 0.983 182 163 144 0 0
-0.9603 0.1102 -0.6793 0.688 -0.676 0.263 182 164 143 0 0
-0.9556 0.1512 -0.6653 0.314 -0.308 0.898 170 149 128 0 0
-0.9477 0.1644 -0.6588 0.543 -0.695 0.472 198 182 166 0 0
-0.9488 0.4959 -0.5576 0.355 -0.213 0.910 191 172 156 0 0
-0.9296 0.6316 -0.5100 0.536 -0.486 0.690 197 168 156 0 0
-0.8076 0.7732 -0.4290 0.750 -0.572 0.332 198 74 53 0 0
-0.7755 0.8060 -0.4090 0.984 -0.128 -0.123 159 61 37 0 0
-0.7760 0.8172 -0.4057 0.460 -0.117 0.880 163 64 39 0 0
-0.8147 0.8558 -0.4058 0.957 0.266 0.114 109 47 25 0 0
-0.7966 0.9012 -0.3863 0.489 -0.381 0.785 131 54 36 0 0
-0.8390 0.9224 -0.3929 0.479 0.481 0.734 138 55 41 0 0
-0.8182 0.9617 -0.3744 0.966 0.235 0.105 150 68 58 0 0
-0.8556 1.0137 -0.3701 0.479 0.780 -0.403 178 69 61 0 0
-0.8711 1.0565 -0.3617 0.943 0.203 0.262 172 70 65 0 0
-0.8725 1.0596 -0.3612 0.993 -0.062 0.102 172 69 64 0 0
-0.8892 1.1212 -0.3475 0.296 -0.188 0.936 176 146 135 0 0
-0.8923 1.1247 -0.3474 0.247 -0.111 0.963 179 151 138 0 0
-0.9012 1.1322 -0.3478 0.302 -0.325 0.896 182 153 139 0 0
-0.8990 1.1467 -0.3427 0.980 -0.077 0.181 191 168 153 0 0
-0.8900 1.1629 -0.3349 0.373 0.098 0.923 187 165 146 0 0
-0.8950 1.1937 -0.3271 0.509 -0.205 0.836 207 193 182 0 0
-0.8949 1.1966 -0.3261 0.565 -0.318 0.761 202 187 173 0 0
-0.8954 1.1997 -0.3253 0.494 -0.223 0.840 196 178 163 0 0
-0.8867 1.2008 -0.3223 0.584 0.010 0.812 190 171 155 0 0
-0.8906 1.2046 -0.3224 0.408 0.381 0.829 190 171 155 0 0
-0.9133 1.2366 -0.3196 0.101 -0.083 0.991 201 185 170 0 0
-0.8886 1.2337 -0.3128 0.143 0.177 0.974 203 187 173 0 0
-0.8956 1.2384 -0.3135 0.166 0.389 0.906 204 189 176 0 0
-0.9111 1.2601 -0.3117 0.167 -0.141 0.976 203 187 173 0 0
-0.9135 1.2906 -0.3030 0.162 -0.182 0.970 201 187 174 0 0
-0.9061 1.2946 -0.2996 0.160 -0.076 0.984 197 181 167 0 0
-0.9116 1.3231 -0.2925 0.457 -0.620 0.638 179 157 139 0 0
-0.9100 1.3256 -0.2913 0.452 -0.425 0.784 175 153 135 0 0
-0.9081 1.3280 -0.2899 0.516 -0.251 0.819 174 152 133 0 0
-0.8985 1.3548 -0.2788 0.629 -0.316 0.710 180 159 141 0 0
-0.8957 1.4218 -0.2574 0.145 -0.466 0.873 197 180 166 0 0
-0.8921 1.5202 -0.2261 0.325 -0.269 0.907 185 169 153 0 0
-0.8925 1.5233 -0.2253 0.269 -0.682 0.680 187 171 157 0 0
-0.8719 1.5377 -0.2145 0.688 0.374 0.622 185 167 154 0 0
-0.8755 1.5652 -0.2071 0.981 0.099 0.164 162 140 126 0 0
-0.8766 1.5715 -0.2056 0.896 -0.301 0.325 160 138 122 0 0
-0.8665 1.5899 -0.1968 0.777 0.137 -0.614 174 157 141 0 0
-0.8570 1.5967 -0.1918 0.827 0.499 0.257 172 155 138 0 0
-0.8613 1.6017 -0.1916 0.836 0.252 0.487 171 153 137 0 0
-0.8673 1.6160 -0.1891 0.587 -0.192 0.786 173 156 140 0 0
-0.8681 1.6451 -0.1804 0.151 -0.305 0.940 180 163 147 0 0
-0.8892 1.6964 -0.1712 0.093 -0.143 0.985 178 161 143 0 0
-0.8880 1.6987 -0.1701 0.167 -0.058 0.984 178 161 142 0 0
-0.8963 1.7119 -0.1686 0.529 -0.602 0.598 173 155 136 0 0
-0.8813 1.7296 -0.1586 0.812 0.189 0.552 183 167 150 0 0
-0.8836 1.7338 -0.1580 0.696 0.166 0.698 182 165 147 0 0
-0.8884 1.7741 -0.1471 0.228 -0.228 0.946 173 154 137 0 0
-0.8952 1.8100 -0.1383 0.420 -0.398 0.815 155 133 116 0 0
-0.8968 1.8138 -0.1376 0.555 -0.013 0.831 159 138 121 0 0
-0.9032 1.8264 -0.1357 0.484 0.191 0.854 168 150 132 0 0
-0.9047 1.8303 -0.1349 0.402 -0.034 0.915 166 148 131 0 0
-0.8998 1.8736 -0.1202 0.322 -0.098 0.942 180 162 145 0 0
-0.8913 1.8768 -0.1166 0.788 -0.144 0.598 175 158 139 0 0
-0.9525 0.0692 -0.6931 0.260 0.111 0.959 197 181 164 0 0
-0.9654 0.1019 -0.6871 0.553 -0.425 0.717 187 170 150 0 0
-0.9475 0.1619 -0.6631 0.523 -0.599 0.606 189 171 157 0 0
-0.9425 0.3777 -0.5954 0.493 -0.014 0.870 197 180 164 0 0
-0.9515 0.4387 -0.5795 0.657 0.043 0.753 183 161 142 0 0
-0.9412 0.5740 -0.5348 0.326 -0.150 0.933 201 181 165 0 0
-0.9419 0.5771 -0.5341 0.326 -0.150 0.933 200 180 162 0 0
-0.9309 0.6197 -0.5176 0.388 -0.131 0.912 179 151 133 0 0
-0.8222 0.6920 -0.4616 0.408 -0.888 0.211 198 84 66 0 0
-0.7742 0.8068 -0.4115 0.931 -0.174 0.321 131 47 32 0 0
-0.8146 0.8280 -0.4175 0.919 -0.055 -0.390 120 48 28 0 0
-0.8162 0.8309 -0.4172 0.872 -0.446 -0.202 115 48 30 0 0
-0.8123 0.8424 -0.4124 0.972 0.161 -0.170 111 47 26 0 0
-0.8157 0.8538 -0.4100 0.956 0.268 0.121 115 51 29 0 0
-0.8129 0.8567 -0.4082 0.872 -0.211 0.441 116 52 27 0 0
-0.7942 0.8907 -0.3920 0.518 -0.430 0.739 135 64 40 0 0
-0.7934 0.8935 -0.3909 0.518 -0.430 0.739 136 61 42 0 0
-0.7924 0.8991 -0.3889 0.441 -0.350 0.826 133 55 36 0 0
-0.8175 0.9540 -0.3799 0.789 -0.545 0.282 146 57 52 0 0
-0.8154 0.9595 -0.3775 0.943 -0.247 0.222 145 57 50 0 0
-0.8609 1.0386 -0.3674 0.460 -0.865 0.203 168 67 63 0 0
-0.8602 1.0503 -0.3636 0.484 0.442 0.755 168 67 63 0 0
-0.8639 1.0536 -0.3637 0.729 0.186 0.658 168 68 64 0 0
-0.8700 1.0573 -0.3645 0.994 -0.092 -0.054 167 69 63 0 0
-0.8680 1.0600 -0.3630 0.968 -0.245 -0.055 168 68 63 0 0
-0.8740 1.0637 -0.3638 0.958 0.238 0.159 169 68 64 0 0
-0.8828 1.1596 -0.3371 0.574 -0.334 0.748 166 138 121 0 0
-0.8839 1.1628 -0.3365 0.499 -0.234 0.835 179 154 137 0 0
-0.8807 1.2005 -0.3239 0.397 0.052 0.916 199 182 167 0 0
-0.8859 1.2046 -0.3243 0.390 0.311 0.867 193 174 159 0 0
-0.8875 1.2079 -0.3238 0.398 0.270 0.877 195 176 162 0 0
-0.8908 1.2116 -0.3237 0.384 0.094 0.919 190 170 155 0 0
-0.8962 1.2188 -0.3232 0.376 0.360 0.854 200 183 171 0 0
-0.9007 1.2496 -0.3151 0.546 0.478 0.688 189 171 154 0 0
-0.9039 1.2564 -0.3140 0.305 -0.246 0.920 188 170 153 0 0
-0.9034 1.2592 -0.3130 0.242 -0.350 0.905 189 171 155 0 0
-0.8651 1.5388 -0.2154 0.940 0.201 0.274 186 168 153 0 0
-0.8622 1.5461 -0.2122 0.948 -0.270 -0.169 170 151 135 0 0
-0.8649 1.5502 -0.2118 0.815 0.398 0.422 169 150 134 0 0
-0.8756 1.5665 -0.2101 0.994 0.102 -0.030 164 142 126 0 0
-0.8747 1.5690 -0.2091 0.948 -0.229 0.220 166 145 126 0 0
-0.8659 1.5850 -0.2014 0.781 -0.598 0.181 152 129 113 0 0
-0.8644 1.5872 -0.2003 0.781 -0.598 0.181 157 137 121 0 0
-0.8615 1.5887 -0.1990 0.788 -0.615 -0.029 168 149 134 0 0
-0.8549 1.5970 -0.1944 0.948 0.317 0.024 168 151 136 0 0
-0.8763 1.6332 -0.1899 0.574 -0.406 0.712 171 153 137 0 0
-0.8735 1.6405 -0.1868 0.418 -0.369 0.830 173 155 138 0 0
-0.8640 1.6785 -0.1722 0.841 0.384 0.380 176 158 140 0 0
-0.8768 1.6882 -0.1732 0.828 0.392 0.402 174 156 140 0 0
-0.8810 1.6933 -0.1729 0.674 0.137 0.726 175 158 141 0 0
-0.8899 1.7040 -0.1725 0.826 0.164 0.539 175 157 138 0 0
-0.8834 1.7321 -0.1618 0.803 0.105 0.587 173 155 137 0 0
-0.8789 1.7670 -0.1497 0.639 -0.478 0.603 168 150 130 0 0
-0.8783 1.7695 -0.1488 0.817 -0.039 0.576 169 150 132 0 0
-0.8843 1.7845 -0.1460 0.470 0.294 0.832 171 153 134 0 0
-0.8943 1.8166 -0.1393 0.512 0.100 0.853 158 137 121 0 0
-0.9012 1.8266 -0.1384 0.433 0.254 0.865 170 152 134 0 0
-0.8871 1.8726 -0.1199 0.683 -0.405 0.608 174 157 140 0 0
-0.8891 1.8767 -0.1192 0.898 0.236 0.371 170 153 136 0 0
-0.8896 1.8799 -0.1184 0.978 0.049 0.201 169 151 134 0 0
-0.9424 0.3784 -0.5987 0.682 0.500 0.534 198 180 165 0 0
-0.9423 0.3880 -0.5958 0.989 0.005 0.148 196 179 161 0 0
-0.9363 0.5726 -0.5373 0.303 -0.464 0.832 196 174 155 0 0
-0.9369 0.5756 -0.5365 0.332 -0.164 0.929 201 179 162 0 0
-0.9375 0.5786 -0.5358 0.332 -0.164 0.929 198 176 161 0 0
-0.9150 0.6477 -0.5076 0.641 -0.739 0.206 137 93 80 0 0
-0.8433 0.6814 -0.4748 0.830 0.161 0.534 188 82 66 0 0
-0.7932 0.7587 -0.4354 0.628 -0.703 0.332 206 80 57 0 0
-0.7937 0.7728 -0.4312 0.864 0.486 0.132 203 78 54 0 0
-0.7958 0.9311 -0.3833 0.232 0.583 0.779 144 58 48 0 0
-0.8494 1.0354 -0.3681 0.440 -0.846 0.301 165 66 62 0 0
-0.8587 1.0394 -0.3698 0.504 -0.863 0.028 165 66 61 0 0
-0.8594 1.0424 -0.3691 0.849 0.236 0.474 165 66 62 0 0
-0.8540 1.0447 -0.3667 0.904 0.428 0.007 165 67 64 0 0
-0.8555 1.0477 -0.3662 0.826 0.527 0.201 166 67 62 0 0
-0.8725 1.0557 -0.3692 0.609 0.577 0.544 165 68 63 0 0
-0.8757 1.0590 -0.3691 0.717 0.416 0.560 165 68 63 0 0
-0.8903 1.1234 -0.3540 0.734 0.193 0.651 174 145 133 0 0
-0.8893 1.1441 -0.3473 0.315 0.064 0.947 172 142 126 0 0
-0.8787 1.1629 -0.3382 0.518 -0.158 0.841 190 169 152 0 0
-0.8711 1.2317 -0.3147 0.474 0.622 0.623 202 187 174 0 0
-0.8946 1.2492 -0.3167 0.293 0.131 0.947 193 176 161 0 0
-0.8971 1.2528 -0.3164 0.162 -0.440 0.883 199 182 167 0 0
-0.9013 1.2568 -0.3165 0.315 -0.049 0.948 193 176 159 0 0
-0.9027 1.2602 -0.3159 0.317 -0.022 0.948 190 173 157 0 0
-0.8914 1.3489 -0.2851 0.936 -0.069 0.346 172 150 129 0 0
-0.8937 1.3556 -0.2838 0.742 -0.043 0.670 168 143 126 0 0
-0.8939 1.3586 -0.2830 0.779 -0.228 0.584 171 148 131 0 0
-0.8935 1.3614 -0.2820 0.679 -0.531 0.507 187 167 152 0 0
-0.8819 1.3695 -0.2759 0.541 -0.044 0.840 188 171 155 0 0
-0.8873 1.3771 -0.2752 0.658 -0.054 0.751 188 171 156 0 0
-0.8857 1.3795 -0.2740 0.506 -0.483 0.715 188 170 156 0 0
-0.8901 1.3868 -0.2731 0.322 -0.225 0.920 194 177 162 0 0
-0.8903 1.4045 -0.2678 0.592 -0.194 0.782 185 166 150 0 0
-0.8898 1.4073 -0.2667 0.653 -0.203 0.730 174 151 133 0 0
-0.8850 1.4115 -0.2640 0.343 -0.633 0.694 168 146 128 0 0
-0.8731 1.4247 -0.2562 0.622 0.507 0.597 185 167 153 0 0
-0.8738 1.4279 -0.2554 0.678 0.371 0.634 184 165 150 0 0
-0.8760 1.4316 -0.2550 0.686 0.125 0.717 182 164 148 0 0
-0.8773 1.4350 -0.2543 0.751 -0.062 0.657 182 161 144 0 0
-0.8777 1.4381 -0.2535 0.472 -0.469 0.747 181 160 141 0 0
-0.8761 1.4404 -0.2523 0.321 -0.207 0.924 187 167 147 0 0
-0.8745 1.5615 -0.2147 0.880 0.308 0.363 168 148 131 0 0
-0.8735 1.5697 -0.2118 0.969 -0.148 0.199 175 157 140 0 0
-0.8660 1.5835 -0.2053 0.703 -0.661 0.261 152 129 114 0 0
-0.8647 1.5857 -0.2042 0.781 -0.598 0.181 149 126 110 0 0
-0.8636 1.6196 -0.1934 0.763 0.319 0.562 172 154 137 0 0
