ply
format ascii 1.0
element vertex 824
property float x
property float y
property float z
property float nx
property float ny
property float nz
property uchar diffuse_red
property uchar diffuse_green
property uchar diffuse_blue
property uchar class
property uchar detection
end_header
-0.4938 2.0676 -0.1985 0.456 -0.276 0.846 171 157 146 0 0
-2.0369 0.2591 -0.2147 0.022 -0.959 0.283 183 163 139 0 0
-2.0352 0.2996 -0.2119 0.355 -0.112 0.928 186 168 147 0 0
-2.0346 0.3032 -0.2117 0.355 -0.112 0.928 192 174 154 0 0
-1.9840 0.3288 -0.2137 0.449 -0.075 0.891 172 152 128 0 0
-1.9668 0.3435 -0.2140 0.592 -0.658 0.466 186 167 147 0 0
-1.8576 0.4441 -0.2151 0.238 -0.858 0.455 181 161 136 0 0
-1.8506 0.4458 -0.2155 0.238 -0.858 0.455 181 160 136 0 0
-1.8655 0.4585 -0.2135 0.227 -0.284 0.932 182 163 138 0 0
-1.8477 0.4568 -0.2150 0.545 0.006 0.838 180 159 136 0 0
-1.8480 0.4608 -0.2147 0.527 0.024 0.849 178 157 134 0 0
-1.8398 0.5024 -0.2123 0.152 -0.988 -0.037 180 159 136 0 0
-1.8185 0.5278 -0.2121 0.249 -0.427 0.869 181 160 139 0 0
-1.8106 0.5291 -0.2126 0.313 -0.350 0.883 180 159 137 0 0
-1.8070 0.5319 -0.2127 0.320 -0.353 0.879 181 159 136 0 0
-1.8022 0.5343 -0.2129 0.461 -0.145 0.875 182 160 137 0 0
-1.8002 0.5377 -0.2128 0.420 -0.275 0.865 180 158 137 0 0
-1.8006 0.5420 -0.2124 0.391 -0.304 0.869 185 163 141 0 0
-1.7890 0.5419 -0.2133 0.300 -0.555 0.776 185 163 142 0 0
-1.7843 0.5443 -0.2135 0.257 -0.531 0.808 184 163 142 0 0
-1.7847 0.5486 -0.2132 0.152 -0.601 0.785 183 162 140 0 0
-1.7845 0.5526 -0.2129 0.156 -0.521 0.839 182 161 139 0 0
-1.7722 0.5522 -0.2139 0.209 -0.461 0.862 181 160 137 0 0
-1.7678 0.5547 -0.2141 0.262 -0.385 0.885 180 160 136 0 0
-1.7732 0.5609 -0.2132 0.361 -0.082 0.929 182 161 138 0 0
-1.7698 0.5638 -0.2132 0.410 -0.074 0.909 181 159 136 0 0
-1.7562 0.5795 -0.2132 -0.071 -0.913 0.403 180 158 136 0 0
-1.7212 0.5825 -0.2156 0.906 -0.419 -0.058 177 152 130 0 0
-1.7210 0.5866 -0.2153 0.682 -0.729 0.050 172 147 124 0 0
-1.7172 0.5892 -0.2154 0.756 -0.636 -0.155 172 149 125 0 0
-1.7087 0.6238 -0.2136 0.555 0.151 0.818 174 152 131 0 0
-1.6697 0.6631 -0.2138 0.237 -0.843 0.483 164 137 116 0 0
-1.6532 0.6862 -0.2134 0.323 -0.445 0.835 192 173 154 0 0
-1.6493 0.6888 -0.2135 0.378 -0.393 0.839 193 172 152 0 0
-1.6442 0.6953 -0.2134 0.455 -0.227 0.861 187 167 144 0 0
-1.6312 0.7069 -0.2136 0.172 -0.636 0.753 181 159 137 0 0
-1.0340 0.6794 -0.2613 -0.276 -0.851 0.447 195 169 137 0 0
-0.9729 0.6700 -0.2667 0.365 -0.341 0.866 156 114 35 0 0
-0.9672 0.6893 -0.2657 0.617 -0.459 0.639 129 87 28 0 0
-0.9644 0.6913 -0.2658 0.364 -0.756 0.544 127 85 30 0 0
-0.8824 0.7831 -0.2655 0.694 -0.708 -0.131 101 64 22 0 0
-0.8718 0.7828 -0.2663 0.763 -0.589 0.268 121 80 36 0 0
-0.9035 0.8475 -0.2592 0.808 -0.498 -0.314 89 62 30 0 0
-0.9036 0.8564 -0.2586 0.635 -0.771 -0.041 86 63 31 0 0
-0.8847 0.8713 -0.2590 0.755 -0.627 0.190 106 80 41 0 0
-0.8829 0.8742 -0.2589 0.815 -0.579 0.010 128 94 48 0 0
-0.8117 0.8550 -0.2657 0.410 -0.907 0.092 212 204 121 0 0
-0.8047 0.8573 -0.2661 0.644 -0.549 0.533 225 222 163 0 0
-0.7720 0.8709 -0.2676 0.369 -0.628 0.685 161 144 87 0 0
-0.7724 0.8757 -0.2672 0.911 0.406 0.075 201 182 115 0 0
-0.8000 0.9345 -0.2609 0.896 -0.131 -0.424 188 158 105 0 0
-0.7991 0.9382 -0.2607 0.736 -0.424 -0.528 196 174 138 0 0
-0.9548 1.4832 -0.2096 0.213 -0.427 0.879 200 184 168 0 0
-0.8676 1.5276 -0.2131 0.343 -0.556 0.757 203 189 174 0 0
-0.8639 1.5295 -0.2132 0.321 -0.513 0.796 199 184 171 0 0
-0.8154 1.6126 -0.2109 0.529 -0.821 -0.215 188 170 156 0 0
-0.7854 1.6733 -0.2089 0.816 -0.097 0.570 198 183 172 0 0
-0.7860 1.6822 -0.2082 0.816 -0.228 0.532 193 177 164 0 0
-0.7817 1.6832 -0.2085 0.474 -0.573 0.668 189 171 159 0 0
-0.7766 1.6828 -0.2089 0.207 -0.683 0.701 184 166 153 0 0
-0.7110 1.6928 -0.2132 0.503 -0.486 0.715 193 178 166 0 0
-0.6982 1.6785 -0.2152 0.988 0.155 0.022 197 184 173 0 0
-0.6068 1.8117 -0.2126 0.752 -0.629 0.199 182 165 153 0 0
-0.6029 1.8307 -0.2115 0.914 -0.185 0.362 185 169 159 0 0
-0.5752 1.8370 -0.2132 0.494 -0.388 0.778 182 167 156 0 0
-0.5159 1.9442 -0.2100 0.486 -0.098 0.868 185 171 162 0 0
-2.0240 0.3008 -0.2169 0.403 -0.027 0.915 183 163 144 0 0
-2.0221 0.3041 -0.2168 0.342 -0.178 0.923 181 160 139 0 0
-2.0181 0.3069 -0.2169 0.249 -0.416 0.875 181 160 138 0 0
-2.0127 0.3094 -0.2172 0.220 -0.405 0.888 181 160 136 0 0
-1.9696 0.3404 -0.2182 0.366 -0.649 0.667 187 169 149 0 0
-1.9681 0.3438 -0.2181 0.510 -0.517 0.688 185 167 146 0 0
-1.9097 0.3932 -0.2190 0.615 -0.525 0.588 181 161 139 0 0
-1.8609 0.4412 -0.2193 0.432 -0.729 0.531 169 147 125 0 0
-1.8530 0.4426 -0.2198 0.182 -0.982 0.051 177 155 131 0 0
-1.8377 0.4457 -0.2207 0.346 -0.927 -0.143 180 159 134 0 0
-1.8322 0.4518 -0.2207 0.963 -0.254 0.087 177 155 131 0 0
-1.8407 0.4585 -0.2196 0.631 0.102 0.769 174 152 129 0 0
-1.8419 0.4629 -0.2192 0.575 0.051 0.817 180 159 137 0 0
-1.7952 0.5236 -0.2184 0.393 -0.356 0.848 179 156 134 0 0
-1.7927 0.5268 -0.2184 0.442 -0.298 0.846 178 157 134 0 0
-1.7798 0.5385 -0.2185 0.511 -0.613 0.602 185 163 142 0 0
-1.7705 0.5433 -0.2188 0.156 -0.893 0.423 182 162 138 0 0
-1.7627 0.5445 -0.2194 0.133 -0.898 0.419 181 161 137 0 0
-1.7580 0.5510 -0.2192 0.367 -0.453 0.813 184 163 141 0 0
-1.7611 0.5563 -0.2186 0.450 -0.127 0.884 181 160 137 0 0
-1.7600 0.5600 -0.2185 0.411 -0.111 0.905 178 156 133 0 0
-1.7614 0.5647 -0.2180 0.472 0.175 0.864 179 157 134 0 0
-1.7586 0.5762 -0.2174 0.168 -0.596 0.785 178 158 134 0 0
-1.7210 0.5824 -0.2198 0.799 -0.596 -0.078 170 144 122 0 0
-1.7183 0.5855 -0.2198 0.834 -0.547 0.080 172 147 124 0 0
-1.7171 0.5892 -0.2196 0.900 -0.431 0.058 174 150 126 0 0
-1.6714 0.6595 -0.2181 0.210 -0.928 0.307 161 135 113 0 0
-1.6440 0.6776 -0.2189 0.359 -0.274 0.892 198 179 158 0 0
-1.6434 0.6817 -0.2186 0.301 -0.400 0.866 198 180 158 0 0
-1.6402 0.6846 -0.2187 0.336 -0.359 0.871 197 179 157 0 0
-1.6062 0.7126 -0.2193 0.307 -0.335 0.891 183 161 140 0 0
-0.9622 0.6898 -0.2693 0.364 -0.756 0.544 128 84 28 0 0
-0.9597 0.7037 -0.2685 -0.038 -0.810 -0.586 160 112 20 0 0
-0.8828 0.7834 -0.2687 0.650 -0.745 -0.149 100 64 22 0 0
-0.9095 0.8437 -0.2624 0.963 0.160 0.217 120 80 39 0 0
-0.8851 0.8716 -0.2623 0.830 -0.540 -0.143 104 77 40 0 0
-0.8833 0.8745 -0.2622 0.830 -0.540 -0.143 125 90 47 0 0
-0.8443 0.8622 -0.2660 0.937 -0.091 -0.337 197 173 93 0 0
-0.8298 0.8581 -0.2674 -0.152 -0.918 -0.365 210 194 100 0 0
-0.8217 0.8596 -0.2679 -0.016 -0.978 -0.209 214 201 113 0 0
-0.8115 0.8547 -0.2690 0.410 -0.907 0.092 214 205 125 0 0
-0.8031 0.8558 -0.2696 0.644 -0.549 0.533 222 219 160 0 0
-0.7694 0.8685 -0.2712 0.369 -0.628 0.685 175 157 95 0 0
-0.7710 0.8744 -0.2707 0.913 0.391 0.114 209 190 117 0 0
-0.7774 0.8850 -0.2694 0.866 0.500 -0.002 204 183 107 0 0
-0.8019 0.9364 -0.2640 0.617 -0.544 -0.569 189 160 105 0 0
-0.7809 1.6740 -0.2135 0.658 -0.194 0.728 193 177 164 0 0
-0.7049 1.6821 -0.2186 0.586 -0.265 0.766 191 175 162 0 0
-0.7020 1.6851 -0.2186 0.846 -0.160 0.508 191 176 165 0 0
-0.6677 1.7304 -0.2180 0.295 -0.814 0.500 185 167 155 0 0
-0.5740 1.8345 -0.2177 0.390 -0.609 0.691 179 165 152 0 0
-0.5707 1.8366 -0.2178 0.390 -0.609 0.691 180 164 152 0 0
-0.4999 2.0399 -0.2088 0.107 -0.801 0.590 170 153 143 0 0
-1.9805 0.3092 -0.2238 0.134 -0.671 0.729 188 168 146 0 0
-1.9749 0.3116 -0.2240 0.172 -0.617 0.768 198 180 162 0 0
-1.9750 0.3153 -0.2237 0.514 -0.395 0.762 195 179 158 0 0
-1.9708 0.3180 -0.2239 0.620 -0.065 0.782 192 177 155 0 0
-1.9734 0.3300 -0.2228 0.591 0.164 0.789 197 180 163 0 0
-1.9731 0.3337 -0.2226 0.536 0.004 0.844 192 175 156 0 0
-1.9180 0.3840 -0.2232 0.517 -0.373 0.771 172 152 128 0 0
-1.9161 0.3873 -0.2231 0.488 -0.463 0.740 174 152 129 0 0
-1.9086 0.3890 -0.2235 0.618 -0.732 0.286 171 149 126 0 0
-1.9037 0.3915 -0.2237 0.609 -0.761 0.222 173 152 129 0 0
-1.8572 0.4400 -0.2238 0.432 -0.729 0.531 165 143 121 0 0
-1.8517 0.4423 -0.2240 0.255 -0.889 0.380 173 151 128 0 0
-1.8449 0.4440 -0.2244 0.301 -0.914 0.272 176 155 132 0 0
-1.8386 0.4460 -0.2248 0.346 -0.927 -0.143 180 161 136 0 0
-1.7953 0.5195 -0.2229 0.253 -0.463 0.849 185 163 141 0 0
-1.7904 0.5218 -0.2231 0.253 -0.463 0.849 179 155 133 0 0
-1.7835 0.5276 -0.2232 0.614 0.127 0.779 174 150 128 0 0
-1.7832 0.5315 -0.2229 0.622 -0.037 0.782 178 155 133 0 0
-1.7761 0.5372 -0.2231 0.506 -0.558 0.658 179 158 135 0 0
-1.7724 0.5399 -0.2231 0.204 -0.895 0.396 180 160 136 0 0
-1.7516 0.5445 -0.2244 0.579 -0.719 0.385 187 167 143 0 0
-1.7517 0.5487 -0.2241 0.748 -0.261 0.610 186 166 142 0 0
-1.7506 0.5565 -0.2236 0.502 -0.097 0.859 179 158 134 0 0
-1.7551 0.5623 -0.2229 0.523 -0.007 0.852 177 156 132 0 0
-1.7502 0.5646 -0.2231 0.499 -0.214 0.840 179 159 136 0 0
-1.7489 0.5683 -0.2229 0.499 -0.214 0.840 182 161 138 0 0
-1.7244 0.5795 -0.2239 0.369 -0.928 0.051 174 150 126 0 0
-1.7175 0.5810 -0.2243 0.206 -0.906 0.369 174 149 126 0 0
-1.7133 0.5835 -0.2245 0.175 -0.874 0.454 178 155 131 0 0
-1.7110 0.5867 -0.2244 0.300 -0.613 0.731 181 157 134 0 0
-1.5980 0.7087 -0.2243 0.278 -0.383 0.881 190 171 150 0 0
-1.6064 0.7305 -0.2222 0.340 -0.447 0.827 190 169 149 0 0
-1.5981 0.7399 -0.2221 0.351 -0.595 0.723 194 174 152 0 0
-0.9614 0.6699 -0.2740 0.577 -0.222 0.786 165 117 32 0 0
-0.9597 0.6880 -0.2729 0.199 -0.971 0.135 130 85 24 0 0
-0.9177 0.7091 -0.2745 0.001 -0.845 0.535 204 163 34 0 0
-0.8965 0.7369 -0.2741 -0.241 -0.962 0.129 144 98 32 0 0
-0.8875 0.7789 -0.2719 0.663 -0.735 0.141 112 75 31 0 0
-0.9072 0.8374 -0.2664 0.841 0.004 0.541 120 76 36 0 0
-0.8906 0.8630 -0.2658 0.994 -0.101 0.031 85 63 34 0 0
-0.8866 0.8729 -0.2654 -0.024 -0.933 -0.358 102 75 36 0 0
-0.8806 0.8722 -0.2659 -0.192 -0.934 -0.301 120 86 41 0 0
-0.8423 0.8606 -0.2696 0.929 -0.115 0.351 194 167 91 0 0
-0.8112 0.8545 -0.2723 0.397 -0.918 -0.003 213 204 120 0 0
-0.8056 0.8537 -0.2728 0.737 -0.627 0.253 217 211 139 0 0
-0.8013 0.8586 -0.2727 0.634 -0.755 0.166 232 232 185 0 0
-0.7703 0.8737 -0.2740 0.913 0.391 0.114 206 188 113 0 0
-0.8198 1.5598 -0.2228 0.760 -0.432 0.486 202 186 173 0 0
-0.7238 1.6431 -0.2241 0.013 -0.578 0.816 187 171 156 0 0
-0.5346 1.8891 -0.2210 0.447 -0.604 0.660 177 161 147 0 0
-0.4862 2.0375 -0.2143 -0.054 -0.779 0.624 174 159 148 0 0
-1.8982 0.3938 -0.2281 0.537 -0.816 0.213 177 155 132 0 0
-1.8953 0.3968 -0.2281 0.561 -0.703 0.438 181 161 137 0 0
-1.7873 0.5126 -0.2281 0.299 -0.393 0.870 187 166 142 0 0
-1.7841 0.5155 -0.2281 0.329 -0.333 0.884 186 165 142 0 0
-1.7790 0.5178 -0.2283 0.397 -0.312 0.863 184 163 140 0 0
-1.7764 0.5209 -0.2283 0.395 -0.338 0.854 173 150 127 0 0
-1.7762 0.5249 -0.2281 0.572 0.046 0.819 167 142 120 0 0
-1.7480 0.5432 -0.2289 0.261 -0.810 0.525 179 157 134 0 0
-1.7473 0.5470 -0.2287 0.619 -0.333 0.712 182 161 139 0 0
-1.7426 0.5493 -0.2288 0.596 -0.051 0.801 184 163 141 0 0
-1.7419 0.5532 -0.2286 0.542 -0.041 0.840 181 161 137 0 0
-1.7436 0.5580 -0.2282 0.487 0.045 0.872 177 156 133 0 0
-1.7201 0.5820 -0.2282 0.159 -0.889 0.430 173 150 126 0 0
-1.7099 0.5821 -0.2290 0.034 -0.951 0.308 179 156 132 0 0
-1.7009 0.5911 -0.2290 0.091 -0.657 0.749 184 162 139 0 0
-1.6809 0.6080 -0.2293 0.498 0.143 0.855 176 154 130 0 0
-1.5897 0.7047 -0.2294 0.341 -0.381 0.859 200 182 164 0 0
-1.5550 0.7451 -0.2291 0.022 -0.755 0.656 181 159 135 0 0
-1.5476 0.7458 -0.2296 0.206 -0.563 0.801 177 154 131 0 0
-1.5412 0.7515 -0.2297 0.371 -0.472 0.800 175 152 128 0 0
-0.9594 0.6609 -0.2780 0.563 -0.523 0.640 253 252 228 0 0
-0.9572 0.6633 -0.2780 0.563 -0.523 0.640 247 242 195 0 0
-0.9552 0.6657 -0.2779 0.566 -0.512 0.646 196 159 53 0 0
-0.9402 0.7096 -0.2760 0.552 -0.743 0.378 221 190 25 0 0
-0.9226 0.7087 -0.2774 -0.103 -0.954 0.281 205 164 15 0 0
-0.9156 0.7075 -0.2780 -0.073 -0.912 0.403 207 164 32 0 0
-0.9076 0.8378 -0.2697 0.785 -0.327 0.526 115 73 31 0 0
-0.8884 0.8611 -0.2695 0.961 0.278 0.003 87 64 35 0 0
-0.8868 0.8730 -0.2688 -0.092 -0.995 -0.043 106 78 40 0 0
-0.8625 0.8607 -0.2714 -0.267 -0.961 0.074 142 102 58 0 0
-0.8495 0.8580 -0.2725 0.256 -0.772 0.581 157 117 65 0 0
-0.8421 0.8559 -0.2732 0.771 -0.084 0.631 169 134 72 0 0
-0.8418 0.8601 -0.2729 0.771 -0.084 0.631 188 159 94 0 0
-0.7666 0.8657 -0.2780 0.614 -0.290 0.734 199 180 107 0 0
-0.7698 0.8732 -0.2773 0.913 0.394 0.105 203 183 105 0 0
-0.7747 0.8824 -0.2763 0.911 0.401 0.095 201 174 92 0 0
-0.8129 1.5570 -0.2277 0.314 -0.922 0.226 186 166 152 0 0
-0.5318 1.8829 -0.2259 0.724 -0.129 0.678 170 152 139 0 0
-0.5315 1.8918 -0.2253 0.770 -0.226 0.596 169 151 138 0 0
-0.5266 1.8903 -0.2258 0.582 -0.404 0.706 172 155 142 0 0
-0.5065 1.8926 -0.2271 -0.148 -0.739 0.657 181 166 156 0 0
-0.4845 2.0331 -0.2191 -0.032 -0.614 0.788 188 174 166 0 0
-0.4791 2.0302 -0.2197 -0.191 -0.626 0.756 185 172 163 0 0
-1.9135 0.3712 -0.2327 0.555 -0.237 0.798 190 171 148 0 0
-1.8332 0.4800 -0.2312 0.312 -0.792 0.525 184 164 140 0 0
-1.8069 0.4992 -0.2318 0.195 -0.499 0.845 185 163 139 0 0
-1.7783 0.5095 -0.2331 0.320 -0.379 0.868 188 168 145 0 0
-1.7747 0.5122 -0.2332 0.367 -0.306 0.879 190 171 150 0 0
-1.7721 0.5153 -0.2332 0.367 -0.306 0.879 189 169 146 0 0
-1.7682 0.5180 -0.2333 0.395 -0.338 0.854 183 161 139 0 0
-1.7699 0.5227 -0.2328 0.545 -0.005 0.839 174 151 128 0 0
-1.7639 0.5327 -0.2326 0.400 -0.518 0.756 186 165 144 0 0
-1.7488 0.5435 -0.2330 0.419 -0.681 0.600 175 154 131 0 0
-1.7426 0.5452 -0.2333 0.585 -0.229 0.778 180 159 136 0 0
-1.7376 0.5557 -0.2329 0.467 -0.189 0.864 189 170 149 0 0
-1.6694 0.5907 -0.2354 0.197 -0.559 0.805 188 168 146 0 0
-1.5840 0.7019 -0.2341 0.672 -0.294 0.680 187 166 144 0 0
-1.5892 0.7221 -0.2324 0.272 -0.463 0.843 186 166 144 0 0
-1.5470 0.7410 -0.2341 0.022 -0.755 0.656 199 181 159 0 0
-1.5397 0.7417 -0.2346 0.238 -0.527 0.816 195 176 153 0 0
-1.5344 0.7435 -0.2349 0.294 -0.425 0.856 190 169 145 0 0
-1.5343 0.7479 -0.2346 0.405 -0.388 0.828 193 172 148 0 0
-1.5311 0.7507 -0.2346 0.506 -0.305 0.807 193 173 150 0 0
-1.5261 0.7797 -0.2330 0.431 -0.845 0.317 190 169 147 0 0
-1.4852 0.8031 -0.2344 0.637 0.213 0.741 175 148 125 0 0
-0.9573 0.6710 -0.2806 0.741 0.115 0.661 174 123 32 0 0
-0.9573 0.6864 -0.2796 -0.088 -0.931 -0.356 168 118 30 0 0
-0.9653 0.6997 -0.2781 0.524 -0.667 0.530 164 115 25 0 0
-0.9457 0.7017 -0.2794 0.667 -0.587 0.458 161 115 22 0 0
-0.9205 0.7072 -0.2808 -0.113 -0.953 0.280 198 153 12 0 0
-0.9133 0.7058 -0.2814 -0.073 -0.912 0.403 183 128 17 0 0
-0.8819 0.6945 -0.2844 -0.271 -0.942 0.196 171 116 21 0 0
-0.8540 0.7521 -0.2825 0.035 -0.735 -0.677 116 79 31 0 0
-0.8951 0.8230 -0.2749 -0.360 -0.930 -0.080 118 76 33 0 0
-0.8916 0.8594 -0.2727 0.731 0.274 0.625 85 62 33 0 0
-0.8970 0.8775 -0.2711 0.917 -0.286 -0.278 96 70 39 0 0
-0.8868 0.8731 -0.2722 -0.006 -1.000 -0.009 111 80 45 0 0
-0.8830 0.8742 -0.2724 -0.225 -0.973 0.043 129 92 51 0 0
-0.8543 0.8579 -0.2755 -0.294 -0.955 0.036 142 105 58 0 0
-0.8477 0.8565 -0.2760 0.201 -0.781 0.591 150 114 63 0 0
-0.8439 0.8575 -0.2763 0.381 -0.532 0.756 164 130 71 0 0
-0.7712 0.8746 -0.2803 0.878 0.478 -0.004 202 180 101 0 0
-0.7708 0.8876 -0.2794 0.857 -0.309 0.413 191 158 79 0 0
-1.0807 1.2992 -0.2300 0.108 -0.668 0.737 202 185 166 0 0
-1.0656 1.3017 -0.2309 0.484 -0.502 0.717 199 180 163 0 0
-0.8940 1.4866 -0.2308 0.374 -0.374 0.849 211 196 186 0 0
-0.8075 1.5489 -0.2328 0.305 -0.556 0.773 192 174 160 0 0
-0.7239 1.6354 -0.2330 0.657 -0.671 0.344 192 176 162 0 0
-0.7120 1.6545 -0.2325 0.736 -0.439 -0.515 169 148 134 0 0
-0.7093 1.6578 -0.2325 0.475 -0.735 -0.485 170 149 135 0 0
-0.5259 1.8792 -0.2308 0.705 -0.162 0.690 170 153 140 0 0
-0.5034 1.8853 -0.2320 0.258 -0.684 -0.682 179 163 151 0 0
-0.4816 1.9835 -0.2270 0.304 -0.125 0.944 185 175 166 0 0
-1.9844 0.2300 -0.2412 0.468 -0.831 0.303 186 168 146 0 0
-1.9786 0.2323 -0.2414 0.209 -0.965 0.158 188 170 148 0 0
-1.9781 0.2358 -0.2413 0.465 -0.737 0.491 185 165 141 0 0
-1.7851 0.4997 -0.2374 0.233 -0.467 0.853 181 160 136 0 0
-1.7805 0.5022 -0.2376 0.180 -0.650 0.738 182 161 137 0 0
-1.7772 0.5051 -0.2376 0.162 -0.627 0.762 186 166 142 0 0
-1.7693 0.5063 -0.2381 0.366 -0.381 0.849 191 173 150 0 0
-1.7637 0.5083 -0.2384 0.471 -0.210 0.857 197 180 159 0 0
-1.7623 0.5118 -0.2382 0.500 -0.212 0.840 191 174 152 0 0
-1.7608 0.5153 -0.2381 0.474 -0.203 0.857 188 167 147 0 0
-1.7622 0.5199 -0.2377 0.541 -0.047 0.840 183 161 138 0 0
-1.7626 0.5241 -0.2374 0.518 -0.048 0.854 180 158 135 0 0
-1.7591 0.5269 -0.2375 0.452 -0.229 0.862 180 158 137 0 0
-1.7542 0.5332 -0.2374 0.329 -0.616 0.715 188 167 146 0 0
-1.7340 0.5339 -0.2388 0.050 -0.742 0.669 185 164 142 0 0
-1.7383 0.5395 -0.2381 0.459 -0.314 0.831 183 161 138 0 0
-1.7362 0.5428 -0.2380 0.546 -0.206 0.812 180 159 135 0 0
-1.7304 0.5447 -0.2383 0.559 -0.083 0.825 183 161 140 0 0
-1.6646 0.5888 -0.2400 0.464 -0.510 0.724 190 170 149 0 0
-1.6571 0.6148 -0.2388 0.207 -0.396 0.895 193 177 157 0 0
-1.5751 0.6976 -0.2391 0.460 -0.769 0.445 180 156 133 0 0
-1.5727 0.7008 -0.2391 0.407 -0.896 0.178 182 160 137 0 0
-1.5689 0.7033 -0.2392 0.364 -0.872 0.329 188 167 143 0 0
-1.5638 0.7052 -0.2394 0.291 -0.745 0.600 185 164 142 0 0
-1.5374 0.7361 -0.2392 0.198 -0.533 0.822 191 171 148 0 0
-1.5308 0.7372 -0.2396 0.224 -0.480 0.848 189 168 145 0 0
-1.5301 0.7413 -0.2394 0.388 -0.246 0.888 187 166 143 0 0
-1.5280 0.7446 -0.2393 0.444 -0.242 0.862 187 166 143 0 0
-1.5247 0.7790 -0.2373 0.587 -0.539 0.605 189 167 144 0 0
-1.5129 0.7772 -0.2383 0.149 -0.901 0.407 195 174 151 0 0
-1.4798 0.7818 -0.2403 0.409 -0.793 0.452 191 170 147 0 0
-0.9873 0.6378 -0.2839 0.952 -0.305 -0.011 180 142 79 0 0
-0.9829 0.6425 -0.2839 0.754 -0.646 -0.122 188 146 69 0 0
-0.9771 0.6462 -0.2841 0.580 -0.764 -0.284 170 99 49 0 0
-0.9743 0.6481 -0.2841 0.168 -0.986 0.004 178 94 51 0 0
-0.9580 0.6869 -0.2828 -0.044 -0.977 -0.211 163 114 29 0 0
-0.9606 0.7004 -0.2817 0.098 -0.802 0.589 156 109 21 0 0
-0.8995 0.7035 -0.2857 -0.216 -0.889 0.404 157 106 26 0 0
-0.8493 0.7126 -0.2886 0.664 -0.565 0.491 144 98 35 0 0
-0.8469 0.7186 -0.2884 0.896 -0.157 0.415 149 108 41 0 0
-0.8449 0.7289 -0.2879 0.926 -0.247 0.284 146 103 39 0 0
-0.8562 0.7538 -0.2855 0.055 -0.741 -0.669 119 81 30 0 0
-0.8707 0.8371 -0.2790 -0.318 -0.726 0.610 85 62 32 0 0
-0.8832 0.8744 -0.2757 -0.242 -0.963 0.115 120 87 49 0 0
-0.8634 0.8615 -0.2779 -0.154 -0.946 0.287 126 92 50 0 0
-0.8432 0.8481 -0.2802 0.092 -0.800 0.593 127 92 50 0 0
-0.7590 0.8498 -0.2860 0.934 0.344 0.098 146 127 73 0 0
-0.7668 0.8660 -0.2844 0.909 0.398 0.124 204 185 108 0 0
-0.7739 0.8816 -0.2828 0.909 0.400 0.119 197 169 84 0 0
-1.0685 1.2926 -0.2355 0.126 -0.884 0.449 192 170 149 0 0
-0.7130 1.6483 -0.2370 0.913 -0.383 0.140 170 149 134 0 0
-0.7113 1.6534 -0.2368 0.879 -0.459 0.129 167 145 131 0 0
-0.7104 1.6597 -0.2365 0.475 -0.735 -0.485 168 147 133 0 0
-0.5193 1.8738 -0.2358 0.507 -0.334 0.795 170 154 139 0 0
-1.9771 0.2356 -0.2454 0.493 -0.833 0.250 183 164 141 0 0
-1.7793 0.4938 -0.2424 0.264 -0.242 0.934 186 165 141 0 0
-1.7568 0.5099 -0.2429 0.546 -0.140 0.826 194 176 157 0 0
-1.7563 0.5137 -0.2427 0.504 -0.185 0.843 188 169 148 0 0
-1.7548 0.5172 -0.2425 0.485 -0.125 0.866 187 165 144 0 0
-1.7542 0.5210 -0.2423 0.485 -0.125 0.866 185 164 143 0 0
-1.7488 0.5231 -0.2426 0.328 -0.314 0.891 183 162 140 0 0
-1.7304 0.5366 -0.2430 0.408 -0.172 0.896 184 162 141 0 0
-1.7288 0.5401 -0.2429 0.462 -0.136 0.876 181 159 138 0 0
-1.7075 0.5729 -0.2422 0.341 -0.390 0.855 177 153 131 0 0
-1.6996 0.5739 -0.2427 0.215 -0.502 0.838 176 152 128 0 0
-1.6967 0.5769 -0.2427 0.110 -0.721 0.684 167 142 118 0 0
-1.6882 0.5776 -0.2432 0.090 -0.677 0.731 159 133 111 0 0
-1.5988 0.6741 -0.2431 0.477 -0.196 0.857 169 144 120 0 0
-1.5657 0.7018 -0.2436 0.315 -0.831 0.458 194 174 152 0 0
-1.5599 0.7077 -0.2436 0.136 -0.716 0.685 184 161 139 0 0
-1.5207 0.7768 -0.2419 0.523 -0.404 0.751 187 165 142 0 0
-1.4777 0.7806 -0.2446 0.304 -0.754 0.582 191 168 145 0 0
-0.9892 0.6352 -0.2872 0.924 -0.382 -0.013 184 148 89 0 0
-0.9807 0.6485 -0.2869 0.184 -0.896 -0.404 194 105 66 0 0
-0.9641 0.6489 -0.2880 0.284 -0.946 0.154 200 143 63 0 0
-0.9576 0.6521 -0.2882 0.412 -0.851 0.326 173 121 43 0 0
-0.9744 0.6982 -0.2841 -0.029 -0.766 -0.642 156 108 25 0 0
-0.9559 0.6971 -0.2855 0.177 -0.970 0.168 153 105 23 0 0
-0.9479 0.6993 -0.2859 0.122 -0.751 0.649 156 108 25 0 0
-0.9431 0.6998 -0.2862 0.117 -0.724 0.680 166 119 35 0 0
-0.8566 0.7026 -0.2919 0.427 -0.902 -0.064 152 107 35 0 0
-0.8423 0.7308 -0.2911 0.859 -0.511 -0.044 141 101 34 0 0
-0.8622 0.7546 -0.2882 0.167 -0.883 -0.439 127 87 31 0 0
-0.8738 0.8355 -0.2822 0.255 -0.133 0.958 90 65 37 0 0
-0.8672 0.8604 -0.2811 -0.262 -0.890 0.372 111 81 46 0 0
-0.8591 0.8577 -0.2818 -0.262 -0.890 0.372 117 85 45 0 0
-0.8030 0.8690 -0.2849 -0.482 -0.771 -0.417 176 165 102 0 0
-0.7962 0.9261 -0.2817 0.848 0.529 0.027 189 154 77 0 0
-1.0778 1.2425 -0.2423 0.602 -0.715 0.356 196 173 148 0 0
-0.8783 1.4725 -0.2412 0.566 -0.461 0.683 188 169 152 0 0
-0.8267 1.4914 -0.2435 0.698 -0.710 0.099 185 167 150 0 0
-0.7595 1.5566 -0.2439 0.878 -0.337 0.340 201 187 177 0 0
-0.7234 1.6115 -0.2428 0.563 -0.587 0.582 189 173 158 0 0
-0.5270 1.8531 -0.2408 0.729 -0.169 0.663 177 159 148 0 0
-0.5161 1.8665 -0.2407 0.263 -0.609 0.749 169 151 137 0 0
-0.4461 1.9880 -0.2377 0.219 -0.359 0.907 178 165 156 0 0
-0.4424 1.9889 -0.2379 -0.018 -0.515 0.857 185 172 163 0 0
-0.4413 1.9967 -0.2374 0.281 -0.485 0.828 187 177 168 0 0
-0.4379 1.9985 -0.2375 0.209 -0.596 0.775 188 176 166 0 0
-1.9859 0.2268 -0.2494 0.609 -0.776 0.164 180 160 136 0 0
-1.9803 0.2291 -0.2497 0.378 -0.881 0.284 179 159 135 0 0
-1.7498 0.5034 -0.2479 0.546 -0.153 0.824 186 167 144 0 0
-1.7490 0.5071 -0.2477 0.546 -0.153 0.824 188 170 146 0 0
-1.7481 0.5108 -0.2475 0.529 -0.185 0.828 182 163 139 0 0
-1.7469 0.5143 -0.2474 0.448 -0.116 0.887 190 170 147 0 0
-1.7379 0.5191 -0.2477 0.290 -0.263 0.920 193 172 151 0 0
-1.7316 0.5209 -0.2480 0.208 -0.380 0.901 188 166 147 0 0
-1.7093 0.5247 -0.2492 0.065 -0.663 0.746 186 165 144 0 0
-1.7158 0.5311 -0.2484 0.303 -0.167 0.938 185 164 143 0 0
-1.6893 0.5698 -0.2478 0.215 -0.502 0.838 184 163 139 0 0
-1.6883 0.5735 -0.2476 0.110 -0.721 0.684 181 160 135 0 0
-1.6478 0.5901 -0.2492 0.339 -0.891 0.302 190 170 150 0 0
-1.6449 0.5972 -0.2490 0.171 -0.802 0.572 187 165 144 0 0
-1.6379 0.5984 -0.2494 0.171 -0.802 0.572 183 161 140 0 0
-1.5935 0.6460 -0.2494 0.366 -0.291 0.884 190 169 148 0 0
-1.5734 0.6924 -0.2478 0.473 -0.856 0.211 174 149 126 0 0
-1.5692 0.6947 -0.2479 0.473 -0.856 0.211 182 160 139 0 0
-1.5279 0.7136 -0.2495 0.345 -0.308 0.886 191 172 151 0 0
-1.4761 0.7752 -0.2491 0.265 -0.688 0.676 193 171 149 0 0
-0.9951 0.6352 -0.2900 0.292 -0.937 0.192 191 154 107 0 0
-0.9916 0.6368 -0.2901 0.722 -0.692 0.009 186 136 71 0 0
-0.9884 0.6385 -0.2902 0.923 -0.273 -0.272 188 137 63 0 0
-0.9546 0.6962 -0.2888 0.184 -0.941 0.283 146 100 22 0 0
-0.8739 0.6963 -0.2942 0.784 -0.590 -0.191 151 105 31 0 0
-0.8637 0.7558 -0.2912 0.167 -0.883 -0.439 146 105 40 0 0
-0.8443 0.7564 -0.2924 -0.204 -0.978 -0.045 147 109 42 0 0
-0.8797 0.8669 -0.2832 -0.121 -0.788 0.603 101 75 42 0 0
-0.8507 0.8548 -0.2858 -0.332 -0.883 0.331 119 88 48 0 0
-0.8343 0.8447 -0.2876 0.196 -0.339 0.920 122 91 48 0 0
-0.8335 0.8483 -0.2874 0.336 -0.124 0.934 134 101 56 0 0
-0.9070 1.4291 -0.2461 0.120 -0.599 0.792 196 180 162 0 0
-0.8762 1.4696 -0.2457 0.647 -0.450 0.616 182 161 143 0 0
-0.8661 1.4629 -0.2468 0.022 -0.723 0.691 182 162 145 0 0
-0.8403 1.4553 -0.2489 0.407 -0.879 -0.249 209 195 183 0 0
-0.7581 1.5545 -0.2482 0.651 -0.503 0.569 200 186 178 0 0
-0.7166 1.6079 -0.2476 0.704 -0.588 0.399 189 173 158 0 0
-0.4710 1.9165 -0.2447 0.419 -0.208 0.884 181 166 158 0 0
-0.4570 1.9738 -0.2421 -0.002 -0.290 0.957 189 176 167 0 0
-0.4372 1.9860 -0.2426 0.126 -0.757 0.641 190 179 170 0 0
-0.4328 1.9851 -0.2430 0.724 -0.592 0.355 189 177 167 0 0
-0.4318 1.9933 -0.2425 0.852 -0.158 0.499 188 176 167 0 0
-1.9332 0.2978 -0.2526 0.414 -0.170 0.895 187 167 146 0 0
-1.8656 0.3922 -0.2512 0.408 -0.161 0.899 184 165 142 0 0
-1.6698 0.5621 -0.2536 0.341 -0.265 0.902 190 172 148 0 0
-1.6410 0.5955 -0.2534 0.055 -0.927 0.370 178 156 134 0 0
-1.5670 0.6937 -0.2523 0.424 -0.725 0.543 174 150 128 0 0
-0.9915 0.6367 -0.2933 0.669 -0.708 0.228 186 112 59 0 0
-0.9892 0.6390 -0.2933 0.942 -0.335 0.012 182 107 55 0 0
-0.9881 0.6421 -0.2932 0.942 -0.335 0.012 190 110 63 0 0
-0.9839 0.6506 -0.2930 0.184 -0.896 -0.404 206 104 74 0 0
-0.9473 0.6718 -0.2941 0.957 -0.284 -0.064 145 97 20 0 0
-0.9577 0.6984 -0.2917 -0.029 -0.970 0.241 145 98 18 0 0
-0.9508 0.6974 -0.2923 0.095 -0.962 0.256 145 101 21 0 0
-0.8599 0.7013 -0.2980 0.281 -0.954 0.102 158 111 39 0 0
-0.8468 0.7264 -0.2973 0.869 -0.348 -0.351 149 105 40 0 0
-0.8157 0.7413 -0.2984 0.617 -0.754 0.225 141 101 36 0 0
-0.8561 0.8290 -0.2904 0.040 -0.579 0.814 88 64 34 0 0
-0.7578 1.5467 -0.2528 0.667 -0.498 0.554 194 176 162 0 0
-0.6121 1.6932 -0.2534 0.815 -0.246 0.524 194 178 164 0 0
-0.6092 1.6960 -0.2534 0.787 -0.400 0.470 195 179 166 0 0
-0.6064 1.6990 -0.2534 0.670 -0.549 0.500 196 182 169 0 0
-0.5887 1.7065 -0.2541 0.330 -0.628 0.705 194 178 167 0 0
-0.5855 1.7086 -0.2541 0.515 -0.594 0.617 192 177 164 0 0
-0.4780 1.8937 -0.2498 0.244 -0.360 0.901 158 140 130 0 0
-0.4751 1.8966 -0.2498 0.425 -0.332 0.842 167 150 139 0 0
-0.4728 1.9009 -0.2497 0.557 -0.274 0.784 170 154 143 0 0
-0.4691 1.9019 -0.2499 0.673 -0.211 0.709 174 157 149 0 0
-0.4671 1.9069 -0.2497 0.376 -0.468 0.800 176 161 152 0 0
-0.4644 1.9104 -0.2497 0.584 -0.290 0.758 180 166 157 0 0
-0.4284 1.9735 -0.2482 0.788 -0.024 0.615 184 172 162 0 0
-0.4294 1.9868 -0.2473 0.651 -0.491 0.579 179 167 158 0 0
-1.9540 0.2167 -0.2602 0.225 -0.477 0.849 177 156 132 0 0
-1.7600 0.4674 -0.2576 0.165 -0.422 0.892 194 177 157 0 0
-1.7538 0.4692 -0.2579 0.186 -0.393 0.901 190 173 152 0 0
-1.7321 0.4853 -0.2583 0.276 -0.290 0.916 188 169 146 0 0
-1.7265 0.4912 -0.2583 0.377 -0.054 0.925 187 166 143 0 0
-1.7262 0.4950 -0.2581 0.368 -0.068 0.927 183 162 138 0 0
-1.6840 0.5153 -0.2596 0.091 -0.994 -0.056 192 174 153 0 0
-1.6731 0.5634 -0.2574 0.740 -0.069 0.669 197 180 158 0 0
-1.6298 0.5950 -0.2583 0.165 -0.881 0.443 183 163 142 0 0
-1.6023 0.5957 -0.2600 0.029 -0.994 0.107 184 162 140 0 0
-1.5922 0.5954 -0.2606 0.044 -0.978 -0.205 187 166 145 0 0
-1.5835 0.6247 -0.2594 0.666 -0.520 0.535 186 164 144 0 0
-1.5126 0.7060 -0.2591 0.494 -0.245 0.834 187 167 143 0 0
-1.4978 0.7202 -0.2592 0.430 -0.324 0.843 179 155 133 0 0
-1.4955 0.7234 -0.2591 0.430 -0.324 0.843 170 145 122 0 0
-0.9913 0.6366 -0.2966 0.539 -0.825 -0.170 195 123 74 0 0
-0.9886 0.6386 -0.2966 0.737 -0.653 -0.174 187 101 67 0 0
-0.9856 0.6479 -0.2962 0.472 -0.795 -0.380 194 90 66 0 0
-0.9854 0.6516 -0.2960 0.186 -0.929 -0.321 193 89 63 0 0
-0.9538 0.6534 -0.2979 0.636 -0.767 -0.079 200 123 83 0 0
-0.9463 0.6673 -0.2976 0.862 -0.451 0.230 152 107 36 0 0
-0.9088 0.6909 -0.2986 -0.015 -0.943 0.334 155 104 27 0 0
-0.8759 0.6978 -0.3002 0.464 -0.799 0.382 146 99 29 0 0
-0.8720 0.6988 -0.3004 0.402 -0.865 0.299 147 101 31 0 0
-0.8561 0.7023 -0.3012 0.336 -0.942 -0.005 166 117 41 0 0
-0.8395 0.7246 -0.3010 0.471 -0.826 0.311 168 124 54 0 0
-0.8217 0.7302 -0.3018 0.867 -0.458 -0.194 156 113 45 0 0
-0.8180 0.7392 -0.3015 0.730 -0.649 -0.213 158 120 52 0 0
-0.8155 0.7411 -0.3015 0.464 -0.883 0.070 149 112 42 0 0
-0.8132 0.8346 -0.2961 0.552 0.091 0.829 132 104 52 0 0
-0.7691 0.8682 -0.2969 0.882 0.452 -0.131 200 176 98 0 0
-1.0153 1.2844 -0.2562 -0.150 -0.975 0.161 191 169 149 0 0
-0.7622 1.5462 -0.2567 0.246 -0.965 -0.095 187 169 154 0 0
-0.7571 1.5456 -0.2570 0.775 -0.339 0.533 189 172 156 0 0
-0.7545 1.5489 -0.2570 0.850 -0.295 0.437 198 182 169 0 0
-0.7527 1.5534 -0.2568 0.928 -0.022 0.372 196 181 168 0 0
-0.6103 1.6898 -0.2578 0.802 -0.248 0.543 188 172 159 0 0
-0.6077 1.6932 -0.2577 0.654 -0.495 0.572 188 171 157 0 0
-0.5556 1.7690 -0.2565 0.432 -0.121 0.894 179 163 149 0 0
-0.4810 1.8813 -0.2545 0.432 -0.304 0.849 163 146 134 0 0
-0.4697 1.8934 -0.2545 0.557 -0.274 0.784 170 154 143 0 0
-0.4653 1.8927 -0.2548 0.878 -0.104 0.467 171 154 145 0 0
-0.4663 1.9050 -0.2541 0.752 -0.379 0.539 174 157 148 0 0
-1.9339 0.2161 -0.2655 0.278 -0.466 0.840 172 150 127 0 0
-1.9291 0.2186 -0.2657 0.211 -0.792 0.574 171 147 125 0 0
-1.9307 0.2224 -0.2654 0.396 -0.208 0.894 168 146 123 0 0
-1.9190 0.2836 -0.2625 0.322 -0.347 0.881 186 168 145 0 0
-1.9159 0.2864 -0.2625 0.322 -0.347 0.881 187 169 147 0 0
-1.8875 0.3232 -0.2622 0.336 -0.058 0.940 193 176 157 0 0
-1.8872 0.3268 -0.2620 0.319 -0.087 0.944 189 172 152 0 0
-1.7416 0.4651 -0.2630 0.266 -0.338 0.903 199 184 164 0 0
-1.7375 0.4676 -0.2631 0.268 -0.383 0.884 199 183 163 0 0
-1.7266 0.4755 -0.2633 0.325 -0.290 0.900 191 174 153 0 0
-1.7226 0.4780 -0.2634 0.412 -0.093 0.907 190 172 151 0 0
-1.7191 0.4925 -0.2628 0.306 -0.225 0.925 190 172 150 0 0
-1.7170 0.4957 -0.2627 0.309 -0.215 0.927 190 170 149 0 0
-1.6906 0.5138 -0.2633 0.493 -0.543 0.680 194 176 156 0 0
-1.6834 0.5151 -0.2637 0.145 -0.909 -0.391 194 176 156 0 0
-1.6522 0.5878 -0.2613 0.227 -0.931 0.285 187 166 145 0 0
-1.6262 0.5934 -0.2626 0.158 -0.691 0.705 198 181 160 0 0
-1.5935 0.5960 -0.2645 0.064 -0.995 -0.074 193 174 152 0 0
-1.5864 0.5971 -0.2649 0.137 -0.851 -0.507 196 178 157 0 0
-1.5735 0.5956 -0.2658 0.674 -0.349 -0.651 196 177 156 0 0
-1.5726 0.5993 -0.2656 0.649 -0.435 -0.624 191 170 149 0 0
-1.5724 0.6033 -0.2654 0.839 -0.244 -0.486 185 164 143 0 0
-1.5850 0.6212 -0.2636 0.715 -0.233 0.659 185 164 144 0 0
-1.5813 0.6237 -0.2637 0.648 -0.344 0.680 185 164 144 0 0
-1.4890 0.7200 -0.2638 0.430 -0.324 0.843 169 144 120 0 0
-1.4863 0.7230 -0.2638 0.488 -0.222 0.844 167 142 119 0 0
-0.9866 0.6373 -0.3000 0.214 -0.968 -0.133 190 99 69 0 0
-0.9831 0.6501 -0.2995 0.288 -0.955 0.068 188 83 63 0 0
-0.9476 0.6568 -0.3013 0.866 -0.464 -0.183 175 128 55 0 0
-0.9478 0.6607 -0.3011 0.890 -0.457 0.003 163 118 48 0 0
-0.9464 0.6635 -0.3010 0.890 -0.457 0.003 158 114 45 0 0
-0.9449 0.6664 -0.3009 0.890 -0.457 0.003 159 115 43 0 0
-0.9474 0.6873 -0.2995 0.702 -0.333 0.629 154 107 28 0 0
-0.9175 0.6894 -0.3013 0.056 -0.805 0.590 143 96 24 0 0
-0.8960 0.6855 -0.3028 0.540 -0.811 -0.227 189 135 41 0 0
-0.8928 0.6870 -0.3030 0.414 -0.887 -0.206 217 172 64 0 0
-0.8896 0.6886 -0.3031 0.408 -0.910 -0.074 220 181 56 0 0
-0.8865 0.6902 -0.3032 0.508 -0.845 -0.166 217 179 60 0 0
-0.8748 0.6969 -0.3035 0.464 -0.799 0.382 157 108 21 0 0
-0.8713 0.6982 -0.3036 0.337 -0.885 0.322 159 111 32 0 0
-0.8428 0.7076 -0.3049 0.614 -0.746 -0.259 170 119 38 0 0
-0.7627 0.8446 -0.3018 0.718 -0.554 -0.422 145 129 79 0 0
-0.7850 1.5445 -0.2594 0.510 -0.560 0.653 176 155 139 0 0
-0.5635 1.7243 -0.2627 0.389 -0.258 0.885 170 152 138 0 0
-0.5541 1.7570 -0.2614 0.428 -0.115 0.896 178 162 147 0 0
-0.4776 1.8733 -0.2594 0.355 -0.272 0.894 176 161 150 0 0
-0.4749 1.8765 -0.2593 0.240 -0.300 0.923 174 160 150 0 0
-0.4243 1.9416 -0.2587 0.468 -0.123 0.875 184 173 164 0 0
-1.9280 0.2114 -0.2702 0.318 -0.448 0.835 180 159 137 0 0
-1.9282 0.2149 -0.2699 0.214 -0.822 0.528 178 156 133 0 0
-1.9225 0.2172 -0.2702 0.302 -0.821 0.484 177 155 132 0 0
-1.9249 0.2212 -0.2698 0.397 -0.279 0.874 181 160 136 0 0
-1.9196 0.2235 -0.2700 0.554 -0.226 0.801 179 158 135 0 0
-1.8920 0.3024 -0.2671 0.285 -0.658 0.697 186 168 148 0 0
-1.8789 0.3283 -0.2665 0.439 0.108 0.892 185 167 147 0 0
-1.8780 0.3318 -0.2663 0.431 -0.010 0.902 186 167 147 0 0
-1.8307 0.3896 -0.2659 0.265 -0.411 0.872 185 166 144 0 0
-1.8227 0.3911 -0.2663 0.128 -0.659 0.741 184 164 142 0 0
-1.7961 0.4172 -0.2664 0.157 -0.638 0.754 184 164 143 0 0
-1.7689 0.4202 -0.2679 -0.059 -0.996 -0.069 193 176 153 0 0
-1.7543 0.4194 -0.2688 -0.059 -0.996 -0.069 194 175 153 0 0
-1.7399 0.4186 -0.2698 -0.059 -0.996 -0.069 192 174 151 0 0
-1.7305 0.4652 -0.2677 0.181 -0.888 0.423 197 180 161 0 0
-1.7230 0.4665 -0.2681 0.170 -0.938 0.301 193 176 157 0 0
-1.7169 0.4683 -0.2683 0.307 -0.931 0.198 190 172 153 0 0
-1.6716 0.5146 -0.2684 0.239 -0.876 0.420 180 160 140 0 0
-1.6559 0.5166 -0.2693 -0.073 -0.994 -0.080 175 152 130 0 0
-1.6432 0.5157 -0.2701 -0.073 -0.994 -0.080 176 154 133 0 0
-1.6236 0.5201 -0.2711 0.910 0.148 -0.388 183 162 141 0 0
-1.6465 0.5368 -0.2687 0.383 -0.434 0.816 178 158 136 0 0
-1.6468 0.5529 -0.2678 0.529 0.100 0.843 187 166 143 0 0
-1.6350 0.5604 -0.2681 0.257 -0.432 0.864 188 167 144 0 0
-1.6404 0.5747 -0.2669 0.505 0.157 0.849 191 170 149 0 0
-1.6192 0.5905 -0.2673 0.136 -0.708 0.693 198 180 160 0 0
-1.6126 0.5918 -0.2676 0.223 -0.578 0.785 189 171 148 0 0
-1.6075 0.5938 -0.2678 0.204 -0.606 0.769 189 168 146 0 0
-1.5880 0.5977 -0.2688 0.168 -0.986 -0.014 197 179 157 0 0
-1.5746 0.6043 -0.2692 0.840 -0.494 -0.225 183 161 139 0 0
-1.5781 0.6099 -0.2687 0.831 0.500 -0.244 177 154 132 0 0
-1.5820 0.6199 -0.2679 0.816 -0.110 0.567 180 158 136 0 0
-1.5523 0.6567 -0.2676 0.146 -0.369 0.918 185 164 141 0 0
-1.5006 0.6956 -0.2685 0.431 0.007 0.902 187 167 142 0 0
-1.4990 0.6991 -0.2684 0.401 -0.248 0.882 187 166 144 0 0
-1.4851 0.7136 -0.2684 0.419 -0.365 0.832 193 172 150 0 0
-1.4824 0.7166 -0.2684 0.379 -0.369 0.849 186 162 140 0 0
-1.4796 0.7195 -0.2684 0.379 -0.369 0.849 182 158 135 0 0
-1.4760 0.7220 -0.2685 0.351 -0.387 0.853 180 155 133 0 0
-1.0127 0.6389 -0.3015 0.615 -0.649 -0.448 209 188 161 0 0
-0.9828 0.6461 -0.3029 0.597 -0.748 0.290 183 81 59 0 0
-0.9478 0.6607 -0.3042 0.890 -0.457 0.003 160 116 49 0 0
-0.9465 0.6636 -0.3042 0.786 -0.612 -0.087 158 115 46 0 0
-0.9448 0.6662 -0.3041 0.762 -0.647 -0.032 156 111 42 0 0
-0.9476 0.6835 -0.3030 0.878 0.063 0.475 157 110 29 0 0
-0.9118 0.6853 -0.3050 0.284 -0.880 0.380 142 94 23 0 0
-0.8967 0.6822 -0.3061 0.999 -0.053 -0.008 154 96 31 0 0
-0.8956 0.6852 -0.3060 0.713 -0.647 -0.271 170 109 37 0 0
-0.8933 0.6874 -0.3060 0.563 -0.785 -0.258 188 135 42 0 0
-0.8776 0.6952 -0.3065 0.433 -0.897 0.087 231 198 84 0 0
-0.8582 0.7000 -0.3075 0.208 -0.942 0.265 173 121 46 0 0
-0.8551 0.7015 -0.3076 0.501 -0.832 0.239 184 133 56 0 0
-0.8438 0.7123 -0.3076 0.708 -0.701 -0.086 176 124 42 0 0
-0.8193 0.7402 -0.3075 0.691 -0.714 -0.112 170 132 56 0 0
-0.8115 0.7458 -0.3077 0.475 -0.861 -0.181 153 115 49 0 0
-0.8003 0.8230 -0.3040 0.217 -0.864 -0.454 146 116 65 0 0
-0.7641 0.8458 -0.3049 0.659 -0.558 -0.505 143 127 77 0 0
-0.8699 1.4078 -0.2662 0.008 -0.997 0.075 195 178 162 0 0
-0.8638 1.4064 -0.2667 0.031 -0.994 -0.108 197 180 164 0 0
-0.7891 1.5433 -0.2634 0.816 -0.470 -0.338 195 177 164 0 0
-0.7830 1.5415 -0.2639 0.476 -0.616 0.628 189 171 156 0 0
-0.6484 1.6387 -0.2665 0.846 0.007 0.533 183 166 152 0 0
-0.5509 1.7503 -0.2661 0.599 -0.049 0.799 181 165 152 0 0
-0.5301 1.7862 -0.2653 0.384 -0.239 0.892 176 160 147 0 0
-0.4645 1.8808 -0.2639 0.620 -0.482 0.619 177 162 152 0 0
-0.4611 1.8824 -0.2640 0.715 -0.260 0.649 180 164 153 0 0
-0.4237 1.9092 -0.2647 0.082 -0.287 0.954 181 168 159 0 0
-0.4224 1.9162 -0.2644 0.314 -0.194 0.930 177 163 155 0 0
-0.4195 1.9189 -0.2644 0.458 -0.141 0.877 179 165 157 0 0
-0.4180 1.9254 -0.2641 0.458 -0.141 0.877 180 169 160 0 0
-0.4160 1.9304 -0.2640 0.837 0.027 0.547 183 173 164 0 0
-0.4149 1.9590 -0.2624 0.510 -0.158 0.846 180 167 158 0 0
-0.4149 1.9695 -0.2618 -0.232 -0.663 0.712 183 170 161 0 0
-1.9175 0.2093 -0.2749 0.554 -0.713 0.430 178 158 134 0 0
-1.9152 0.2122 -0.2748 0.375 -0.750 0.544 184 165 142 0 0
-1.9163 0.2159 -0.2746 0.253 -0.765 0.592 185 168 145 0 0
-1.9165 0.2194 -0.2744 0.440 -0.348 0.828 181 162 139 0 0
-1.9142 0.2224 -0.2743 0.519 -0.248 0.818 177 156 132 0 0
-1.9101 0.2636 -0.2723 0.235 -0.468 0.852 200 184 167 0 0
-1.8344 0.3681 -0.2709 0.203 -0.595 0.778 186 167 145 0 0
-1.8038 0.3930 -0.2714 0.344 0.006 0.939 191 172 152 0 0
-1.7878 0.4147 -0.2711 0.114 -0.598 0.794 195 178 159 0 0
-1.7804 0.4162 -0.2715 0.184 -0.472 0.862 204 189 171 0 0
-1.7565 0.4201 -0.2727 -0.051 -0.992 0.117 189 171 146 0 0
-1.7417 0.4192 -0.2736 0.014 -0.990 0.144 186 167 142 0 0
-1.7265 0.4181 -0.2746 -0.024 -0.992 -0.120 185 162 139 0 0
-1.7118 0.4172 -0.2755 -0.034 -0.952 -0.303 182 160 138 0 0
-1.7062 0.4762 -0.2725 0.387 -0.617 0.685 188 171 151 0 0
-1.6684 0.5134 -0.2727 0.239 -0.876 0.420 176 154 131 0 0
-1.6479 0.5215 -0.2735 0.791 -0.403 0.460 183 163 140 0 0
-1.6395 0.5301 -0.2735 0.643 -0.326 0.693 176 154 133 0 0
-1.6372 0.5332 -0.2735 0.622 -0.243 0.744 179 158 135 0 0
-1.6365 0.5369 -0.2733 0.610 -0.182 0.772 184 163 141 0 0
-1.6373 0.5735 -0.2712 0.209 -0.266 0.941 191 171 148 0 0
-1.6185 0.5861 -0.2716 0.130 -0.736 0.664 205 188 171 0 0
-1.6117 0.5874 -0.2719 0.094 -0.751 0.654 205 188 171 0 0
-1.6023 0.5875 -0.2725 0.204 -0.547 0.812 194 176 155 0 0
-1.5741 0.6040 -0.2733 0.806 -0.538 -0.247 178 156 133 0 0
-1.5775 0.6179 -0.2723 0.792 -0.251 0.557 175 154 131 0 0
-1.5304 0.6298 -0.2744 0.062 -0.819 0.571 189 170 146 0 0
-1.5241 0.6687 -0.2726 0.163 -0.305 0.938 194 174 156 0 0
-1.5217 0.6718 -0.2726 0.229 -0.176 0.957 195 176 157 0 0
-1.4925 0.6873 -0.2735 0.376 -0.103 0.921 189 169 147 0 0
-1.4867 0.6929 -0.2735 0.573 0.047 0.818 189 169 147 0 0
-1.4778 0.7142 -0.2728 0.334 -0.482 0.810 188 164 142 0 0
-1.4720 0.7156 -0.2731 0.308 -0.421 0.853 193 171 150 0 0
-1.0164 0.6375 -0.3046 0.695 -0.515 -0.503 206 186 161 0 0
-0.9489 0.6615 -0.3073 0.762 -0.647 -0.032 157 115 47 0 0
-0.9448 0.6663 -0.3073 0.762 -0.647 -0.032 162 122 52 0 0
-0.9456 0.6821 -0.3064 0.984 -0.044 0.172 190 141 43 0 0
-0.9099 0.6840 -0.3084 0.264 -0.844 0.467 137 88 24 0 0
-0.8969 0.6862 -0.3090 0.905 -0.425 -0.014 162 95 35 0 0
-0.8936 0.6876 -0.3091 0.743 -0.614 -0.266 167 106 37 0 0
-0.8910 0.6896 -0.3092 0.511 -0.857 -0.071 175 118 37 0 0
-0.8884 0.6916 -0.3092 0.626 -0.772 -0.109 175 123 39 0 0
-0.8806 0.6935 -0.3096 0.436 -0.883 0.172 166 116 34 0 0
-0.8565 0.6987 -0.3107 0.484 -0.869 -0.101 182 132 47 0 0
-0.8153 0.7450 -0.3106 0.131 -0.991 0.011 184 146 51 0 0
-0.7650 0.8467 -0.3079 0.733 -0.340 -0.589 145 130 79 0 0
-0.7639 0.8544 -0.3075 0.947 0.321 0.017 202 181 106 0 0
-0.9709 1.2779 -0.2715 0.458 -0.680 0.572 196 178 162 0 0
-0.7042 1.5725 -0.2709 0.940 -0.330 0.087 181 163 150 0 0
-0.7024 1.5770 -0.2708 0.646 -0.762 0.043 179 161 147 0 0
-0.6457 1.6261 -0.2714 0.895 0.034 0.445 180 162 150 0 0
-0.6455 1.6335 -0.2710 0.832 -0.000 0.555 190 173 160 0 0
-0.5618 1.7123 -0.2716 0.118 -0.763 0.636 172 154 140 0 0
-0.4800 1.8404 -0.2693 0.141 -0.262 0.955 193 180 170 0 0
-0.4638 1.8792 -0.2681 0.665 -0.427 0.613 181 167 156 0 0
-0.4175 1.8931 -0.2701 0.031 -0.404 0.914 175 161 151 0 0
-0.4165 1.9008 -0.2697 0.323 -0.197 0.926 169 155 144 0 0
-0.4144 1.9056 -0.2696 0.468 -0.164 0.868 169 155 147 0 0
-0.4110 1.9070 -0.2697 0.767 -0.039 0.641 172 159 150 0 0
-0.4123 1.9208 -0.2688 0.877 0.043 0.478 179 166 158 0 0
-0.4134 1.9340 -0.2680 0.877 0.043 0.478 184 172 164 0 0
-0.4101 1.9568 -0.2670 0.091 -0.405 0.910 185 172 164 0 0
-0.4078 1.9613 -0.2668 -0.037 -0.548 0.836 181 168 159 0 0
-1.9157 0.2089 -0.2790 0.338 -0.785 0.520 180 160 135 0 0
-1.9101 0.2112 -0.2792 0.296 -0.804 0.515 196 178 156 0 0
-1.9099 0.2146 -0.2790 0.253 -0.765 0.592 192 175 154 0 0
-1.9123 0.2185 -0.2786 0.368 -0.417 0.831 190 172 152 0 0
-1.9079 0.2211 -0.2787 0.519 -0.248 0.818 185 166 142 0 0
-1.9163 0.2263 -0.2780 0.827 0.404 0.390 177 158 134 0 0
-1.8938 0.2741 -0.2767 0.217 -0.483 0.848 177 157 135 0 0
-1.8885 0.2764 -0.2768 0.275 -0.337 0.901 181 161 138 0 0
-1.8850 0.2791 -0.2769 0.275 -0.337 0.901 186 166 143 0 0
-1.8243 0.3653 -0.2757 0.203 -0.595 0.778 193 176 155 0 0
-1.7766 0.4074 -0.2762 0.127 -0.664 0.737 193 177 156 0 0
-1.7734 0.4102 -0.2762 0.184 -0.472 0.862 201 185 166 0 0
-1.7680 0.4123 -0.2764 0.148 -0.585 0.797 201 184 166 0 0
-1.7605 0.4138 -0.2768 0.151 -0.541 0.827 196 179 159 0 0
-1.7402 0.4187 -0.2777 0.086 -0.895 0.437 184 164 139 0 0
-1.7280 0.4186 -0.2784 -0.041 -0.999 0.002 184 163 140 0 0
-1.7160 0.4185 -0.2791 0.003 -0.945 -0.326 190 170 148 0 0
-1.7100 0.4240 -0.2792 0.497 -0.390 0.775 190 172 151 0 0
-1.7079 0.4271 -0.2791 0.834 0.055 0.549 192 173 153 0 0
-1.7081 0.4310 -0.2789 0.944 0.108 0.311 196 179 160 0 0
-1.7087 0.4349 -0.2787 0.944 0.108 0.311 201 185 166 0 0
-1.6898 0.4782 -0.2774 0.611 -0.419 0.672 190 173 150 0 0
-1.6821 0.4832 -0.2776 0.574 -0.686 0.446 184 167 144 0 0
-1.6789 0.4860 -0.2776 0.363 -0.825 0.434 189 173 148 0 0
-1.6741 0.4881 -0.2778 0.409 -0.787 0.462 192 174 151 0 0
-1.6630 0.5114 -0.2771 0.232 -0.822 0.520 191 171 147 0 0
-1.6278 0.5256 -0.2784 0.911 -0.406 -0.068 173 150 127 0 0
-1.6263 0.5290 -0.2783 0.598 -0.717 -0.358 175 152 130 0 0
-1.6231 0.5317 -0.2784 0.598 -0.717 -0.358 184 163 142 0 0
-1.6244 0.5361 -0.2780 0.927 -0.376 -0.004 192 175 153 0 0
-1.6089 0.5499 -0.2782 0.156 -0.959 -0.235 193 175 152 0 0
-1.6137 0.5558 -0.2776 0.235 -0.906 0.351 196 178 158 0 0
-1.6076 0.5573 -0.2779 0.235 -0.906 0.351 192 175 152 0 0
-1.6029 0.5796 -0.2769 0.248 -0.433 0.867 194 176 154 0 0
-1.5989 0.5820 -0.2770 0.204 -0.497 0.844 195 176 156 0 0
-1.5927 0.5834 -0.2773 0.190 -0.545 0.817 192 173 150 0 0
-1.5845 0.5922 -0.2773 0.336 -0.753 0.566 189 169 145 0 0
-1.5237 0.6517 -0.2776 0.417 0.027 0.909 192 171 151 0 0
-1.5068 0.6604 -0.2781 0.110 -0.493 0.863 191 170 149 0 0
-1.4885 0.6641 -0.2789 0.405 -0.266 0.875 191 169 148 0 0
-1.4784 0.7016 -0.2775 0.803 0.053 0.594 172 147 124 0 0
-1.4773 0.7053 -0.2774 0.787 -0.201 0.583 175 148 126 0 0
-1.4696 0.7143 -0.2773 0.331 -0.624 0.708 179 153 130 0 0
-1.4298 0.7366 -0.2784 0.305 -0.528 0.792 191 167 146 0 0
-1.0183 0.6387 -0.3077 0.387 -0.890 -0.240 207 187 162 0 0
-1.0148 0.6403 -0.3078 0.387 -0.890 -0.240 198 167 134 0 0
-0.9458 0.6593 -0.3108 0.948 -0.295 0.122 158 115 48 0 0
-0.9453 0.6666 -0.3104 0.720 -0.693 0.051 166 126 54 0 0
-0.9447 0.6815 -0.3096 0.992 -0.113 0.048 158 102 24 0 0
-0.8967 0.6860 -0.3122 0.963 -0.264 -0.056 174 96 41 0 0
-0.8912 0.6897 -0.3123 0.511 -0.857 -0.071 166 104 36 0 0
-0.8887 0.6918 -0.3123 0.626 -0.772 -0.109 170 110 36 0 0
-0.8769 0.6947 -0.3129 0.311 -0.946 0.092 176 120 46 0 0
-0.8161 0.7456 -0.3136 0.197 -0.980 -0.038 236 210 90 0 0
-0.8131 0.7471 -0.3137 0.189 -0.962 -0.200 198 161 71 0 0
-0.7645 0.8462 -0.3111 0.757 -0.267 -0.597 162 143 89 0 0
-0.7642 0.8547 -0.3107 0.937 0.341 0.072 200 178 102 0 0
-0.9091 1.0520 -0.2915 0.691 0.202 -0.694 210 190 167 0 0
-0.9620 1.2800 -0.2760 0.408 -0.792 0.454 185 162 143 0 0
-0.9578 1.2814 -0.2761 0.379 -0.901 0.209 193 172 153 0 0
-0.9508 1.2855 -0.2763 0.404 -0.900 0.162 198 178 160 0 0
-0.5983 1.6590 -0.2764 0.385 -0.337 0.859 161 140 127 0 0
-0.4575 1.8640 -0.2734 0.474 -0.295 0.830 187 172 162 0 0
-0.4534 1.8636 -0.2737 0.202 -0.264 0.943 182 168 157 0 0
-0.4498 1.8647 -0.2738 0.493 -0.117 0.862 186 172 162 0 0
-0.4221 1.8258 -0.2776 -0.277 -0.417 0.865 188 176 167 0 0
-0.4136 1.8238 -0.2782 0.372 -0.926 0.073 191 178 170 0 0
-0.4109 1.8268 -0.2782 0.827 -0.561 0.025 189 176 168 0 0
-0.4096 1.8831 -0.2752 0.640 -0.208 0.740 167 154 142 0 0
-0.4088 1.8911 -0.2748 0.740 -0.089 0.667 167 152 143 0 0
-0.4075 1.8978 -0.2745 0.767 -0.039 0.641 170 156 147 0 0
-0.4084 1.9104 -0.2737 0.784 0.004 0.620 177 163 155 0 0
-0.4080 1.9197 -0.2733 0.776 0.030 0.630 180 168 159 0 0
-1.9049 0.2204 -0.2829 0.657 -0.036 0.753 192 175 151 0 0
-1.9053 0.2519 -0.2812 0.114 -0.801 0.588 185 165 144 0 0
-1.8946 0.2530 -0.2818 0.114 -0.801 0.588 192 174 152 0 0
-1.8776 0.2738 -0.2816 0.279 -0.426 0.861 167 144 122 0 0
-1.8727 0.2762 -0.2818 0.267 -0.459 0.847 161 137 116 0 0
-1.8672 0.2784 -0.2820 0.285 -0.498 0.819 159 135 113 0 0
-1.8638 0.2812 -0.2820 0.276 -0.441 0.854 175 154 131 0 0
-1.7443 0.4125 -0.2818 0.307 -0.441 0.844 186 167 143 0 0
-1.7258 0.4179 -0.2825 0.094 -0.888 0.449 198 182 159 0 0
-1.7088 0.4199 -0.2834 0.369 -0.447 0.815 203 187 167 0 0
-1.7055 0.4226 -0.2835 0.369 -0.447 0.815 196 179 158 0 0
-1.7015 0.4250 -0.2835 0.415 -0.356 0.837 187 168 147 0 0
-1.7043 0.4297 -0.2831 0.748 0.125 0.652 189 169 150 0 0
-1.6681 0.4898 -0.2820 0.440 -0.459 0.772 181 161 138 0 0
-1.6565 0.5090 -0.2816 0.230 -0.756 0.613 184 164 141 0 0
-1.6286 0.5298 -0.2821 0.459 -0.732 -0.503 170 145 123 0 0
-1.6133 0.5476 -0.2820 0.491 -0.771 -0.404 193 175 154 0 0
-1.6101 0.5503 -0.2821 0.152 -0.928 -0.339 195 177 155 0 0
-1.5625 0.6113 -0.2815 0.360 -0.336 0.871 185 163 142 0 0
-1.5549 0.6161 -0.2817 0.292 -0.582 0.759 192 171 151 0 0
-1.4740 0.6950 -0.2821 0.867 0.408 0.285 172 146 124 0 0
-1.4749 0.6998 -0.2818 0.943 0.203 0.265 162 134 113 0 0
-1.4744 0.7038 -0.2816 0.954 -0.024 0.300 161 133 112 0 0
-1.4718 0.7111 -0.2813 0.622 -0.596 0.508 163 135 113 0 0
-1.4772 0.7182 -0.2807 0.383 -0.884 -0.268 165 137 115 0 0
-1.4301 0.7281 -0.2828 0.440 -0.349 0.827 200 179 159 0 0
-1.4054 0.7715 -0.2819 0.225 -0.865 0.448 199 178 158 0 0
-1.0196 0.6395 -0.3108 0.217 -0.973 -0.075 197 171 145 0 0
-1.0152 0.6405 -0.3110 0.217 -0.973 -0.075 194 161 125 0 0
-0.9691 0.6447 -0.3134 0.543 -0.722 0.429 170 74 55 0 0
-0.8956 0.6929 -0.3150 0.959 -0.276 -0.071 158 89 35 0 0
-0.9613 1.2792 -0.2801 0.395 -0.910 0.125 188 166 148 0 0
-0.9571 1.2806 -0.2802 0.416 -0.897 0.149 191 170 150 0 0
-0.9535 1.2825 -0.2803 0.674 -0.714 0.189 196 177 160 0 0
-0.9505 1.2851 -0.2804 0.273 -0.958 0.084 198 179 161 0 0
-0.4574 1.8347 -0.2791 0.788 0.119 0.604 183 168 159 0 0
-0.4601 1.8508 -0.2781 0.799 0.046 0.599 186 170 161 0 0
-0.4506 1.8473 -0.2788 0.175 -0.283 0.943 187 174 165 0 0
-0.4481 1.8509 -0.2787 0.185 -0.246 0.951 182 170 159 0 0
-0.4399 1.8503 -0.2792 0.019 -0.374 0.927 183 170 161 0 0
-0.4308 1.8376 -0.2804 -0.400 -0.913 -0.082 184 171 162 0 0
-0.4255 1.8341 -0.2809 -0.306 -0.857 -0.415 184 171 162 0 0
-0.4204 1.8312 -0.2814 -0.134 -0.806 -0.576 182 169 161 0 0
-0.4155 1.8286 -0.2818 0.739 -0.342 -0.580 182 169 160 0 0
-0.4127 1.8313 -0.2818 0.558 -0.522 -0.645 182 169 160 0 0
-0.4103 1.8351 -0.2817 0.962 0.092 0.255 185 173 164 0 0
-0.4062 1.8844 -0.2793 0.821 -0.174 0.543 171 157 148 0 0
-0.4050 1.8913 -0.2790 0.821 -0.174 0.543 171 157 148 0 0
-0.4037 1.8981 -0.2787 0.839 -0.171 0.516 176 162 154 0 0
-0.3973 1.8915 -0.2795 0.454 -0.378 0.806 180 167 158 0 0
-0.3910 1.9265 -0.2779 0.312 -0.153 0.938 188 178 169 0 0
-0.3889 1.9313 -0.2778 0.488 -0.090 0.868 188 175 167 0 0
-1.9042 0.2481 -0.2855 0.174 -0.757 0.630 177 156 133 0 0
-1.8867 0.2512 -0.2863 0.091 -0.846 0.525 174 152 129 0 0
-1.8841 0.2577 -0.2861 0.284 -0.344 0.895 169 144 122 0 0
-1.8721 0.2584 -0.2867 0.365 -0.304 0.880 175 155 131 0 0
-1.8573 0.2761 -0.2866 0.274 -0.500 0.822 165 142 121 0 0
-1.8525 0.2785 -0.2867 0.274 -0.500 0.822 179 159 137 0 0
-1.8471 0.2807 -0.2869 0.240 -0.520 0.820 180 160 141 0 0
-1.8415 0.2864 -0.2869 0.459 0.035 0.888 186 167 146 0 0
-1.6934 0.4224 -0.2881 0.286 -0.379 0.880 187 167 145 0 0
-1.6216 0.5232 -0.2868 0.951 -0.164 0.263 173 150 127 0 0
-1.6239 0.5359 -0.2860 0.946 -0.321 0.040 172 148 124 0 0
-1.6227 0.5394 -0.2859 0.946 -0.321 0.040 181 160 135 0 0
-1.6129 0.5514 -0.2858 0.290 -0.951 0.104 195 177 153 0 0
-1.6068 0.5530 -0.2861 0.248 -0.963 0.105 194 175 151 0 0
-1.5532 0.6071 -0.2862 0.216 -0.478 0.852 183 161 138 0 0
-1.4675 0.6833 -0.2870 0.885 0.212 0.415 187 165 143 0 0
-1.4685 0.6880 -0.2867 0.858 0.409 0.312 187 166 143 0 0
-1.4712 0.6936 -0.2863 0.831 0.443 0.337 175 152 128 0 0
-1.4718 0.6982 -0.2860 0.802 0.341 0.490 154 127 104 0 0
-1.4712 0.7022 -0.2858 0.753 0.013 0.658 146 119 98 0 0
-0.9482 0.6421 -0.3179 0.260 -0.794 0.549 163 73 52 0 0
-0.8937 0.6954 -0.3182 0.917 -0.305 0.256 155 86 33 0 0
-0.8596 0.6972 -0.3199 0.439 -0.895 -0.078 250 236 103 0 0
-0.8567 0.6989 -0.3200 0.504 -0.859 -0.089 227 203 74 0 0
-0.8485 0.7121 -0.3198 0.434 -0.901 -0.015 191 158 63 0 0
-0.8047 0.8442 -0.3153 0.958 0.285 0.025 202 184 104 0 0
-0.8761 1.3512 -0.2851 0.322 -0.891 0.320 200 184 168 0 0
-0.8726 1.3531 -0.2852 0.209 -0.976 0.060 197 180 165 0 0
-0.6174 1.6068 -0.2861 0.800 -0.596 -0.072 194 180 169 0 0
-0.4480 1.8218 -0.2843 0.297 -0.079 0.951 188 174 165 0 0
-0.4438 1.8307 -0.2841 0.136 -0.197 0.971 186 172 161 0 0
-0.4406 1.8325 -0.2842 0.136 -0.197 0.971 182 168 156 0 0
-0.4374 1.8343 -0.2842 0.136 -0.197 0.971 179 165 155 0 0
-0.4328 1.8328 -0.2846 -0.502 -0.831 0.238 179 165 156 0 0
-0.4244 1.8216 -0.2856 -0.437 -0.899 0.038 178 164 155 0 0
-0.3882 1.8981 -0.2837 0.284 -0.161 0.945 184 173 165 0 0
-0.3831 1.9155 -0.2830 0.534 -0.081 0.841 188 177 170 0 0
-1.8862 0.2476 -0.2904 0.080 -0.815 0.574 182 162 141 0 0
