ply
format ascii 1.0
element vertex 819
property float x
property float y
property float z
property float nx
property float ny
property float nz
property uchar diffuse_red
property uchar diffuse_green
property uchar diffuse_blue
property uchar class
property uchar detection
end_header
-1.7539 -5.2615 -5.1140 0.355 0.392 0.849 201 192 193 0 0
-1.7423 -5.2692 -5.1121 0.184 0.494 0.850 196 186 186 0 0
-1.7308 -5.2769 -5.1101 0.184 0.494 0.850 199 190 190 0 0
-1.7173 -5.2759 -5.1026 0.134 0.701 0.701 204 194 196 0 0
-1.7053 -5.2816 -5.0993 0.245 0.678 0.693 204 193 194 0 0
-1.6935 -5.2879 -5.0965 -0.003 0.770 0.638 197 187 188 0 0
-1.6875 -5.3211 -5.1112 0.499 0.085 0.863 200 190 192 0 0
-1.6684 -5.3550 -5.1192 0.443 0.025 0.896 194 184 186 0 0
-1.5617 -5.4745 -5.1272 0.551 0.153 0.820 196 185 185 0 0
-1.5511 -5.4871 -5.1284 0.372 0.338 0.865 195 184 186 0 0
-1.5408 -5.5011 -5.1305 0.341 0.423 0.839 202 194 199 0 0
-1.5301 -5.5132 -5.1314 0.088 0.358 0.930 207 200 205 0 0
-1.5148 -5.5006 -5.1166 0.438 0.116 0.891 203 193 197 0 0
-1.5036 -5.5098 -5.1157 0.805 -0.003 0.593 202 191 194 0 0
-1.4948 -5.5317 -5.1228 0.432 0.083 0.898 202 192 194 0 0
-1.4848 -5.5477 -5.1261 0.432 0.083 0.898 203 193 194 0 0
-1.4748 -5.5636 -5.1294 0.432 0.083 0.898 205 194 196 0 0
-1.4649 -5.5797 -5.1327 0.432 0.083 0.898 204 193 197 0 0
-1.4243 -5.6413 -5.1445 0.534 0.044 0.845 198 188 188 0 0
-1.4146 -5.6593 -5.1490 0.564 0.001 0.826 202 192 193 0 0
-1.4052 -5.6798 -5.1550 0.453 -0.045 0.890 201 191 192 0 0
-1.3936 -5.6871 -5.1529 0.474 0.099 0.875 199 189 190 0 0
-1.3836 -5.7037 -5.1565 0.474 0.099 0.875 205 195 196 0 0
-1.3736 -5.7206 -5.1603 0.225 0.203 0.953 205 195 196 0 0
-1.3077 -5.7865 -5.1610 0.639 0.103 0.762 205 195 196 0 0
-1.2978 -5.8042 -5.1653 0.575 0.025 0.818 204 194 195 0 0
-1.2873 -5.8187 -5.1676 0.625 -0.060 0.779 204 193 194 0 0
-1.2313 -5.8662 -5.1636 0.633 0.017 0.774 198 190 193 0 0
-1.2222 -5.8907 -5.1719 0.598 -0.045 0.800 201 195 199 0 0
-1.2004 -5.9147 -5.1734 0.532 -0.004 0.847 203 196 202 0 0
-1.1896 -5.9270 -5.1742 0.414 0.056 0.909 205 200 207 0 0
-1.1701 -5.9682 -5.1861 0.526 0.153 0.837 206 203 210 0 0
-1.1598 -5.9848 -5.1895 0.526 0.153 0.837 208 205 212 0 0
-5.2388 -1.1832 -4.7419 0.041 0.620 0.783 206 189 176 0 0
-5.2056 -1.2107 -4.7392 0.038 0.298 0.954 209 192 183 0 0
-5.1934 -1.2192 -4.7373 0.027 0.278 0.960 210 195 186 0 0
-5.1810 -1.2275 -4.7353 -0.035 0.266 0.963 213 200 191 0 0
-5.1731 -1.3220 -4.7815 0.807 -0.488 0.333 207 192 187 0 0
-5.1802 -1.3437 -4.7967 0.843 -0.444 0.305 208 192 188 0 0
-5.1665 -1.3513 -4.7936 0.383 -0.374 0.845 210 194 192 0 0
-5.1656 -1.3676 -4.8019 0.114 -0.015 0.993 212 198 193 0 0
-5.1554 -1.3776 -4.8019 0.059 0.073 0.996 214 200 197 0 0
-5.0926 -1.4709 -4.8188 0.164 -0.021 0.986 213 197 189 0 0
-5.0331 -1.4800 -4.7926 0.029 0.020 0.999 212 198 189 0 0
-5.0192 -1.5221 -4.8078 0.618 -0.420 0.664 213 198 191 0 0
-4.9315 -1.6876 -4.8501 0.898 -0.034 0.439 215 201 195 0 0
-4.8767 -1.7723 -4.8666 0.591 0.493 0.639 217 205 204 0 0
-4.7317 -2.0106 -4.9179 -0.091 -0.048 0.995 216 192 188 0 0
-4.6217 -2.2503 -4.9882 0.287 -0.170 0.943 144 112 155 0 0
-4.5601 -2.3995 -5.0355 0.417 0.175 0.892 152 142 205 0 0
-4.3610 -2.3221 -4.8904 0.644 0.508 -0.572 118 72 100 0 0
-4.3533 -2.3352 -4.8934 0.644 0.508 -0.572 123 80 110 0 0
-4.3446 -2.5639 -5.0106 0.602 -0.203 0.772 135 108 152 0 0
-4.3382 -2.6015 -5.0273 0.113 0.115 0.987 153 148 202 0 0
-4.3071 -2.6341 -5.0284 0.256 0.139 0.957 127 99 131 0 0
-4.2972 -2.6455 -5.0293 0.219 0.164 0.962 131 97 122 0 0
-4.2819 -2.6735 -5.0363 0.314 0.086 0.946 132 99 122 0 0
-4.2728 -2.6860 -5.0382 0.314 0.086 0.946 147 114 141 0 0
-4.1456 -2.8378 -5.0527 0.501 0.190 0.845 208 192 201 0 0
-4.1385 -2.8528 -5.0569 0.690 0.418 0.591 205 185 191 0 0
-4.1280 -2.8637 -5.0572 0.544 0.463 0.700 217 195 195 0 0
-4.0719 -2.9138 -5.0547 0.125 0.377 0.918 219 203 199 0 0
-4.0335 -2.9620 -5.0603 0.595 0.192 0.780 211 192 190 0 0
-4.0219 -2.9715 -5.0593 0.551 0.426 0.718 208 190 188 0 0
-3.8429 -3.1832 -5.0787 0.165 0.384 0.909 215 200 196 0 0
-3.8004 -3.2268 -5.0797 0.323 0.124 0.938 216 201 196 0 0
-3.7803 -3.2503 -5.0818 0.324 0.159 0.933 217 204 200 0 0
-3.6343 -3.4080 -5.0896 0.187 0.132 0.973 216 201 198 0 0
-3.6070 -3.4483 -5.0968 0.352 0.063 0.934 217 203 200 0 0
-3.5980 -3.4619 -5.0993 0.352 0.063 0.934 215 202 198 0 0
-3.5875 -3.4732 -5.0999 0.231 0.193 0.953 215 201 198 0 0
-3.5777 -3.4855 -5.1013 0.202 0.194 0.960 214 200 197 0 0
-3.5665 -3.4957 -5.1009 0.289 0.143 0.947 218 206 204 0 0
-3.5585 -3.5111 -5.1049 0.277 0.034 0.960 218 207 206 0 0
-3.5491 -3.5242 -5.1070 0.301 -0.019 0.953 215 204 202 0 0
-3.5386 -3.5355 -5.1075 0.359 -0.104 0.928 216 206 204 0 0
-3.5015 -3.6183 -5.1322 0.278 -0.150 0.949 217 210 215 0 0
-3.4887 -3.6552 -5.1452 0.425 0.038 0.905 217 209 213 0 0
-3.4523 -3.6519 -5.1245 0.710 -0.073 0.700 219 208 207 0 0
-3.4444 -3.6678 -5.1288 0.656 -0.030 0.754 217 206 201 0 0
-3.4393 -3.6888 -5.1373 0.560 0.033 0.828 215 200 192 0 0
-3.4315 -3.7050 -5.1419 0.360 0.290 0.887 211 194 188 0 0
-3.4193 -3.7136 -5.1401 0.266 0.426 0.865 208 193 189 0 0
-3.4076 -3.7231 -5.1391 0.266 0.426 0.865 211 199 197 0 0
-3.3036 -3.8726 -5.1644 0.169 0.466 0.868 214 203 204 0 0
-3.2912 -3.8809 -5.1624 0.091 0.498 0.863 208 198 199 0 0
-3.2771 -3.8859 -5.1577 0.269 0.602 0.752 205 195 195 0 0
-3.2647 -3.8940 -5.1556 0.269 0.602 0.752 209 197 195 0 0
-3.2568 -3.9108 -5.1604 0.071 0.897 0.435 190 174 170 0 0
-3.2448 -3.9197 -5.1588 0.236 0.865 0.442 180 161 157 0 0
-3.2299 -3.9230 -5.1528 0.563 0.434 0.703 209 195 193 0 0
-3.0371 -4.1282 -5.1615 0.378 0.455 0.807 197 185 187 0 0
-3.0263 -4.1395 -5.1619 0.209 0.616 0.760 199 188 189 0 0
-2.9872 -4.1589 -5.1518 0.111 0.656 0.747 198 185 182 0 0
-2.9210 -4.2233 -5.1516 0.751 0.488 0.444 204 197 205 0 0
-2.8936 -4.2326 -5.1423 0.524 0.744 0.416 203 194 197 0 0
-2.8807 -4.2390 -5.1389 0.442 0.686 0.578 204 190 190 0 0
-2.8689 -4.2478 -5.1375 0.442 0.686 0.578 203 189 184 0 0
-2.8210 -4.2816 -5.1305 0.424 0.498 0.757 213 205 205 0 0
-2.8125 -4.2981 -5.1348 0.631 0.600 0.492 210 203 207 0 0
-2.8022 -4.3104 -5.1361 0.625 0.636 0.452 209 201 207 0 0
-2.7908 -4.3200 -5.1352 0.877 0.452 0.161 203 195 202 0 0
-2.7651 -4.3324 -5.1284 0.698 0.585 0.412 200 186 187 0 0
-2.7525 -4.3391 -5.1254 0.520 0.813 0.263 196 181 180 0 0
-2.7397 -4.3453 -5.1220 0.327 0.884 0.335 202 188 186 0 0
-2.6653 -4.4261 -5.1262 0.507 0.498 0.703 200 192 198 0 0
-2.6550 -4.4383 -5.1274 0.488 0.459 0.743 194 184 184 0 0
-2.6437 -4.4481 -5.1267 0.292 0.486 0.824 198 186 185 0 0
-2.6320 -4.4570 -5.1253 0.225 0.495 0.839 205 194 193 0 0
-2.6228 -4.4724 -5.1287 0.251 0.255 0.934 207 196 195 0 0
-2.5665 -4.5219 -5.1257 0.455 0.147 0.878 207 198 201 0 0
-2.5551 -4.5314 -5.1248 0.290 0.358 0.887 202 192 191 0 0
-2.5425 -4.5378 -5.1217 0.420 0.463 0.781 201 188 186 0 0
-2.5317 -4.5488 -5.1219 0.221 0.463 0.858 204 191 186 0 0
-2.5189 -4.5543 -5.1181 0.099 0.533 0.840 201 187 181 0 0
-2.4737 -4.5931 -5.1152 0.562 0.060 0.825 203 189 184 0 0
-2.4594 -4.5943 -5.1084 0.368 0.172 0.914 211 202 200 0 0
-2.4488 -4.6059 -5.1090 0.356 0.237 0.904 216 207 205 0 0
-2.4393 -4.6205 -5.1118 0.399 0.203 0.894 214 204 200 0 0
-2.4257 -4.6234 -5.1063 0.441 0.280 0.853 209 197 193 0 0
-2.3929 -4.6553 -5.1062 0.266 0.342 0.901 206 194 189 0 0
-2.3809 -4.6628 -5.1039 0.313 0.391 0.866 207 195 191 0 0
-2.3577 -4.6799 -5.1009 0.087 0.344 0.935 210 201 197 0 0
-2.2992 -4.7656 -5.1161 0.427 0.003 0.904 209 199 200 0 0
-2.2887 -4.7776 -5.1169 0.305 0.036 0.952 209 200 202 0 0
-2.2797 -4.7945 -5.1212 0.259 0.101 0.961 209 201 200 0 0
-2.2595 -4.8213 -5.1250 0.258 -0.039 0.965 209 201 203 0 0
-2.1496 -4.9273 -5.1241 -0.021 0.734 0.679 203 197 204 0 0
-2.1115 -4.9411 -5.1116 0.612 0.572 0.546 183 169 167 0 0
-2.1008 -4.9527 -5.1122 0.639 0.633 0.437 180 164 158 0 0
-2.0903 -4.9646 -5.1130 0.447 0.769 0.457 184 169 163 0 0
-2.0792 -4.9748 -5.1127 0.365 0.750 0.551 189 174 169 0 0
-2.0676 -4.9831 -5.1110 -0.024 0.817 0.576 193 178 173 0 0
-2.0555 -4.9895 -5.1081 -0.074 0.801 0.595 202 191 187 0 0
-2.0415 -4.9891 -5.1006 -0.052 0.750 0.660 208 199 197 0 0
-2.0309 -5.0006 -5.1012 0.500 0.205 0.842 206 196 198 0 0
-2.0185 -5.0061 -5.0977 0.815 0.233 0.530 207 197 199 0 0
-2.0098 -5.0246 -5.1030 0.815 0.233 0.530 208 199 200 0 0
-1.9982 -5.0326 -5.1012 0.760 0.328 0.561 206 196 198 0 0
-1.9886 -5.0484 -5.1046 0.483 0.298 0.823 205 193 194 0 0
-1.9570 -5.0849 -5.1075 0.281 0.324 0.903 204 193 192 0 0
-1.9342 -5.1025 -5.1050 0.075 0.453 0.888 204 193 191 0 0
-1.8258 -5.2123 -5.1069 0.450 0.150 0.880 198 187 186 0 0
-1.8146 -5.2219 -5.1063 0.503 0.149 0.851 198 186 186 0 0
-1.8050 -5.2379 -5.1097 0.534 0.156 0.831 202 191 191 0 0
-1.7901 -5.2316 -5.0986 0.202 0.290 0.936 203 192 193 0 0
-1.7796 -5.2441 -5.0998 0.115 0.299 0.947 203 193 192 0 0
-1.7102 -5.2898 -5.0879 0.246 0.416 0.876 204 194 193 0 0
-1.7022 -5.3135 -5.0964 0.507 0.038 0.861 202 192 192 0 0
-1.5906 -5.4724 -5.1228 0.393 0.066 0.917 200 189 190 0 0
-1.5688 -5.4947 -5.1232 0.225 0.115 0.967 190 178 179 0 0
-1.5214 -5.5183 -5.1111 0.438 0.116 0.891 205 195 197 0 0
-1.4915 -5.5664 -5.1211 0.432 0.083 0.898 201 191 190 0 0
-1.4815 -5.5824 -5.1245 0.432 0.083 0.898 202 192 192 0 0
-1.4715 -5.5985 -5.1278 0.432 0.083 0.898 205 195 196 0 0
-1.4635 -5.6260 -5.1383 0.248 0.257 0.934 206 196 197 0 0
-1.4320 -5.6670 -5.1437 0.491 0.089 0.867 199 189 190 0 0
-1.4203 -5.6736 -5.1411 0.484 0.111 0.868 205 194 194 0 0
-1.4103 -5.6903 -5.1448 0.555 0.156 0.817 206 197 198 0 0
-1.4002 -5.7064 -5.1480 0.460 0.109 0.881 206 195 195 0 0
-1.3904 -5.7246 -5.1527 0.591 0.121 0.797 208 199 199 0 0
-1.3322 -5.7591 -5.1406 -0.260 0.523 0.812 204 194 195 0 0
-1.3246 -5.7914 -5.1539 0.322 0.087 0.943 205 195 196 0 0
-1.3135 -5.8016 -5.1535 0.567 0.096 0.818 204 193 195 0 0
-1.3041 -5.8234 -5.1602 0.575 0.025 0.818 206 196 197 0 0
-1.2934 -5.8366 -5.1617 0.527 -0.113 0.842 207 197 199 0 0
-1.2515 -5.8954 -5.1711 0.243 0.388 0.889 201 192 193 0 0
-1.2394 -5.8989 -5.1667 0.579 0.041 0.815 202 195 197 0 0
-1.2296 -5.9185 -5.1720 0.685 0.013 0.729 207 200 206 0 0
-1.2205 -5.9433 -5.1805 0.793 -0.001 0.610 202 196 202 0 0
-1.2109 -5.9649 -5.1869 0.723 0.054 0.688 201 195 201 0 0
-1.1987 -5.9682 -5.1823 0.241 0.179 0.954 205 200 207 0 0
-1.1888 -5.9874 -5.1874 0.176 0.250 0.952 207 202 209 0 0
-1.1781 -6.0019 -5.1896 0.190 0.238 0.953 207 204 211 0 0
-5.2684 -1.1873 -4.7424 -0.163 0.534 0.830 210 193 181 0 0
-5.2558 -1.1955 -4.7403 -0.005 0.243 0.970 210 194 183 0 0
-5.2384 -1.2006 -4.7339 0.140 0.027 0.990 211 196 185 0 0
-5.2328 -1.2134 -4.7378 -0.055 0.298 0.953 212 198 190 0 0
-5.2218 -1.2227 -4.7370 -0.056 0.226 0.973 212 195 188 0 0
-5.2085 -1.2304 -4.7342 -0.000 0.204 0.979 213 198 190 0 0
-5.2038 -1.3611 -4.8011 0.126 0.120 0.985 210 196 192 0 0
-5.1932 -1.3708 -4.8007 0.200 -0.018 0.980 209 194 189 0 0
-5.1820 -1.3801 -4.7998 0.072 0.098 0.993 211 197 190 0 0
-5.1715 -1.3900 -4.7996 0.072 0.098 0.993 212 196 189 0 0
-5.1611 -1.3998 -4.7994 0.007 0.143 0.990 211 196 189 0 0
-5.1483 -1.4080 -4.7971 -0.098 0.209 0.973 216 201 194 0 0
-5.1260 -1.4612 -4.8137 0.089 0.157 0.983 213 198 190 0 0
-5.1092 -1.4840 -4.8171 0.168 -0.012 0.986 215 201 193 0 0
-5.1006 -1.4952 -4.8186 0.210 -0.074 0.975 216 203 195 0 0
-4.9405 -1.6955 -4.8417 0.628 -0.118 0.769 215 200 193 0 0
-4.9310 -1.7429 -4.8618 0.434 0.698 0.570 214 200 197 0 0
-4.8980 -1.7718 -4.8600 0.236 0.198 0.951 217 205 204 0 0
-4.8069 -1.9413 -4.9026 0.301 0.026 0.953 209 189 185 0 0
-4.8025 -1.9568 -4.9085 -0.018 0.209 0.978 207 187 183 0 0
-4.6452 -2.2526 -4.9837 0.283 -0.150 0.947 140 112 152 0 0
-4.6276 -2.2978 -4.9985 0.135 -0.083 0.987 134 106 148 0 0
-4.3285 -2.3723 -4.8826 0.692 0.384 -0.611 137 90 122 0 0
-4.3282 -2.4148 -4.9050 0.696 0.390 -0.602 116 72 107 0 0
-4.3279 -2.6346 -5.0214 0.567 0.228 0.792 127 106 146 0 0
-4.3146 -2.6421 -5.0185 0.528 0.530 0.663 135 112 150 0 0
-4.3032 -2.6518 -5.0177 -0.042 0.695 0.718 136 105 136 0 0
-4.2957 -2.6661 -5.0214 0.040 0.330 0.943 136 105 132 0 0
-4.2869 -2.6787 -5.0235 0.249 0.232 0.940 142 110 139 0 0
-4.2775 -2.6908 -5.0251 0.343 0.170 0.924 145 113 143 0 0
-4.2674 -2.7021 -5.0258 0.383 0.149 0.912 152 121 152 0 0
-4.2582 -2.7144 -5.0275 0.403 0.070 0.912 166 145 178 0 0
-4.1715 -2.8212 -5.0392 0.396 -0.010 0.918 220 201 201 0 0
-4.1466 -2.8619 -5.0478 0.460 0.272 0.845 213 193 195 0 0
-4.1361 -2.8728 -5.0481 0.435 0.422 0.795 222 203 200 0 0
-4.0112 -3.0058 -5.0537 0.281 0.287 0.916 218 202 201 0 0
-4.0004 -3.0164 -5.0537 0.281 0.287 0.916 209 194 190 0 0
-3.8002 -3.2512 -5.0743 0.318 -0.018 0.948 219 205 201 0 0
-3.6177 -3.4630 -5.0918 0.352 0.063 0.934 218 204 201 0 0
-3.6068 -3.4736 -5.0918 0.269 0.046 0.962 215 202 199 0 0
-3.5880 -3.4998 -5.0959 0.158 0.113 0.981 217 205 202 0 0
-3.5774 -3.5110 -5.0963 0.158 0.113 0.981 216 204 202 0 0
-3.5607 -3.5406 -5.1033 0.246 -0.121 0.962 219 206 206 0 0
-3.5202 -3.6178 -5.1233 0.310 -0.041 0.950 218 210 214 0 0
-3.5143 -3.6371 -5.1304 0.516 -0.057 0.855 217 213 220 0 0
-3.5075 -3.6549 -5.1363 0.514 0.015 0.858 217 214 222 0 0
-3.4993 -3.6704 -5.1403 0.562 -0.014 0.827 216 211 217 0 0
-3.4919 -3.6874 -5.1454 0.564 -0.022 0.826 215 209 211 0 0
-3.4559 -3.6849 -5.1254 0.690 -0.004 0.724 214 201 197 0 0
-3.4303 -3.7300 -5.1360 0.192 0.306 0.932 212 199 199 0 0
-3.4213 -3.7443 -5.1390 0.317 0.175 0.932 214 202 202 0 0
-3.4076 -3.7503 -5.1350 0.223 0.110 0.969 213 201 201 0 0
-3.3505 -3.9250 -5.1981 0.324 -0.145 0.935 212 198 193 0 0
-3.1615 -4.0447 -5.1633 0.367 0.511 0.777 212 202 198 0 0
-3.1523 -4.0593 -5.1663 0.761 0.253 0.598 212 201 199 0 0
-3.0663 -4.1172 -5.1523 0.578 0.300 0.759 207 194 192 0 0
-3.0049 -4.1579 -5.1419 0.139 0.732 0.667 207 195 193 0 0
-2.9939 -4.1688 -5.1421 0.111 0.656 0.747 205 194 193 0 0
-2.9823 -4.1784 -5.1411 0.181 0.515 0.838 213 203 203 0 0
-2.9479 -4.2077 -5.1388 0.617 0.240 0.749 203 192 191 0 0
-2.9174 -4.2458 -5.1431 0.296 0.633 0.715 210 201 204 0 0
-2.8301 -4.2976 -5.1252 0.327 0.440 0.837 211 200 198 0 0
-2.8166 -4.3022 -5.1207 0.711 0.607 0.357 210 201 200 0 0
-2.8059 -4.3138 -5.1213 0.709 0.655 0.261 211 201 200 0 0
-2.7953 -4.3253 -5.1219 0.809 0.568 0.152 206 196 196 0 0
-2.7854 -4.3385 -5.1237 0.843 0.473 0.257 211 199 199 0 0
-2.7284 -4.3872 -5.1199 0.397 0.297 0.868 209 199 198 0 0
-2.7179 -4.3990 -5.1207 0.397 0.297 0.868 210 200 199 0 0
-2.6971 -4.4234 -5.1228 0.397 0.335 0.855 208 197 200 0 0
-2.6864 -4.4348 -5.1233 0.397 0.335 0.855 205 196 199 0 0
-2.6739 -4.4418 -5.1206 0.036 0.636 0.771 202 191 193 0 0
-2.6614 -4.4487 -5.1177 0.503 0.411 0.760 204 193 193 0 0
-2.5746 -4.5369 -5.1194 0.395 0.167 0.903 212 203 204 0 0
-2.5624 -4.5444 -5.1171 0.226 0.442 0.868 207 196 195 0 0
-2.5509 -4.5536 -5.1159 0.238 0.412 0.880 207 194 192 0 0
-2.5254 -4.5654 -5.1089 0.225 0.450 0.864 203 189 185 0 0
-2.5134 -4.5731 -5.1068 0.099 0.533 0.840 199 186 180 0 0
-2.5012 -4.5802 -5.1042 0.128 0.563 0.816 199 184 178 0 0
-2.4573 -4.6226 -5.1039 0.368 0.189 0.911 211 200 198 0 0
-2.4471 -4.6356 -5.1056 0.326 0.212 0.921 208 197 193 0 0
-2.4359 -4.6454 -5.1048 0.070 0.398 0.915 208 197 193 0 0
-2.3542 -4.7049 -5.0940 0.304 0.068 0.950 210 199 195 0 0
-2.3257 -4.7501 -5.1032 0.373 0.067 0.925 210 200 198 0 0
-2.3153 -4.7625 -5.1043 0.544 -0.020 0.839 209 198 197 0 0
-2.2988 -4.8009 -5.1162 0.427 0.003 0.904 210 201 202 0 0
-2.2883 -4.8129 -5.1170 0.259 0.101 0.961 209 200 200 0 0
-2.2780 -4.8257 -5.1184 0.259 0.101 0.961 210 204 205 0 0
-2.2577 -4.8526 -5.1222 0.440 0.017 0.898 212 205 207 0 0
-2.2481 -4.8678 -5.1253 0.425 0.101 0.899 209 200 198 0 0
-2.2352 -4.8724 -5.1210 0.402 0.069 0.913 209 197 190 0 0
-2.2237 -4.8813 -5.1198 0.346 0.020 0.938 211 197 188 0 0
-2.1456 -4.9521 -5.1167 0.257 0.417 0.872 201 192 193 0 0
-2.1213 -4.9653 -5.1111 0.575 0.217 0.789 190 176 173 0 0
-2.1091 -4.9716 -5.1081 0.499 0.355 0.791 193 178 174 0 0
-2.0971 -4.9787 -5.1056 0.165 0.586 0.793 198 185 183 0 0
-2.0858 -4.9882 -5.1048 0.133 0.750 0.648 197 185 184 0 0
-2.0734 -4.9935 -5.1012 0.133 0.750 0.648 197 184 179 0 0
-2.0607 -4.9981 -5.0970 -0.041 0.826 0.562 198 186 183 0 0
-2.0486 -5.0044 -5.0941 -0.059 0.699 0.713 198 187 186 0 0
-2.0261 -5.0232 -5.0923 0.577 0.276 0.769 210 200 202 0 0
-2.0147 -5.0323 -5.0913 0.829 0.333 0.449 208 198 197 0 0
-2.0053 -5.0484 -5.0949 0.503 0.268 0.822 206 195 194 0 0
-1.9967 -5.0681 -5.1009 0.521 0.061 0.851 205 195 194 0 0
-1.9294 -5.1254 -5.0963 0.391 0.218 0.894 202 191 189 0 0
-1.8903 -5.1320 -5.0795 0.428 0.012 0.903 207 196 194 0 0
-1.8117 -5.2539 -5.1033 0.482 0.240 0.843 209 198 198 0 0
-1.8020 -5.2699 -5.1068 0.673 0.178 0.717 202 190 192 0 0
-1.7018 -5.3586 -5.1017 0.576 -0.020 0.817 206 194 194 0 0
-1.6929 -5.3788 -5.1078 0.620 0.028 0.784 205 194 195 0 0
-1.6725 -5.4074 -5.1124 0.590 0.165 0.790 204 194 194 0 0
-1.6628 -5.4241 -5.1162 0.590 0.165 0.790 206 196 196 0 0
-1.6526 -5.4385 -5.1185 0.177 0.169 0.970 198 188 187 0 0
-1.6307 -5.4603 -5.1187 0.087 0.104 0.991 205 195 194 0 0
-1.6196 -5.4704 -5.1183 0.067 0.112 0.991 203 193 192 0 0
-1.6076 -5.4762 -5.1152 0.176 0.046 0.983 200 190 189 0 0
-1.5970 -5.4890 -5.1164 0.176 0.046 0.983 199 188 188 0 0
-1.5531 -5.5316 -5.1162 0.278 -0.099 0.955 205 194 199 0 0
-1.5435 -5.5496 -5.1208 0.300 -0.144 0.943 206 195 198 0 0
-1.5338 -5.5675 -5.1252 0.290 -0.098 0.952 206 196 196 0 0
-1.4382 -5.6838 -5.1373 0.523 0.037 0.852 205 195 195 0 0
-1.4066 -5.7245 -5.1424 0.460 0.109 0.881 205 194 194 0 0
-1.3975 -5.7472 -5.1497 0.295 0.287 0.912 206 195 196 0 0
-1.3865 -5.7580 -5.1497 0.275 0.386 0.881 202 192 192 0 0
-1.3748 -5.7651 -5.1475 -0.040 0.494 0.869 203 192 193 0 0
-1.3625 -5.7680 -5.1426 0.030 0.637 0.770 204 194 195 0 0
-1.3503 -5.7713 -5.1380 -0.117 0.668 0.735 206 197 197 0 0
-1.3002 -5.8586 -5.1582 0.605 -0.079 0.792 202 192 193 0 0
-1.2565 -5.9061 -5.1607 -0.048 0.328 0.944 204 198 200 0 0
-1.2456 -5.9180 -5.1614 0.596 0.081 0.799 204 198 200 0 0
-1.2353 -5.9344 -5.1647 0.596 -0.108 0.795 204 198 203 0 0
-1.2265 -5.9617 -5.1747 0.758 -0.036 0.652 205 198 204 0 0
-1.2172 -5.9853 -5.1824 0.720 0.003 0.694 206 201 206 0 0
-1.2048 -5.9872 -5.1769 0.200 -0.023 0.980 208 204 209 0 0
-1.1954 -6.0106 -5.1845 0.032 0.154 0.988 206 202 208 0 0
-5.3755 -1.1099 -4.7400 0.261 -0.325 0.909 209 196 189 0 0
-5.2711 -1.2068 -4.7372 -0.003 0.215 0.977 213 199 190 0 0
-5.2384 -1.2349 -4.7351 -0.056 0.226 0.973 213 199 190 0 0
-5.1857 -1.4010 -4.7955 0.086 -0.030 0.996 214 198 187 0 0
-5.1771 -1.4121 -4.7970 0.081 0.039 0.996 214 196 185 0 0
-5.1634 -1.4198 -4.7940 0.020 0.133 0.991 212 195 185 0 0
-5.1511 -1.4283 -4.7921 -0.045 0.114 0.992 213 197 187 0 0
-5.1420 -1.4391 -4.7931 -0.053 0.278 0.959 214 198 188 0 0
-5.1338 -1.4506 -4.7949 0.070 0.308 0.949 214 198 188 0 0
-5.1442 -1.4754 -4.8134 0.150 0.038 0.988 214 197 189 0 0
-5.1250 -1.4965 -4.8146 0.168 -0.012 0.986 215 200 192 0 0
-5.1168 -1.5081 -4.8165 0.187 -0.047 0.981 216 201 194 0 0
-4.9608 -1.7124 -4.8437 0.323 -0.014 0.946 213 198 191 0 0
-4.6405 -2.2689 -4.9719 0.444 -0.236 0.864 140 107 151 0 0
-4.6332 -2.2825 -4.9753 0.391 -0.159 0.906 135 102 145 0 0
-4.3290 -2.2678 -4.8101 0.938 0.229 0.259 178 105 87 0 0
-4.2931 -2.6626 -5.0002 0.227 0.689 0.688 143 113 148 0 0
-4.2875 -2.6789 -5.0058 0.593 0.081 0.801 144 112 147 0 0
-4.2764 -2.7119 -5.0175 0.557 -0.016 0.831 143 111 141 0 0
-4.1652 -2.8601 -5.0383 0.474 0.169 0.864 221 200 199 0 0
-4.1555 -2.8721 -5.0396 0.437 0.349 0.829 214 191 188 0 0
-4.1453 -2.8835 -5.0404 0.340 0.399 0.852 214 192 188 0 0
-4.0123 -3.0308 -5.0494 0.357 0.230 0.905 217 202 197 0 0
-4.0040 -3.0448 -5.0524 0.089 0.202 0.975 222 207 205 0 0
-3.9919 -3.0537 -5.0508 -0.060 0.383 0.922 217 203 200 0 0
-3.9781 -3.0603 -5.0472 -0.060 0.383 0.922 213 196 194 0 0
-3.8514 -3.2181 -5.0650 0.133 0.318 0.939 207 188 181 0 0
-3.8219 -3.2545 -5.0690 0.303 0.072 0.950 214 199 192 0 0
-3.6212 -3.4942 -5.0917 0.267 0.017 0.964 215 201 198 0 0
-3.5180 -3.6699 -5.1311 0.499 0.010 0.866 216 213 223 0 0
-3.5100 -3.6860 -5.1355 0.499 0.010 0.866 212 207 215 0 0
-3.5016 -3.7012 -5.1392 0.564 -0.022 0.826 210 202 209 0 0
-3.4610 -3.7206 -5.1284 0.483 -0.024 0.876 201 185 182 0 0
-3.4413 -3.7463 -5.1318 0.317 0.175 0.932 215 203 204 0 0
-3.4311 -3.7585 -5.1330 0.317 0.175 0.932 213 200 200 0 0
-3.3768 -3.8448 -5.1505 -0.035 0.308 0.951 212 199 199 0 0
-3.3916 -3.9030 -5.1890 0.128 0.014 0.992 210 199 199 0 0
-3.3709 -3.9279 -5.1913 0.344 -0.155 0.926 204 190 187 0 0
-3.3637 -3.9460 -5.1972 0.377 -0.106 0.920 166 143 131 0 0
-3.3559 -3.9633 -5.2023 0.248 -0.215 0.944 157 131 118 0 0
-3.0857 -4.1196 -5.1450 0.392 0.356 0.848 212 201 199 0 0
-3.0141 -4.1733 -5.1363 0.228 0.326 0.917 212 199 198 0 0
-3.0029 -4.1838 -5.1361 0.346 0.237 0.908 215 205 203 0 0
-2.9924 -4.1958 -5.1370 0.346 0.237 0.908 215 204 203 0 0
-2.7160 -4.4266 -5.1159 0.407 0.152 0.901 211 200 198 0 0
-2.5829 -4.5524 -5.1134 0.358 0.105 0.928 209 200 199 0 0
-2.4699 -4.6512 -5.1071 0.512 0.080 0.855 210 197 194 0 0
-2.4550 -4.6508 -5.0992 0.345 0.190 0.919 210 197 194 0 0
-2.4428 -4.6579 -5.0967 0.016 0.391 0.920 209 196 191 0 0
-2.2933 -4.8203 -5.1051 0.511 -0.001 0.860 209 201 203 0 0
-2.2866 -4.8446 -5.1145 0.380 0.159 0.911 212 206 209 0 0
-2.2765 -4.8582 -5.1165 0.319 0.161 0.934 213 207 209 0 0
-2.2662 -4.8710 -5.1178 0.319 0.161 0.934 211 206 206 0 0
-2.2563 -4.8853 -5.1203 0.560 0.111 0.821 211 202 200 0 0
-2.2334 -4.9040 -5.1183 0.540 0.074 0.838 209 191 181 0 0
-2.1629 -4.9535 -5.1080 0.301 0.580 0.757 203 192 191 0 0
-2.1516 -4.9632 -5.1073 0.316 0.484 0.816 204 193 191 0 0
-2.1402 -4.9724 -5.1062 0.316 0.484 0.816 199 186 184 0 0
-2.1278 -4.9781 -5.1028 0.575 0.217 0.789 200 186 183 0 0
-2.1152 -4.9833 -5.0990 0.351 0.389 0.852 204 190 187 0 0
-2.1031 -4.9898 -5.0962 0.165 0.586 0.793 205 193 193 0 0
-2.0902 -4.9938 -5.0917 0.020 0.743 0.669 207 195 195 0 0
-2.0776 -4.9985 -5.0876 0.142 0.395 0.907 203 190 186 0 0
-1.9710 -5.1163 -5.0947 0.197 0.374 0.906 205 194 192 0 0
-1.9385 -5.1498 -5.0955 0.452 0.232 0.862 202 191 188 0 0
-1.8094 -5.2886 -5.1021 0.730 0.161 0.664 207 195 194 0 0
-1.7932 -5.2765 -5.0872 0.360 0.188 0.914 199 188 187 0 0
-1.7010 -5.4021 -5.1059 0.502 -0.116 0.857 203 191 191 0 0
-1.6790 -5.4236 -5.1059 0.586 0.126 0.801 204 193 192 0 0
-1.6690 -5.4387 -5.1087 0.664 0.243 0.707 204 194 193 0 0
-1.6599 -5.4585 -5.1144 0.339 0.258 0.905 206 196 195 0 0
-1.6486 -5.4682 -5.1137 0.307 0.235 0.922 204 194 193 0 0
-1.6053 -5.5145 -5.1158 0.240 -0.036 0.970 205 195 195 0 0
-1.4667 -5.6799 -5.1314 0.031 0.193 0.981 209 201 199 0 0
-1.4449 -5.7033 -5.1325 0.545 -0.051 0.837 206 196 195 0 0
-1.3340 -5.8083 -5.1306 0.604 -0.056 0.795 204 194 193 0 0
-1.3251 -5.8331 -5.1391 0.604 -0.056 0.795 205 195 196 0 0
-1.3071 -5.8814 -5.1553 0.605 -0.079 0.792 204 194 193 0 0
-1.2967 -5.8973 -5.1583 0.036 0.313 0.949 205 195 196 0 0
-1.2859 -5.9103 -5.1596 0.037 0.283 0.959 204 194 197 0 0
-1.2516 -5.9362 -5.1555 0.499 -0.077 0.863 206 198 201 0 0
-1.2116 -6.0111 -5.1744 0.130 -0.020 0.991 207 200 204 0 0
-1.2023 -6.0359 -5.1827 -0.116 0.218 0.969 201 192 196 0 0
-1.1913 -6.0480 -5.1834 -0.189 0.280 0.941 204 194 196 0 0
-5.3870 -1.1184 -4.7334 0.189 -0.280 0.941 210 197 189 0 0
-5.2612 -1.2346 -4.7297 -0.066 0.159 0.985 212 198 189 0 0
-5.2223 -1.3933 -4.7931 0.303 -0.145 0.942 220 209 207 0 0
-5.2146 -1.4051 -4.7954 0.181 -0.096 0.979 220 208 202 0 0
-5.2042 -1.4151 -4.7953 0.183 0.024 0.983 218 202 192 0 0
-5.1813 -1.4335 -4.7932 -0.079 0.371 0.925 212 194 182 0 0
-5.1570 -1.4856 -4.8081 0.108 0.033 0.994 209 192 183 0 0
-5.1463 -1.4954 -4.8077 0.045 0.075 0.996 210 194 185 0 0
-5.1408 -1.5090 -4.8120 0.168 -0.012 0.986 214 199 190 0 0
-5.1205 -1.5294 -4.8123 0.206 -0.106 0.973 215 200 193 0 0
-4.6013 -2.4198 -5.0132 0.407 0.492 0.770 144 85 122 0 0
-4.3450 -2.2430 -4.7880 0.511 0.612 0.604 188 107 69 0 0
-4.3375 -2.2559 -4.7909 0.921 0.260 0.291 195 122 84 0 0
-4.3311 -2.2699 -4.7950 0.850 0.463 0.250 193 124 86 0 0
-4.3234 -2.2827 -4.7978 0.856 0.494 0.153 185 112 83 0 0
-4.3154 -2.2951 -4.8001 0.898 0.364 0.249 178 103 74 0 0
-4.2945 -2.3359 -4.8109 0.790 0.606 -0.091 189 118 87 0 0
-4.2996 -2.3836 -4.8386 0.906 0.270 -0.325 132 79 103 0 0
-4.2756 -2.7104 -4.9983 0.877 -0.328 0.351 142 110 143 0 0
-4.2734 -2.7309 -5.0079 0.710 0.016 0.704 152 120 151 0 0
-4.2605 -2.7854 -5.0299 0.515 0.139 0.846 162 134 163 0 0
-4.1883 -2.8637 -5.0339 0.406 -0.044 0.913 214 194 194 0 0
-4.0324 -3.0312 -5.0417 0.345 0.212 0.915 219 203 199 0 0
-4.0225 -3.0431 -5.0428 0.418 0.082 0.905 218 202 199 0 0
-4.0148 -3.0578 -5.0466 0.334 0.121 0.935 219 204 201 0 0
-3.9959 -3.0828 -5.0500 0.202 0.005 0.979 214 199 195 0 0
-3.9849 -3.0932 -5.0498 0.238 -0.040 0.971 215 200 198 0 0
-3.8747 -3.2235 -5.0616 0.091 0.418 0.904 210 191 182 0 0
-3.5380 -3.6716 -5.1238 0.339 -0.026 0.940 214 206 212 0 0
-3.5284 -3.6848 -5.1258 0.414 0.031 0.910 212 205 212 0 0
-3.5203 -3.7007 -5.1300 0.468 0.005 0.884 206 196 202 0 0
-3.5122 -3.7166 -5.1342 0.468 0.005 0.884 204 193 198 0 0
-3.4830 -3.6963 -5.1085 0.562 -0.008 0.827 208 196 199 0 0
-3.4767 -3.7152 -5.1152 0.540 -0.136 0.830 210 196 195 0 0
-3.4730 -3.7385 -5.1255 0.373 -0.131 0.919 211 197 194 0 0
-3.3892 -3.8642 -5.1485 -0.316 0.407 0.857 212 200 199 0 0
-3.3913 -3.9304 -5.1844 0.322 0.131 0.938 175 158 158 0 0
-3.3832 -3.9471 -5.1890 0.477 -0.110 0.872 133 107 100 0 0
-3.2114 -4.0375 -5.1480 0.352 0.411 0.841 211 198 195 0 0
-3.2001 -4.0479 -5.1477 0.352 0.411 0.841 212 199 195 0 0
-3.1398 -4.1259 -5.1576 0.339 0.339 0.878 211 197 194 0 0
-2.8952 -4.2927 -5.1193 0.331 0.342 0.879 214 203 201 0 0
-2.8848 -4.3049 -5.1203 0.311 0.333 0.890 212 202 198 0 0
-2.6704 -4.4981 -5.1115 0.218 0.325 0.920 206 195 193 0 0
-2.6590 -4.5079 -5.1108 0.218 0.325 0.920 208 197 195 0 0
-2.6477 -4.5180 -5.1103 0.272 0.288 0.918 209 199 197 0 0
-2.6365 -4.5282 -5.1098 0.342 0.142 0.929 206 194 191 0 0
-2.6133 -4.5468 -5.1077 0.001 0.373 0.928 201 189 186 0 0
-2.5886 -4.5612 -5.1025 -0.014 0.489 0.872 213 203 202 0 0
-2.5756 -4.5666 -5.0987 0.027 0.429 0.903 207 196 194 0 0
-2.5669 -4.5834 -5.1030 0.115 0.303 0.946 204 192 186 0 0
-2.5526 -4.5853 -5.0967 0.176 0.281 0.944 203 189 185 0 0
-2.5432 -4.6004 -5.0997 0.561 0.184 0.807 201 188 182 0 0
-2.5311 -4.6080 -5.0975 0.009 0.574 0.818 207 195 191 0 0
-2.5182 -4.6134 -5.0937 0.011 0.555 0.831 211 200 198 0 0
-2.4930 -4.6257 -5.0872 0.253 0.234 0.939 206 193 189 0 0
-2.4835 -4.6407 -5.0902 0.330 0.144 0.933 207 196 192 0 0
-2.3063 -4.8524 -5.1102 0.360 0.214 0.908 210 203 205 0 0
-2.2953 -4.8634 -5.1104 0.397 0.393 0.829 212 206 210 0 0
-2.2848 -4.8759 -5.1115 0.467 0.285 0.837 212 207 210 0 0
-2.2744 -4.8888 -5.1129 0.467 0.285 0.837 212 206 208 0 0
-2.2646 -4.9034 -5.1156 0.647 0.236 0.725 209 199 199 0 0
-2.2524 -4.9104 -5.1130 0.645 0.490 0.586 201 187 178 0 0
-2.2415 -4.9217 -5.1133 0.689 0.410 0.597 190 171 161 0 0
-2.2312 -4.9347 -5.1148 0.633 0.469 0.616 188 171 163 0 0
-2.2187 -4.9406 -5.1115 0.163 0.442 0.882 192 176 170 0 0
-2.0117 -5.1025 -5.0899 0.561 0.027 0.827 208 197 196 0 0
-1.9170 -5.1608 -5.0718 0.100 0.157 0.983 207 196 194 0 0
-1.8373 -5.2796 -5.0933 0.240 0.122 0.963 209 199 196 0 0
-1.8261 -5.2893 -5.0926 0.485 0.125 0.865 208 197 194 0 0
-1.8177 -5.3111 -5.0997 0.667 -0.220 0.712 206 193 191 0 0
-1.8001 -5.2933 -5.0813 0.359 0.052 0.932 198 184 183 0 0
-1.7893 -5.3044 -5.0816 0.250 0.084 0.965 195 181 179 0 0
-1.6996 -5.4429 -5.1082 0.254 -0.087 0.963 202 191 190 0 0
-1.6752 -5.4532 -5.1010 0.575 0.396 0.716 208 198 197 0 0
-1.6657 -5.4714 -5.1058 0.273 0.051 0.961 211 202 200 0 0
-1.5700 -5.5864 -5.1169 0.169 -0.103 0.980 202 190 191 0 0
-1.4962 -5.6814 -5.1289 0.079 0.078 0.994 201 189 188 0 0
-1.4896 -5.7171 -5.1442 0.418 -0.108 0.902 207 194 194 0 0
-1.4752 -5.7092 -5.1327 0.002 0.034 0.999 205 194 193 0 0
-1.3631 -5.8094 -5.1276 0.325 0.358 0.876 207 197 197 0 0
-1.3408 -5.8298 -5.1268 0.652 -0.082 0.754 202 192 192 0 0
-1.3325 -5.8583 -5.1376 0.428 -0.075 0.901 204 194 194 0 0
-1.3026 -5.9135 -5.1512 0.210 0.105 0.972 207 197 198 0 0
-1.1972 -6.0650 -5.1766 -0.199 0.253 0.947 198 184 178 0 0
-5.4130 -1.1359 -4.7389 0.368 -0.356 0.859 212 199 193 0 0
-5.3747 -1.1935 -4.7494 -0.021 0.227 0.974 212 194 179 0 0
-5.3655 -1.2042 -4.7503 0.052 0.307 0.950 211 193 179 0 0
-5.3483 -1.2097 -4.7443 -0.257 0.696 0.670 211 193 181 0 0
-5.3318 -1.2156 -4.7390 -0.194 0.550 0.813 212 196 183 0 0
-5.3161 -1.2220 -4.7343 -0.109 0.440 0.891 212 195 183 0 0
-5.2816 -1.2492 -4.7308 -0.001 0.128 0.992 212 197 188 0 0
-5.2372 -1.4048 -4.7896 0.397 -0.171 0.902 219 208 210 0 0
-5.2320 -1.4183 -4.7940 0.385 -0.086 0.919 219 207 206 0 0
-5.2120 -1.4389 -4.7944 0.206 0.289 0.935 209 193 181 0 0
-5.1933 -1.4431 -4.7871 0.011 0.632 0.775 205 186 173 0 0
-4.9109 -1.8785 -4.8703 0.392 -0.226 0.892 213 194 190 0 0
-4.8477 -2.0172 -4.9105 0.281 -0.074 0.957 212 191 188 0 0
-4.8427 -2.0324 -4.9159 0.724 -0.234 0.649 210 188 187 0 0
-4.8396 -2.0494 -4.9233 0.541 -0.173 0.823 207 181 183 0 0
-4.8289 -2.0597 -4.9232 0.305 -0.077 0.949 209 181 186 0 0
-4.8603 -2.1073 -4.9643 0.530 0.622 0.576 203 172 179 0 0
-4.8511 -2.1191 -4.9657 0.190 0.857 0.479 169 137 144 0 0
-4.8381 -2.1275 -4.9635 0.277 0.263 0.924 147 112 116 0 0
-4.8269 -2.1375 -4.9630 0.158 0.273 0.949 151 113 114 0 0
-4.7494 -2.2083 -4.9603 0.323 0.187 0.928 124 75 94 0 0
-4.7360 -2.2367 -4.9683 0.092 0.113 0.989 121 70 91 0 0
-4.4956 -2.3132 -4.8849 -0.043 0.942 -0.332 168 73 67 0 0
-4.3185 -2.2982 -4.7861 0.865 0.372 0.338 189 121 84 0 0
-4.3149 -2.3154 -4.7932 0.897 0.423 0.126 187 115 77 0 0
-4.3053 -2.3262 -4.7940 0.675 0.715 0.181 190 121 84 0 0
-4.2915 -2.4390 -4.8460 0.934 -0.201 -0.297 170 107 102 0 0
-4.2673 -2.7927 -5.0191 0.252 0.085 0.964 158 129 161 0 0
-4.0090 -3.0991 -5.0471 0.376 -0.067 0.924 218 204 200 0 0
-3.9193 -3.2065 -5.0573 0.132 0.209 0.969 221 207 205 0 0
-3.9065 -3.2146 -5.0549 0.251 0.205 0.946 219 204 199 0 0
-3.8986 -3.2296 -5.0587 0.255 0.076 0.964 215 198 192 0 0
-3.5393 -3.7006 -5.1212 0.394 0.012 0.919 213 202 206 0 0
-3.4001 -3.8808 -5.1441 -0.286 0.380 0.880 214 203 203 0 0
-3.4097 -3.9294 -5.1746 0.440 -0.063 0.896 177 159 157 0 0
-3.4020 -3.9467 -5.1796 0.440 -0.063 0.896 163 138 128 0 0
-3.3182 -4.0456 -5.1884 0.382 0.520 0.764 211 198 195 0 0
-3.2309 -4.0391 -5.1402 0.153 0.489 0.859 208 195 188 0 0
-3.2162 -4.0430 -5.1347 0.434 0.468 0.769 212 199 196 0 0
-3.2070 -4.0577 -5.1377 0.261 0.380 0.887 211 199 195 0 0
-3.1949 -4.0666 -5.1361 0.466 0.183 0.865 212 199 196 0 0
-3.1518 -4.1127 -5.1382 0.201 0.268 0.942 210 199 196 0 0
-3.0552 -4.1832 -5.1255 0.281 0.434 0.856 211 196 194 0 0
-2.6767 -4.5080 -5.1014 0.343 0.281 0.896 209 198 197 0 0
-2.6654 -4.5182 -5.1010 0.517 0.079 0.853 208 196 194 0 0
-2.6556 -4.5321 -5.1032 0.317 0.286 0.904 204 190 189 0 0
-2.6444 -4.5426 -5.1029 0.198 0.243 0.950 201 187 183 0 0
-2.6340 -4.5549 -5.1040 0.164 0.299 0.940 197 183 179 0 0
-2.6216 -4.5622 -5.1015 0.001 0.373 0.928 207 195 193 0 0
-2.5961 -4.5745 -5.0948 0.080 0.375 0.923 210 200 198 0 0
-2.5840 -4.5824 -5.0928 0.011 0.469 0.883 205 191 187 0 0
-2.3021 -4.8763 -5.1021 0.383 0.287 0.878 213 205 208 0 0
-2.2925 -4.8917 -5.1053 0.315 0.350 0.882 212 207 210 0 0
-2.2816 -4.9028 -5.1055 0.660 0.446 0.605 208 198 201 0 0
-2.2576 -4.9183 -5.1012 0.674 0.560 0.481 186 172 167 0 0
-2.2479 -4.9332 -5.1041 0.647 0.283 0.708 188 172 164 0 0
-2.2364 -4.9428 -5.1032 0.633 0.469 0.616 190 175 167 0 0
-2.0814 -5.0417 -5.0755 0.074 0.272 0.959 205 193 191 0 0
-2.0586 -5.0599 -5.0733 0.225 0.266 0.937 201 189 187 0 0
-2.0478 -5.0714 -5.0738 0.210 0.179 0.961 206 194 193 0 0
-2.0189 -5.1184 -5.0835 0.464 -0.003 0.886 209 198 196 0 0
-2.0082 -5.1304 -5.0844 0.106 0.376 0.921 210 199 198 0 0
-1.8949 -5.2241 -5.0753 0.310 -0.032 0.950 206 195 192 0 0
-1.8889 -5.2556 -5.0888 0.113 0.284 0.952 207 195 193 0 0
-1.8775 -5.2644 -5.0875 0.113 0.284 0.952 208 197 195 0 0
-1.8660 -5.2733 -5.0862 0.113 0.284 0.952 210 200 198 0 0
-1.8549 -5.2838 -5.0860 0.056 0.277 0.959 211 201 199 0 0
-1.8450 -5.2990 -5.0889 0.240 0.122 0.963 210 199 195 0 0
-1.8338 -5.3089 -5.0884 0.421 -0.079 0.904 209 197 195 0 0
-1.8267 -5.3364 -5.0991 0.667 -0.220 0.712 207 195 193 0 0
-1.6952 -5.4700 -5.1016 -0.090 0.056 0.994 206 196 194 0 0
-1.6861 -5.4900 -5.1075 0.057 -0.057 0.997 209 199 197 0 0
-1.5253 -5.6797 -5.1243 0.446 -0.073 0.892 202 190 189 0 0
-1.5160 -5.7003 -5.1303 0.433 -0.094 0.897 199 187 186 0 0
-1.5070 -5.7224 -5.1373 0.424 -0.090 0.901 199 186 185 0 0
-1.4978 -5.7445 -5.1442 0.400 -0.094 0.912 208 197 197 0 0
-1.4872 -5.7584 -5.1460 0.334 -0.065 0.940 204 193 193 0 0
-1.3802 -5.8147 -5.1205 0.202 0.341 0.918 209 199 199 0 0
-1.3700 -5.8311 -5.1239 0.402 0.073 0.913 205 195 195 0 0
-1.3579 -5.8356 -5.1201 0.824 0.106 0.556 202 192 191 0 0
-1.3489 -5.8598 -5.1281 0.857 0.055 0.513 200 190 189 0 0
-1.3404 -5.8871 -5.1381 0.625 0.050 0.779 203 193 192 0 0
-1.3307 -5.9073 -5.1437 0.455 0.028 0.890 204 194 194 0 0
-1.3208 -5.9267 -5.1488 0.673 0.176 0.719 195 185 185 0 0
-1.3120 -5.9526 -5.1578 0.719 -0.001 0.695 201 192 192 0 0
-1.3007 -5.9631 -5.1575 0.364 -0.012 0.931 207 197 200 0 0
-1.2906 -5.9810 -5.1617 0.364 -0.012 0.931 205 196 197 0 0
-1.2805 -5.9992 -5.1661 0.377 0.026 0.926 205 196 198 0 0
-1.2706 -6.0194 -5.1716 0.145 0.329 0.933 207 198 201 0 0
-1.2593 -6.0295 -5.1711 0.216 0.341 0.915 206 198 202 0 0
-1.2465 -6.0290 -5.1642 0.344 0.071 0.936 205 195 193 0 0
-1.2380 -6.0595 -5.1759 0.492 0.250 0.834 202 189 180 0 0
-1.2262 -6.0658 -5.1731 0.316 0.291 0.903 201 186 171 0 0
-5.4286 -1.1469 -4.7355 0.311 -0.275 0.910 215 204 200 0 0
-5.4224 -1.1594 -4.7389 0.231 -0.408 0.883 215 204 200 0 0
-5.4105 -1.1683 -4.7374 0.661 -0.399 0.636 213 199 191 0 0
-5.4118 -1.1855 -4.7470 0.540 -0.012 0.842 209 192 179 0 0
-5.4080 -1.1995 -4.7524 0.511 0.410 0.756 209 191 176 0 0
-5.3919 -1.2058 -4.7475 -0.075 0.460 0.885 209 192 176 0 0
-5.3777 -1.2133 -4.7441 0.166 0.266 0.950 210 193 177 0 0
-5.3676 -1.2233 -4.7442 0.027 0.640 0.768 210 194 182 0 0
-5.3471 -1.2268 -4.7355 -0.032 0.436 0.899 211 195 183 0 0
-5.3342 -1.2350 -4.7332 -0.185 0.445 0.876 210 193 182 0 0
-5.3225 -1.2440 -4.7319 0.168 0.220 0.961 212 196 186 0 0
-5.1476 -1.4986 -4.7754 0.212 0.312 0.926 211 193 185 0 0
-5.1039 -1.5723 -4.7915 0.448 -0.117 0.886 214 198 191 0 0
-4.9738 -1.7991 -4.8434 -0.039 0.029 0.999 214 195 189 0 0
-4.8684 -2.0358 -4.9131 0.062 -0.002 0.998 211 186 184 0 0
-4.8569 -2.0454 -4.9122 0.525 -0.093 0.846 210 184 184 0 0
-4.8514 -2.0603 -4.9172 0.525 -0.093 0.846 205 177 184 0 0
-4.8566 -2.1245 -4.9534 0.572 0.370 0.732 146 112 117 0 0
-4.8379 -2.1479 -4.9561 0.325 0.309 0.894 149 110 112 0 0
-4.7509 -2.1896 -4.9333 0.502 0.155 0.851 124 72 86 0 0
-4.7365 -2.1966 -4.9296 0.791 0.124 0.599 121 69 83 0 0
-4.7315 -2.2123 -4.9352 0.796 0.055 0.602 120 66 81 0 0
-4.6693 -2.3602 -4.9807 0.747 0.597 0.292 134 83 125 0 0
-4.3222 -2.3020 -4.7726 0.865 0.372 0.338 188 117 79 0 0
-4.3153 -2.3157 -4.7763 0.817 0.407 0.409 188 114 75 0 0
-4.2963 -2.3375 -4.7780 0.518 0.723 0.457 190 127 86 0 0
-4.2826 -2.5377 -4.8755 0.636 0.410 -0.654 185 122 93 0 0
-4.2558 -2.8489 -5.0244 0.161 0.039 0.986 188 149 164 0 0
-4.1837 -2.9283 -5.0290 0.218 0.100 0.971 214 190 185 0 0
-4.1451 -2.9771 -5.0347 0.254 -0.023 0.967 219 199 194 0 0
-4.1365 -2.9905 -5.0373 0.254 -0.023 0.967 219 200 196 0 0
-4.0130 -3.1284 -5.0461 0.307 -0.089 0.947 217 202 198 0 0
-4.0050 -3.1431 -5.0497 0.254 -0.038 0.966 219 205 201 0 0
-3.6646 -3.5282 -5.0767 0.295 -0.260 0.920 215 200 197 0 0
-3.6566 -3.5720 -5.0954 0.336 -0.192 0.922 217 205 205 0 0
-3.4558 -3.8849 -5.1561 0.166 0.059 0.984 215 204 202 0 0
-3.4131 -3.9638 -5.1755 0.406 -0.069 0.911 205 183 169 0 0
-3.4053 -3.9810 -5.1804 0.440 -0.063 0.896 206 186 172 0 0
-3.2390 -4.0512 -5.1320 0.193 0.544 0.817 216 206 203 0 0
-3.2153 -4.0702 -5.1299 0.261 0.380 0.887 210 195 192 0 0
-3.2035 -4.0797 -5.1287 0.466 0.183 0.865 210 196 193 0 0
-3.1735 -4.1192 -5.1340 0.332 0.296 0.896 210 195 193 0 0
-3.1260 -4.1566 -5.1293 0.299 0.604 0.739 215 204 202 0 0
-3.0838 -4.2049 -5.1329 0.433 0.172 0.885 212 198 195 0 0
-2.7082 -4.5044 -5.0971 0.269 0.372 0.888 210 199 197 0 0
-2.6968 -4.5143 -5.0965 0.269 0.372 0.888 211 200 197 0 0
-2.6870 -4.5282 -5.0987 0.574 0.307 0.759 208 196 194 0 0
-2.6740 -4.5341 -5.0952 0.610 0.103 0.786 207 194 191 0 0
-2.6652 -4.5507 -5.0993 0.333 0.164 0.929 205 191 189 0 0
-2.2764 -4.9237 -5.0952 0.573 0.404 0.713 201 189 187 0 0
-2.2521 -4.9380 -5.0902 0.645 0.490 0.586 204 191 186 0 0
-2.2416 -4.9505 -5.0914 0.645 0.490 0.586 204 191 188 0 0
-2.1719 -5.0037 -5.0835 0.226 0.187 0.956 200 186 182 0 0
-2.0661 -5.0767 -5.0675 0.106 0.140 0.984 204 191 190 0 0
-2.0169 -5.1520 -5.0816 0.191 0.143 0.971 206 195 192 0 0
-1.9839 -5.1849 -5.0820 0.182 0.123 0.976 203 191 187 0 0
-1.9703 -5.1854 -5.0752 0.343 0.026 0.939 205 192 191 0 0
-1.9476 -5.2043 -5.0735 0.252 0.078 0.965 206 195 192 0 0
-1.9148 -5.2376 -5.0741 0.014 0.162 0.987 205 191 186 0 0
-1.8946 -5.2663 -5.0788 0.110 0.268 0.957 208 197 194 0 0
-1.8508 -5.3106 -5.0795 0.453 -0.088 0.887 208 197 193 0 0
-1.8421 -5.3314 -5.0859 0.453 -0.088 0.887 206 195 191 0 0
-1.8347 -5.3576 -5.0958 0.645 -0.153 0.749 207 197 192 0 0
-1.7384 -5.4696 -5.1050 0.401 0.232 0.886 204 193 190 0 0
-1.7271 -5.4795 -5.1044 0.228 0.174 0.958 204 192 189 0 0
-1.6822 -5.5200 -5.1025 0.207 -0.017 0.978 207 196 194 0 0
-1.6719 -5.5346 -5.1049 0.213 -0.014 0.977 205 193 191 0 0
-1.6107 -5.6264 -5.1216 0.361 0.028 0.932 206 195 195 0 0
-1.5442 -5.6931 -5.1224 0.068 0.041 0.997 201 189 187 0 0
-1.5331 -5.7039 -5.1223 0.296 -0.024 0.955 202 191 188 0 0
-1.5230 -5.7205 -5.1259 0.296 -0.024 0.955 204 192 191 0 0
-1.5132 -5.7384 -5.1302 0.285 0.025 0.958 201 190 190 0 0
-1.5024 -5.7514 -5.1314 0.342 0.013 0.940 207 195 195 0 0
-1.4571 -5.7908 -5.1288 0.489 0.464 0.738 201 188 184 0 0
-1.4343 -5.8096 -5.1270 0.182 0.244 0.953 194 180 175 0 0
-1.3867 -5.8338 -5.1153 0.338 0.171 0.925 199 189 190 0 0
-1.3565 -5.8865 -5.1274 0.510 -0.049 0.859 199 189 188 0 0
-1.3465 -5.9044 -5.1316 0.566 0.093 0.819 200 190 189 0 0
-1.3371 -5.9265 -5.1383 0.591 0.088 0.802 204 194 193 0 0
-1.3261 -5.9386 -5.1390 0.503 0.293 0.813 206 197 197 0 0
-1.3173 -5.9653 -5.1485 0.686 0.079 0.724 206 198 199 0 0
-1.3081 -5.9891 -5.1562 0.709 0.113 0.696 206 198 199 0 0
-1.2977 -6.0053 -5.1593 0.364 -0.012 0.931 205 195 196 0 0
-1.2645 -6.0412 -5.1611 0.447 -0.073 0.891 204 193 189 0 0
-1.2532 -6.0520 -5.1609 0.296 0.069 0.953 200 185 176 0 0
-1.2438 -6.0755 -5.1684 0.440 0.234 0.867 199 182 170 0 0
-1.2095 -6.1038 -5.1656 -0.184 0.685 0.705 191 174 161 0 0
-5.4164 -1.2062 -4.7430 0.511 0.410 0.756 213 197 185 0 0
-5.3798 -1.2325 -4.7381 0.077 0.468 0.880 209 191 176 0 0
-5.3661 -1.2403 -4.7351 0.077 0.468 0.880 208 190 176 0 0
-5.3524 -1.2481 -4.7322 0.077 0.468 0.880 208 191 177 0 0
-5.3430 -1.2586 -4.7329 0.044 0.442 0.896 211 196 185 0 0
-5.3146 -1.2734 -4.7261 0.257 -0.134 0.957 213 198 189 0 0
-5.3106 -1.2875 -4.7314 0.342 -0.231 0.911 212 198 189 0 0
-5.2832 -1.3365 -4.7429 0.062 -0.190 0.980 206 189 181 0 0
-5.2855 -1.3549 -4.7537 0.141 -0.346 0.928 207 191 184 0 0
-5.2776 -1.3666 -4.7557 -0.020 -0.205 0.979 211 196 190 0 0
-5.2675 -1.4280 -4.7825 0.303 -0.093 0.948 213 202 203 0 0
-5.1172 -1.5832 -4.7867 0.408 -0.089 0.909 212 196 189 0 0
-5.1113 -1.5967 -4.7907 0.408 -0.089 0.909 211 194 187 0 0
-5.0821 -1.7008 -4.8299 0.192 0.205 0.960 211 193 187 0 0
-4.9794 -1.8418 -4.8510 0.214 -0.033 0.976 214 199 193 0 0
-4.9798 -1.8610 -4.8612 0.359 -0.123 0.925 214 199 194 0 0
-4.9019 -2.0263 -4.9075 -0.111 0.124 0.986 210 182 176 0 0
-4.8899 -2.0748 -4.9266 0.212 0.622 0.754 209 180 182 0 0
-4.8648 -2.1323 -4.9437 0.679 0.553 0.483 150 115 117 0 0
-4.8638 -2.1515 -4.9532 0.551 0.270 0.790 148 110 112 0 0
-4.8514 -2.1605 -4.9515 0.694 0.284 0.662 140 98 101 0 0
-4.8472 -2.1769 -4.9579 0.224 0.284 0.932 132 85 92 0 0
-4.8133 -2.2069 -4.9563 0.297 0.272 0.915 123 70 78 0 0
-4.7642 -2.2023 -4.9288 0.102 0.322 0.941 123 66 78 0 0
-4.5693 -2.3036 -4.8822 0.428 0.643 -0.634 152 37 45 0 0
-4.5536 -2.3089 -4.8769 0.428 0.643 -0.634 174 61 49 0 0
-4.5265 -2.3027 -4.8599 0.247 0.764 -0.596 181 74 46 0 0
-4.3173 -2.3176 -4.7610 0.781 0.390 0.488 181 105 60 0 0
-4.2952 -2.3362 -4.7594 0.433 0.464 0.773 181 141 97 0 0
-4.2762 -2.3580 -4.7611 0.467 0.489 0.737 177 116 83 0 0
-4.2687 -2.8636 -5.0204 0.131 0.034 0.991 164 124 147 0 0
-4.2611 -2.8782 -5.0241 0.034 0.057 0.998 175 137 152 0 0
-4.1604 -2.9953 -5.0336 0.182 -0.074 0.981 218 196 192 0 0
-3.8036 -3.4350 -5.0806 0.304 -0.168 0.938 212 193 186 0 0
-3.7967 -3.4520 -5.0859 0.304 -0.168 0.938 215 199 192 0 0
-3.7897 -3.4690 -5.0912 0.304 -0.168 0.938 216 202 201 0 0
-3.7834 -3.4869 -5.0973 0.320 -0.074 0.944 218 206 205 0 0
-3.7749 -3.5018 -5.1007 0.257 0.150 0.955 220 207 205 0 0
-3.4708 -3.9086 -5.1573 0.088 0.341 0.936 216 204 204 0 0
-3.4180 -4.0010 -5.1785 0.530 -0.057 0.846 213 196 188 0 0
-3.3209 -4.0433 -5.1510 0.331 0.177 0.927 211 195 188 0 0
-3.1817 -4.1317 -5.1261 0.338 0.315 0.887 201 184 180 0 0
-3.1707 -4.1429 -5.1263 0.338 0.315 0.887 208 194 190 0 0
-2.8770 -4.3805 -5.1002 0.102 0.160 0.982 214 204 203 0 0
-2.7043 -4.5272 -5.0885 0.440 0.465 0.768 211 199 197 0 0
-2.6937 -4.5391 -5.0892 0.574 0.307 0.759 207 193 191 0 0
-2.6825 -4.5495 -5.0890 0.492 0.075 0.867 206 192 189 0 0
-2.6738 -4.5667 -5.0935 0.409 0.215 0.887 209 197 194 0 0
-2.6507 -4.5858 -5.0917 0.166 0.404 0.900 213 203 200 0 0
-2.4357 -4.7779 -5.0820 0.282 -0.074 0.957 209 198 196 0 0
-2.4305 -4.8062 -5.0941 0.309 0.031 0.950 210 200 199 0 0
-2.4209 -4.8215 -5.0971 0.330 0.040 0.943 216 206 206 0 0
-2.4127 -4.8408 -5.1030 0.450 0.030 0.892 216 205 204 0 0
-2.4029 -4.8557 -5.1057 0.360 0.144 0.922 213 202 197 0 0
-2.3454 -4.9039 -5.1015 0.213 0.633 0.744 208 192 180 0 0
-2.3167 -4.9051 -5.0875 0.382 0.434 0.816 209 198 197 0 0
-2.3069 -4.9201 -5.0903 0.335 0.370 0.867 208 197 197 0 0
-2.2826 -4.9347 -5.0856 0.119 0.596 0.794 209 199 197 0 0
-2.1799 -5.0212 -5.0782 0.226 0.187 0.956 197 183 176 0 0
-1.9793 -5.2089 -5.0736 0.347 -0.056 0.936 209 198 197 0 0
-1.9609 -5.2452 -5.0831 0.349 -0.160 0.923 210 199 198 0 0
-1.8515 -5.3581 -5.0861 0.390 -0.115 0.914 208 197 192 0 0
-1.8427 -5.3789 -5.0924 0.390 -0.115 0.914 208 195 192 0 0
-1.7650 -5.4541 -5.0919 0.429 -0.144 0.892 200 187 180 0 0
-1.7551 -5.4701 -5.0952 0.296 -0.085 0.951 196 183 178 0 0
-1.7468 -5.4937 -5.1033 0.288 0.033 0.957 201 190 187 0 0
-1.6908 -5.5458 -5.1018 0.135 0.010 0.991 204 192 189 0 0
-1.6803 -5.5598 -5.1037 0.204 0.007 0.979 204 192 187 0 0
-1.6615 -5.5982 -5.1141 0.187 0.217 0.958 201 190 187 0 0
-1.6497 -5.6059 -5.1121 0.310 0.085 0.947 204 194 191 0 0
-1.6393 -5.6203 -5.1143 0.331 0.094 0.939 205 195 195 0 0
-1.6286 -5.6334 -5.1157 0.423 0.064 0.904 210 200 201 0 0
-1.6180 -5.6471 -5.1174 0.311 0.207 0.928 208 196 196 0 0
-1.6053 -5.6499 -5.1124 0.358 0.086 0.930 208 194 192 0 0
-1.5953 -5.6669 -5.1162 0.288 0.180 0.941 205 191 186 0 0
-1.5845 -5.6793 -5.1171 0.219 0.179 0.959 206 193 185 0 0
-1.5725 -5.6860 -5.1145 0.141 0.139 0.980 198 185 179 0 0
-1.5522 -5.7181 -5.1208 0.363 0.153 0.919 200 188 186 0 0
-1.5408 -5.7279 -5.1201 0.493 0.037 0.869 206 196 194 0 0
-1.5309 -5.7454 -5.1242 0.454 0.039 0.890 209 198 198 0 0
-1.5210 -5.7633 -5.1284 0.454 0.039 0.890 207 196 195 0 0
-1.5114 -5.7830 -5.1338 0.688 0.076 0.722 201 187 184 0 0
-1.4989 -5.7865 -5.1293 0.157 0.491 0.857 201 187 178 0 0
-1.4871 -5.7941 -5.1272 0.138 0.565 0.813 201 186 176 0 0
-1.4744 -5.7959 -5.1216 0.114 0.346 0.931 201 185 174 0 0
-1.4639 -5.8107 -5.1240 0.414 0.404 0.816 196 180 171 0 0
-1.3554 -5.9395 -5.1357 0.328 0.056 0.943 203 193 194 0 0
-1.3329 -5.9605 -5.1352 0.468 0.131 0.874 206 197 199 0 0
-1.3232 -5.9809 -5.1408 0.812 0.106 0.574 205 196 199 0 0
-1.3141 -6.0058 -5.1491 0.812 0.106 0.574 205 197 199 0 0
-1.3053 -6.0332 -5.1589 0.338 -0.060 0.939 209 201 204 0 0
-1.2953 -6.0524 -5.1638 0.338 -0.060 0.939 207 201 203 0 0
-1.2836 -6.0607 -5.1622 0.325 -0.127 0.937 208 198 199 0 0
-1.2717 -6.0669 -5.1593 0.481 -0.089 0.872 198 184 177 0 0
-1.2604 -6.0776 -5.1591 0.351 -0.032 0.936 193 176 165 0 0
-1.2496 -6.0918 -5.1610 0.341 0.148 0.929 180 161 150 0 0
-1.2385 -6.1037 -5.1615 0.264 0.256 0.930 184 165 151 0 0
-1.2270 -6.1126 -5.1603 0.288 0.427 0.857 180 162 149 0 0
-1.2152 -6.1200 -5.1582 -0.091 0.597 0.797 188 172 163 0 0
-1.2037 -6.1290 -5.1570 -0.021 0.594 0.804 201 188 185 0 0
-5.4323 -1.2012 -4.7313 0.585 0.238 0.775 213 200 192 0 0
-5.4248 -1.2129 -4.7336 0.516 0.568 0.641 214 200 190 0 0
-5.4124 -1.2216 -4.7318 0.403 0.523 0.751 209 191 178 0 0
-5.4043 -1.2330 -4.7336 0.412 0.247 0.877 206 187 173 0 0
-5.3909 -1.2411 -4.7310 0.414 0.512 0.753 204 185 169 0 0
-5.3796 -1.2504 -4.7300 0.441 0.478 0.759 208 190 175 0 0
-5.3634 -1.2566 -4.7251 0.097 0.309 0.946 205 187 173 0 0
-5.3308 -1.2854 -4.7234 0.257 -0.134 0.957 210 195 185 0 0
-5.3267 -1.2994 -4.7286 0.347 -0.230 0.909 209 195 186 0 0
-5.3257 -1.3155 -4.7364 0.481 -0.290 0.827 211 196 188 0 0
-5.3238 -1.3310 -4.7435 0.673 -0.364 0.644 214 199 191 0 0
-5.3180 -1.3441 -4.7474 0.317 -0.217 0.923 214 200 192 0 0
-5.3151 -1.3591 -4.7536 0.366 -0.263 0.893 209 194 186 0 0
-5.3116 -1.3737 -4.7594 0.393 -0.202 0.897 208 194 186 0 0
-5.3082 -1.3885 -4.7654 0.208 -0.370 0.905 210 196 189 0 0
-5.2979 -1.4157 -4.7743 0.216 -0.388 0.896 211 197 194 0 0
-5.2872 -1.4428 -4.7829 0.133 -0.170 0.977 213 199 196 0 0
-5.2857 -1.4591 -4.7906 -0.051 0.098 0.994 218 204 199 0 0
-5.1939 -1.5872 -4.8103 0.170 -0.179 0.969 212 197 188 0 0
-5.0949 -1.7116 -4.8245 0.086 0.492 0.867 212 194 187 0 0
-4.9987 -1.8583 -4.8517 -0.142 0.191 0.971 215 199 192 0 0
-4.9940 -1.8733 -4.8571 0.548 -0.177 0.818 214 197 191 0 0
-4.9368 -2.0373 -4.9131 0.188 0.222 0.957 211 185 176 0 0
-4.9195 -2.0421 -4.9068 -0.042 0.320 0.946 208 179 169 0 0
-4.8787 -2.0854 -4.9085 0.212 0.810 0.547 194 160 160 0 0
-4.8700 -2.1374 -4.9310 0.707 0.501 0.499 146 106 107 0 0
-4.8739 -2.1611 -4.9453 0.550 0.312 0.775 141 97 100 0 0
-4.8624 -2.2115 -4.9656 0.602 -0.192 0.775 124 68 70 0 0
-4.8597 -2.2294 -4.9735 0.601 -0.274 0.751 125 68 71 0 0
-4.7870 -2.1831 -4.9125 0.155 0.520 0.840 123 65 69 0 0
-4.7740 -2.2118 -4.9208 0.369 0.141 0.919 122 62 68 0 0
-4.7586 -2.3629 -4.9913 -0.072 -0.120 0.990 150 35 45 0 0
-4.5380 -2.2935 -4.8434 0.195 0.835 -0.515 177 62 45 0 0
-4.3454 -2.2844 -4.7408 0.650 0.693 0.311 229 215 193 0 0
-4.3096 -2.3303 -4.7465 0.818 0.397 0.416 153 83 42 0 0
-4.3021 -2.3433 -4.7493 0.668 0.320 0.672 190 167 133 0 0
-4.1217 -3.0932 -5.0464 0.138 -0.071 0.988 219 200 194 0 0
-3.8052 -3.4904 -5.0916 0.340 -0.129 0.931 218 208 211 0 0
-3.7962 -3.5044 -5.0943 0.320 -0.074 0.944 220 211 213 0 0
-3.7881 -3.5198 -5.0982 0.367 0.075 0.927 220 210 209 0 0
-3.6689 -3.6731 -5.1171 0.386 0.540 0.748 215 202 200 0 0
-3.4974 -3.9217 -5.1588 0.300 0.287 0.910 218 208 207 0 0
-3.4807 -3.9230 -5.1510 0.095 0.367 0.926 217 206 204 0 0
-3.3782 -4.0194 -5.1489 0.412 0.466 0.783 213 197 190 0 0
-3.3668 -4.0300 -5.1486 0.412 0.466 0.783 216 204 199 0 0
-3.3311 -4.0592 -5.1457 0.339 0.183 0.923 207 189 180 0 0
-3.3188 -4.0680 -5.1440 0.228 0.328 0.917 206 189 181 0 0
-3.0517 -4.2660 -5.1109 0.156 0.272 0.949 209 194 190 0 0
-2.7259 -4.5368 -5.0858 0.224 0.450 0.865 213 201 198 0 0
-2.7140 -4.5456 -5.0844 0.224 0.450 0.865 209 195 192 0 0
-2.7021 -4.5544 -5.0829 0.224 0.450 0.865 207 193 189 0 0
-2.6908 -4.5647 -5.0825 0.457 0.155 0.876 207 193 189 0 0
-2.6808 -4.5784 -5.0846 0.296 0.217 0.930 209 197 195 0 0
-2.6584 -4.5995 -5.0841 0.166 0.404 0.900 208 196 193 0 0
-2.5647 -4.6725 -5.0743 0.173 0.163 0.971 205 194 190 0 0
-2.4427 -4.8344 -5.0963 0.300 0.133 0.945 217 210 212 0 0
-2.4311 -4.8440 -5.0954 0.325 0.069 0.943 216 208 209 0 0
-2.4253 -4.8707 -5.1063 0.521 0.197 0.831 214 204 202 0 0
-2.4110 -4.8720 -5.0997 0.324 0.313 0.893 212 200 193 0 0
-2.4022 -4.8899 -5.1045 0.073 0.719 0.691 210 195 186 0 0
-2.3903 -4.8986 -5.1030 0.057 0.848 0.528 206 190 175 0 0
-2.3764 -4.9009 -5.0971 0.042 0.744 0.667 201 183 167 0 0
