ply
format ascii 1.0
element vertex 824
property float x
property float y
property float z
property float nx
property float ny
property float nz
property uchar diffuse_red
property uchar diffuse_green
property uchar diffuse_blue
property uchar class
property uchar detection
end_header
-6.7939 0.8857 -4.4651 0.591 0.603 0.536 202 197 203 0 0
-6.7826 0.8729 -4.4632 0.591 0.603 0.536 201 196 202 0 0
-6.7735 0.8600 -4.4625 0.513 0.579 0.634 201 196 202 0 0
-6.6956 0.6064 -4.4989 0.642 0.473 0.603 206 203 211 0 0
-6.6276 0.5017 -4.4960 0.708 0.061 0.704 209 208 216 0 0
-6.6241 0.4881 -4.4983 0.708 0.061 0.704 212 211 219 0 0
-6.6110 0.4050 -4.5164 0.683 -0.210 0.700 206 205 211 0 0
-6.6134 0.3905 -4.5219 0.697 0.117 0.708 206 204 211 0 0
-6.4853 0.0614 -4.5556 0.004 0.103 0.995 202 194 195 0 0
-6.4800 0.0476 -4.5571 0.112 0.140 0.984 205 199 201 0 0
-6.4745 0.0337 -4.5585 0.273 0.017 0.962 204 198 200 0 0
-6.4666 0.0202 -4.5585 0.077 0.747 0.660 202 196 197 0 0
-6.4391 -0.0046 -4.5522 0.479 0.168 0.862 210 204 206 0 0
-6.4341 -0.0186 -4.5538 0.442 0.298 0.846 207 203 204 0 0
-6.3875 -0.1445 -4.5679 0.831 0.364 0.421 210 208 214 0 0
-6.3785 -0.1578 -4.5674 0.865 0.449 0.225 213 212 218 0 0
-6.3553 -0.2137 -4.5724 0.859 0.511 0.012 199 193 197 0 0
-6.3254 -0.2227 -4.5601 0.146 0.695 0.704 202 195 199 0 0
-6.2685 -0.3017 -4.5552 0.434 0.490 0.756 205 199 203 0 0
-6.2542 -0.3138 -4.5517 0.458 0.348 0.818 204 198 202 0 0
-6.2578 -0.3299 -4.5582 0.741 0.219 0.635 209 203 207 0 0
-6.2347 -0.3400 -4.5497 0.623 0.419 0.661 206 200 205 0 0
-6.2328 -0.3549 -4.5532 0.413 0.253 0.875 204 199 203 0 0
-6.2220 -0.4604 -4.5791 0.164 0.364 0.917 200 191 187 0 0
-6.2061 -0.4721 -4.5746 0.089 0.288 0.954 201 193 189 0 0
-6.2040 -0.4871 -4.5780 0.117 0.169 0.979 201 193 191 0 0
-6.0907 -0.8059 -4.6161 0.737 0.050 0.675 217 213 215 0 0
-5.9410 -1.3758 -4.7104 0.995 0.014 0.100 217 216 222 0 0
-5.9400 -1.3928 -4.7150 0.885 0.056 0.461 220 218 225 0 0
-5.9103 -1.4163 -4.7072 0.649 0.516 0.560 218 214 220 0 0
-5.7824 -1.7542 -4.7436 0.485 0.081 0.871 211 205 207 0 0
-5.7622 -1.8362 -4.7578 0.208 0.597 0.775 211 203 210 0 0
-5.7516 -1.8497 -4.7565 0.161 0.495 0.854 211 202 206 0 0
-5.6591 -2.1789 -4.8081 0.098 0.076 0.992 142 123 145 0 0
-5.1577 -2.2848 -4.5893 -0.005 0.860 0.510 191 50 41 0 0
-4.9290 -2.3367 -4.4907 0.552 0.226 0.803 199 55 45 0 0
-4.9210 -2.3505 -4.4908 0.390 0.402 0.828 196 65 47 0 0
-4.8830 -2.3831 -4.4815 0.294 0.509 0.809 210 125 75 0 0
-4.8083 -2.4860 -4.4748 0.279 0.376 0.884 208 122 70 0 0
-4.7026 -2.6825 -4.4803 0.512 0.425 0.746 218 133 80 0 0
-4.6941 -2.6959 -4.4800 0.535 0.589 0.606 202 109 56 0 0
-4.6827 -2.7073 -4.4777 0.387 0.392 0.835 184 82 39 0 0
-4.6630 -2.7323 -4.4754 0.502 0.149 0.852 190 79 40 0 0
-4.4512 -3.2730 -4.5301 0.736 0.134 0.663 213 61 51 0 0
-4.4460 -3.2895 -4.5324 0.736 0.134 0.663 215 64 55 0 0
-4.4396 -3.3050 -4.5338 0.688 0.170 0.706 213 61 51 0 0
-4.4966 -4.2745 -4.8498 0.934 -0.240 0.265 161 65 97 0 0
-4.5050 -4.3070 -4.8637 0.883 0.039 0.467 152 90 137 0 0
-4.4976 -4.3481 -4.8722 0.643 0.230 0.731 137 103 155 0 0
-4.4681 -4.3426 -4.8558 0.955 0.294 0.036 127 94 141 0 0
-4.4657 -4.4134 -4.8756 0.408 -0.176 0.896 123 68 104 0 0
-4.3928 -4.4608 -4.8533 0.007 0.332 0.943 118 60 93 0 0
-4.3773 -4.4939 -4.8554 0.193 0.372 0.908 128 78 114 0 0
-4.3288 -4.5664 -4.8527 0.286 -0.172 0.943 121 75 106 0 0
-4.2757 -4.6589 -4.8537 0.352 0.316 0.881 142 112 146 0 0
-4.2671 -4.6746 -4.8540 0.343 0.171 0.923 136 110 142 0 0
-4.2353 -4.6898 -4.8427 0.167 0.796 0.582 151 125 162 0 0
-4.2182 -4.6960 -4.8360 0.083 0.730 0.679 151 122 155 0 0
-4.2002 -4.7263 -4.8360 0.381 0.095 0.920 144 114 140 0 0
-4.1277 -4.8476 -4.8358 0.751 0.058 0.657 211 187 183 0 0
-4.1229 -4.8677 -4.8394 0.768 0.041 0.640 208 186 181 0 0
-4.0987 -4.8909 -4.8342 0.440 0.061 0.896 210 192 187 0 0
-4.0311 -5.0978 -4.8619 0.199 0.082 0.977 209 192 182 0 0
-3.9486 -5.1546 -4.8376 0.502 -0.109 0.858 209 192 183 0 0
-3.9367 -5.1663 -4.8351 0.415 0.022 0.909 212 195 186 0 0
-3.9342 -5.1900 -4.8409 0.568 -0.196 0.800 208 194 183 0 0
-3.9246 -5.2046 -4.8404 0.820 -0.161 0.549 210 194 182 0 0
-3.9325 -5.2417 -4.8554 0.175 0.014 0.984 209 193 183 0 0
-3.8905 -5.2686 -4.8424 0.307 0.001 0.952 208 192 180 0 0
-3.7880 -5.4897 -4.8568 0.363 0.841 0.400 209 196 190 0 0
-3.7616 -5.5091 -4.8494 0.362 0.860 0.359 207 192 187 0 0
-3.7549 -5.5279 -4.8516 0.337 0.636 0.694 206 191 185 0 0
-3.7539 -5.5547 -4.8591 0.504 0.543 0.671 206 192 184 0 0
-3.7295 -5.5487 -4.8452 0.670 -0.119 0.733 207 192 184 0 0
-3.7287 -5.5758 -4.8528 0.554 0.169 0.815 207 192 185 0 0
-3.7088 -5.6042 -4.8513 0.191 0.506 0.841 208 195 187 0 0
-3.6008 -5.7051 -4.8273 0.426 0.191 0.884 208 195 188 0 0
-3.1699 -6.3326 -4.7985 0.472 -0.129 0.872 209 200 196 0 0
-3.1664 -6.3896 -4.8137 0.590 0.014 0.807 208 198 193 0 0
-3.1633 -6.4159 -4.8200 0.276 0.311 0.909 208 198 193 0 0
-3.0761 -6.5142 -4.8056 0.700 0.352 0.622 204 191 187 0 0
-2.9965 -6.5929 -4.7893 0.164 -0.109 0.980 208 197 193 0 0
-2.9912 -6.6156 -4.7934 0.319 -0.073 0.945 205 194 191 0 0
-2.9847 -6.6360 -4.7962 0.246 -0.046 0.968 207 195 190 0 0
-2.7897 -6.9210 -4.7834 0.565 -0.113 0.817 211 200 196 0 0
-2.7840 -6.9435 -4.7872 0.511 -0.137 0.849 211 200 196 0 0
-2.7757 -6.9608 -4.7883 0.475 0.122 0.872 205 193 187 0 0
-2.7679 -6.9793 -4.7899 0.475 0.122 0.872 203 189 183 0 0
-2.7581 -6.9934 -4.7892 0.032 0.755 0.655 199 186 180 0 0
-2.7438 -6.9979 -4.7833 -0.171 0.734 0.657 202 187 181 0 0
-2.7330 -7.0099 -4.7815 -0.158 0.391 0.907 204 191 184 0 0
-2.7228 -7.0230 -4.7803 -0.053 0.292 0.955 207 194 186 0 0
-2.7084 -7.0273 -4.7744 0.512 0.147 0.846 207 196 189 0 0
-2.6993 -7.0427 -4.7744 0.413 0.275 0.868 203 192 186 0 0
-2.6897 -7.0574 -4.7740 0.345 0.273 0.898 205 193 188 0 0
-2.6782 -7.0677 -4.7713 0.344 0.122 0.931 204 191 187 0 0
-2.6487 -7.1453 -4.7796 0.522 0.226 0.823 204 191 186 0 0
-2.6399 -7.1615 -4.7800 0.343 0.479 0.808 204 191 186 0 0
-2.6299 -7.1751 -4.7791 0.400 0.599 0.693 205 191 187 0 0
-2.6202 -7.1895 -4.7785 0.051 0.786 0.616 196 184 178 0 0
-2.5757 -7.2335 -4.7694 0.330 -0.067 0.942 198 187 185 0 0
-2.5692 -7.2553 -4.7726 0.381 -0.031 0.924 200 189 188 0 0
-2.5138 -7.3104 -4.7613 0.121 0.677 0.726 204 193 191 0 0
-6.8841 1.0521 -4.4431 -0.030 0.381 0.924 193 191 194 0 0
-6.7421 0.6691 -4.4856 0.257 0.220 0.941 198 195 203 0 0
-6.7325 0.6561 -4.4847 0.322 0.311 0.894 200 196 205 0 0
-6.6890 0.5908 -4.4824 0.864 0.194 0.465 206 205 212 0 0
-6.6363 0.4985 -4.4834 0.641 -0.121 0.758 208 206 213 0 0
-6.6208 0.4016 -4.5044 0.929 -0.119 0.350 206 205 213 0 0
-6.6229 0.3871 -4.5096 0.933 0.176 0.315 205 204 214 0 0
-6.6187 0.3734 -4.5116 0.917 0.174 0.358 206 206 218 0 0
-6.6188 0.3591 -4.5159 0.792 0.372 0.485 207 208 218 0 0
-6.5904 0.3055 -4.5176 0.681 0.418 0.602 200 195 200 0 0
-6.5875 0.2915 -4.5203 0.889 0.200 0.411 207 202 205 0 0
-6.5790 0.2783 -4.5200 0.642 0.324 0.695 206 201 205 0 0
-6.4574 -0.0099 -4.5447 0.442 0.298 0.846 205 201 203 0 0
-6.4435 -0.0371 -4.5458 0.451 0.678 0.581 208 203 205 0 0
-6.4340 -0.0503 -4.5450 0.128 0.574 0.809 204 198 200 0 0
-6.4058 -0.0750 -4.5383 0.192 0.350 0.917 199 193 196 0 0
-6.4011 -0.1340 -4.5534 0.856 0.502 0.125 210 207 212 0 0
-6.3819 -0.1604 -4.5516 0.724 0.638 0.261 208 206 213 0 0
-6.3701 -0.1731 -4.5495 0.579 0.788 0.209 208 207 213 0 0
-6.3664 -0.1875 -4.5519 0.868 0.395 0.302 208 206 212 0 0
-6.3661 -0.2026 -4.5562 0.999 0.014 0.033 208 205 210 0 0
-6.3716 -0.2189 -4.5638 0.984 -0.069 0.162 211 206 212 0 0
-6.3380 -0.2423 -4.5540 0.083 0.365 0.927 208 203 207 0 0
-6.3255 -0.2549 -4.5515 0.266 0.488 0.832 208 203 205 0 0
-6.2971 -0.2945 -4.5491 0.430 0.765 0.480 204 198 201 0 0
-6.2763 -0.3052 -4.5419 0.188 0.818 0.543 205 200 203 0 0
-6.2668 -0.3337 -4.5456 0.633 0.555 0.539 210 204 208 0 0
-6.2296 -0.4795 -4.5702 0.089 0.288 0.954 204 196 194 0 0
-6.1485 -0.7112 -4.5983 0.553 0.167 0.817 212 207 207 0 0
-6.1431 -0.7257 -4.5999 0.455 0.333 0.826 206 202 205 0 0
-6.1359 -0.7397 -4.6005 0.262 0.661 0.703 205 199 203 0 0
-6.1243 -0.7525 -4.5985 0.399 0.466 0.789 208 203 206 0 0
-6.1142 -0.7657 -4.5974 0.335 0.093 0.938 212 207 210 0 0
-6.0778 -0.8847 -4.6144 0.190 0.487 0.852 206 200 201 0 0
-6.0157 -1.1639 -4.6660 0.013 0.310 0.951 204 195 196 0 0
-5.8521 -1.6231 -4.7203 0.362 0.281 0.889 212 207 211 0 0
-5.7836 -1.8283 -4.7469 0.549 -0.028 0.835 208 198 204 0 0
-5.6862 -2.1359 -4.7893 0.067 0.190 0.980 139 122 143 0 0
-5.6818 -2.1527 -4.7921 0.209 0.091 0.974 139 121 141 0 0
-5.6784 -2.1700 -4.7955 0.246 -0.080 0.966 139 120 141 0 0
-5.6777 -2.1888 -4.8007 0.270 0.044 0.962 142 124 145 0 0
-4.8695 -2.4305 -4.4706 0.202 0.110 0.973 212 130 74 0 0
-4.8262 -2.4970 -4.4688 0.134 0.331 0.934 212 123 77 0 0
-4.7266 -2.6598 -4.4674 0.566 0.248 0.786 198 101 56 0 0
-4.4546 -3.3370 -4.5322 0.879 0.076 0.470 213 64 53 0 0
-4.4111 -4.4773 -4.8473 0.109 0.538 0.836 117 61 93 0 0
-4.3976 -4.4878 -4.8437 -0.019 0.563 0.826 125 70 105 0 0
-4.3896 -4.5041 -4.8445 0.525 0.120 0.843 133 85 125 0 0
-4.2594 -4.6631 -4.8268 0.709 0.666 -0.231 132 95 127 0 0
-4.2313 -4.6823 -4.8185 0.593 0.805 -0.033 140 106 140 0 0
-4.2197 -4.7198 -4.8238 0.626 -0.159 0.763 136 102 130 0 0
-4.2176 -4.7429 -4.8296 0.644 -0.117 0.756 134 99 125 0 0
-4.2156 -4.7661 -4.8355 0.609 -0.146 0.779 132 95 119 0 0
-4.2064 -4.7811 -4.8353 0.778 -0.134 0.613 134 98 118 0 0
-3.9664 -5.1733 -4.8319 0.504 -0.152 0.850 212 195 185 0 0
-3.9521 -5.1819 -4.8273 0.562 -0.135 0.816 213 197 187 0 0
-3.9495 -5.2055 -4.8330 0.562 -0.135 0.816 213 198 188 0 0
-3.9468 -5.2290 -4.8386 0.605 -0.183 0.775 214 198 188 0 0
-3.7552 -5.5801 -4.8471 0.734 0.343 0.586 207 193 185 0 0
-3.7207 -5.6165 -4.8407 0.453 0.426 0.783 210 197 190 0 0
-3.6566 -5.6670 -4.8238 0.332 0.161 0.929 213 203 195 0 0
-3.6028 -5.7318 -4.8162 0.582 -0.062 0.811 207 194 186 0 0
-3.5050 -5.9050 -4.8188 0.344 -0.004 0.939 206 192 186 0 0
-3.4010 -6.0390 -4.8067 0.630 -0.083 0.772 207 193 185 0 0
-3.1757 -6.3048 -4.7733 0.479 0.009 0.878 206 196 192 0 0
-3.1696 -6.3255 -4.7763 0.479 0.009 0.878 206 197 192 0 0
-3.1944 -6.4009 -4.8109 0.508 -0.055 0.860 206 196 193 0 0
-3.1829 -6.4123 -4.8086 0.565 0.231 0.792 208 197 193 0 0
-3.1721 -6.4248 -4.8069 0.376 0.286 0.882 208 197 193 0 0
-3.1644 -6.4430 -4.8084 0.282 0.327 0.902 208 197 193 0 0
-3.1538 -6.4559 -4.8070 0.282 0.327 0.902 209 198 193 0 0
-3.0100 -6.6439 -4.7911 0.314 -0.068 0.947 208 197 192 0 0
-3.0025 -6.6627 -4.7929 0.246 -0.046 0.968 209 197 192 0 0
-2.8544 -6.8401 -4.7717 0.342 -0.106 0.934 206 193 188 0 0
-2.8525 -6.8702 -4.7796 0.364 -0.171 0.916 205 192 186 0 0
-2.8107 -6.9562 -4.7843 0.211 0.143 0.967 210 199 196 0 0
-2.8013 -6.9713 -4.7841 0.211 0.143 0.967 210 198 193 0 0
-2.7796 -6.9953 -4.7804 0.477 0.184 0.859 201 187 183 0 0
-2.7681 -7.0060 -4.7778 -0.005 0.849 0.529 203 189 185 0 0
-2.7559 -7.0150 -4.7744 0.090 0.745 0.660 204 191 185 0 0
-2.7463 -7.0295 -4.7739 -0.135 0.526 0.840 205 192 187 0 0
-2.7092 -7.0553 -4.7631 -0.074 0.437 0.897 206 194 191 0 0
-2.7021 -7.0752 -4.7655 0.147 0.161 0.976 203 192 184 0 0
-2.6912 -7.0869 -4.7635 0.193 -0.023 0.981 200 189 183 0 0
-2.6745 -7.1216 -4.7655 0.172 0.298 0.939 199 185 182 0 0
-2.6590 -7.1588 -4.7687 0.545 0.097 0.833 204 193 188 0 0
-2.6496 -7.1739 -4.7685 0.343 0.479 0.808 202 191 185 0 0
-2.6385 -7.1851 -4.7663 0.178 0.489 0.854 195 182 176 0 0
-2.5919 -7.2611 -4.7656 0.330 -0.067 0.942 203 192 191 0 0
-2.5795 -7.2692 -4.7619 0.115 0.016 0.993 203 193 191 0 0
-2.5768 -7.2996 -4.7695 0.365 -0.033 0.930 206 196 194 0 0
-6.9325 1.0610 -4.4468 0.527 -0.128 0.840 195 191 196 0 0
-6.9011 1.0488 -4.4348 0.223 0.491 0.842 195 193 197 0 0
-6.8166 0.7296 -4.4869 0.373 0.659 0.653 205 201 207 0 0
-6.7598 0.6652 -4.4777 0.585 0.616 0.527 197 194 201 0 0
-6.6390 0.4396 -4.4842 0.209 0.774 0.598 208 207 213 0 0
-6.6257 0.3560 -4.5022 0.792 0.372 0.485 208 210 221 0 0
-6.6057 0.3300 -4.5000 0.722 0.574 0.386 192 191 201 0 0
-6.5994 0.2877 -4.5093 0.660 0.141 0.738 203 198 201 0 0
-6.5644 0.1034 -4.5461 0.603 -0.220 0.767 211 212 222 0 0
-6.5285 0.0204 -4.5528 0.534 0.767 0.356 201 195 197 0 0
-6.5134 0.0081 -4.5489 0.534 0.767 0.356 205 199 201 0 0
-6.4960 -0.0037 -4.5438 0.401 0.838 0.370 203 197 198 0 0
-6.4837 -0.0165 -4.5414 0.456 0.880 0.133 205 200 202 0 0
-6.4640 -0.0279 -4.5351 0.602 0.439 0.667 209 204 206 0 0
-6.4546 -0.0411 -4.5343 0.423 0.694 0.583 210 206 208 0 0
-6.4444 -0.0542 -4.5331 0.344 0.563 0.752 206 201 205 0 0
-6.4348 -0.0674 -4.5322 0.238 0.540 0.807 207 201 205 0 0
-6.4150 -0.1236 -4.5389 0.887 0.327 0.325 208 206 210 0 0
-6.4134 -0.1383 -4.5425 0.670 0.115 0.733 211 209 214 0 0
-6.4099 -0.1527 -4.5450 0.655 0.256 0.711 213 211 216 0 0
-6.4035 -0.1666 -4.5459 0.655 0.256 0.711 210 209 215 0 0
-6.3955 -0.1801 -4.5459 0.587 0.243 0.772 210 208 215 0 0
-6.3382 -0.2594 -4.5409 0.176 0.343 0.923 208 204 206 0 0
-6.3380 -0.3052 -4.5542 0.200 0.192 0.961 205 198 202 0 0
-6.3285 -0.3185 -4.5535 0.210 0.222 0.952 203 197 202 0 0
-6.1697 -0.7186 -4.5925 0.488 0.333 0.807 204 201 208 0 0
-6.1608 -0.7322 -4.5921 0.399 0.466 0.789 209 205 211 0 0
-6.1466 -0.7443 -4.5886 0.317 0.561 0.765 210 205 210 0 0
-6.1380 -0.7579 -4.5884 0.399 0.466 0.789 210 205 210 0 0
-6.1318 -0.8534 -4.6133 0.166 0.421 0.892 211 205 205 0 0
-6.1164 -0.8651 -4.6092 0.142 0.490 0.860 214 208 210 0 0
-6.0821 -0.9037 -4.6036 0.216 0.281 0.935 206 200 202 0 0
-6.0711 -1.0158 -4.6311 0.248 -0.292 0.924 201 195 198 0 0
-6.0949 -1.0738 -4.6599 0.239 0.969 0.058 206 200 202 0 0
-6.0592 -1.0788 -4.6437 0.617 0.718 -0.322 203 197 199 0 0
-6.0473 -1.0916 -4.6415 0.640 0.306 0.705 206 198 200 0 0
-6.0568 -1.1623 -4.6670 0.033 0.170 0.985 211 202 204 0 0
-5.9723 -1.4072 -4.6972 0.272 0.014 0.962 208 199 200 0 0
-5.9289 -1.4956 -4.7017 0.054 0.301 0.952 212 207 213 0 0
-5.8371 -1.6892 -4.7132 0.552 0.212 0.807 215 212 220 0 0
-5.7210 -2.1348 -4.7867 0.058 0.143 0.988 160 152 187 0 0
-5.7084 -2.1475 -4.7842 0.038 0.221 0.975 151 141 174 0 0
-5.7167 -2.1708 -4.7952 0.289 0.136 0.947 144 133 163 0 0
-5.7175 -2.1903 -4.8013 0.347 0.303 0.887 147 134 161 0 0
-5.7074 -2.2043 -4.8005 0.241 0.538 0.808 146 129 155 0 0
-5.6936 -2.2164 -4.7972 0.323 0.425 0.846 134 114 136 0 0
-5.6891 -2.2333 -4.7999 0.262 -0.013 0.965 128 103 127 0 0
-5.2246 -2.3230 -4.5966 0.217 0.233 0.948 191 51 39 0 0
-4.9526 -2.3693 -4.4756 0.195 0.177 0.965 199 59 44 0 0
-4.9427 -2.3819 -4.4745 0.189 0.336 0.923 191 67 40 0 0
-4.8974 -2.4476 -4.4713 0.447 0.160 0.880 210 132 80 0 0
-4.6614 -2.7881 -4.4547 0.196 0.480 0.855 201 64 44 0 0
-4.6361 -2.8091 -4.4484 0.202 0.495 0.845 209 57 46 0 0
-4.5028 -3.2296 -4.5060 0.809 0.223 0.544 69 34 21 0 0
-4.4967 -3.2454 -4.5076 0.452 0.496 0.742 71 36 23 0 0
-4.4878 -3.2588 -4.5072 0.448 0.413 0.793 84 35 21 0 0
-4.4561 -4.4967 -4.8553 0.986 -0.081 0.149 117 65 98 0 0
-4.4487 -4.5138 -4.8566 0.996 0.022 -0.089 124 68 104 0 0
-4.3959 -4.5081 -4.8288 0.886 -0.110 0.451 132 85 129 0 0
-4.3744 -4.5597 -4.8334 0.660 0.128 0.740 142 110 158 0 0
-4.3796 -4.6152 -4.8522 0.181 0.318 0.931 136 100 141 0 0
-4.2216 -4.7952 -4.8270 0.471 0.277 0.837 134 93 118 0 0
-4.1109 -5.0291 -4.8410 0.252 0.051 0.966 209 190 184 0 0
-3.9721 -5.2034 -4.8236 0.826 -0.151 0.543 215 200 192 0 0
-3.9645 -5.2477 -4.8328 0.773 0.019 0.635 214 201 191 0 0
-3.7706 -5.5970 -4.8396 0.430 0.112 0.896 207 194 187 0 0
-3.7378 -5.6074 -4.8264 0.520 0.633 0.574 211 197 192 0 0
-3.7314 -5.6268 -4.8289 0.453 0.426 0.783 210 197 189 0 0
-3.5232 -5.9873 -4.8319 0.908 -0.091 0.408 209 198 193 0 0
-3.1912 -6.4520 -4.8043 0.661 0.463 0.591 208 198 195 0 0
-3.1792 -6.4626 -4.8014 0.442 0.556 0.704 208 199 193 0 0
-3.1679 -6.4743 -4.7993 0.442 0.556 0.704 206 196 191 0 0
-3.1174 -6.5114 -4.7853 0.141 0.900 0.411 201 188 180 0 0
-3.1066 -6.5238 -4.7835 0.090 0.423 0.902 200 188 182 0 0
-3.0475 -6.6419 -4.7890 -0.178 0.041 0.983 207 194 191 0 0
-3.0250 -6.6651 -4.7847 0.281 0.122 0.952 206 195 189 0 0
-3.0176 -6.6839 -4.7865 0.455 0.080 0.887 208 197 192 0 0
-3.0103 -6.7032 -4.7886 0.441 0.071 0.894 209 198 193 0 0
-2.8861 -6.8621 -4.7739 0.272 -0.002 0.962 206 192 188 0 0
-2.8719 -6.8674 -4.7684 0.342 -0.106 0.934 206 192 190 0 0
-2.8733 -6.9044 -4.7800 0.253 -0.058 0.966 205 191 187 0 0
-2.7907 -7.0100 -4.7701 0.393 0.547 0.739 202 189 182 0 0
-2.7172 -7.0991 -4.7600 0.143 0.165 0.976 203 190 183 0 0
-2.6633 -7.1950 -4.7615 0.381 0.192 0.904 204 193 190 0 0
-2.5969 -7.2994 -4.7594 0.115 0.016 0.993 201 188 187 0 0
-2.5873 -7.3142 -4.7590 0.106 0.069 0.992 200 189 187 0 0
-2.5631 -7.4433 -4.7849 0.380 0.924 -0.040 202 191 187 0 0
-2.5431 -7.4338 -4.7723 0.340 0.799 0.497 204 193 189 0 0
-2.5078 -7.5003 -4.7743 0.641 -0.028 0.767 201 191 189 0 0
-6.6751 0.4897 -4.4695 0.513 -0.106 0.852 206 203 209 0 0
-6.6702 0.4762 -4.4710 0.570 -0.031 0.821 211 208 214 0 0
-6.6544 0.4356 -4.4751 0.201 0.708 0.677 208 206 212 0 0
-6.6533 0.4216 -4.4787 0.482 -0.319 0.816 207 206 212 0 0
-6.6485 0.2934 -4.5138 0.055 0.356 0.933 206 203 206 0 0
-6.6338 0.2809 -4.5102 0.205 -0.015 0.979 201 196 199 0 0
-6.6304 0.2669 -4.5126 -0.007 0.156 0.988 203 198 202 0 0
-6.5765 0.1289 -4.5265 0.516 -0.270 0.813 212 210 216 0 0
-6.5746 0.1145 -4.5297 0.533 -0.415 0.738 213 212 220 0 0
-6.5771 0.0993 -4.5354 0.617 -0.227 0.753 212 212 224 0 0
-6.5772 0.0845 -4.5398 0.617 -0.227 0.753 209 211 223 0 0
-6.5145 -0.0090 -4.5362 0.490 0.423 0.762 201 195 197 0 0
-6.4828 -0.0183 -4.5233 0.627 0.503 0.594 206 200 202 0 0
-6.4684 -0.0605 -4.5286 0.222 0.361 0.906 206 200 202 0 0
-6.4545 -0.0729 -4.5254 0.330 0.353 0.875 206 200 202 0 0
-6.3599 -0.2658 -4.5352 0.012 0.272 0.962 206 201 205 0 0
-6.2995 -0.4842 -4.5693 0.048 0.227 0.973 213 210 216 0 0
-6.2786 -0.5105 -4.5668 0.135 -0.187 0.973 211 207 211 0 0
-6.1853 -0.6924 -4.5740 0.603 0.150 0.784 209 205 210 0 0
-6.1797 -0.7069 -4.5755 0.565 0.124 0.816 206 202 207 0 0
-6.1739 -0.7374 -4.5815 0.572 0.416 0.707 204 199 205 0 0
-6.1637 -0.7506 -4.5804 0.394 0.327 0.859 216 211 215 0 0
-6.1535 -0.8613 -4.6078 0.196 0.565 0.801 210 204 206 0 0
-6.1351 -0.8722 -4.6019 0.157 0.401 0.902 211 205 205 0 0
-6.1251 -0.8855 -4.6008 0.464 0.538 0.704 210 204 205 0 0
-6.0889 -1.0229 -4.6232 0.348 -0.316 0.883 207 202 205 0 0
-6.0615 -1.0808 -4.6267 0.506 0.382 0.773 204 198 200 0 0
-6.0919 -1.1586 -4.6644 0.060 0.330 0.942 209 200 200 0 0
-6.0815 -1.1721 -4.6632 0.122 0.247 0.961 207 198 199 0 0
-5.9338 -1.5161 -4.6911 0.121 0.668 0.734 211 207 213 0 0
-5.8403 -1.8002 -4.7281 -0.013 0.218 0.976 215 206 207 0 0
-5.7918 -1.9812 -4.7572 -0.012 0.124 0.992 183 166 178 0 0
-5.7539 -2.1326 -4.7828 0.418 0.106 0.902 161 151 185 0 0
-5.7422 -2.1458 -4.7809 0.326 0.281 0.903 156 147 183 0 0
-5.7315 -2.1595 -4.7797 0.228 0.372 0.900 160 157 191 0 0
-5.7357 -2.1808 -4.7879 0.289 0.136 0.947 152 142 177 0 0
-5.7287 -2.1964 -4.7890 0.258 0.296 0.920 152 139 169 0 0
-5.7128 -2.2266 -4.7901 0.194 0.201 0.960 128 103 126 0 0
-5.7102 -2.2445 -4.7940 0.182 0.015 0.983 132 108 131 0 0
-5.0336 -2.3992 -4.5060 -0.351 0.634 0.689 201 58 45 0 0
-4.9053 -2.4711 -4.4639 0.574 0.386 0.722 182 77 34 0 0
-4.8967 -2.4845 -4.4636 0.574 0.386 0.722 187 83 39 0 0
-4.8293 -2.5741 -4.4566 0.402 -0.051 0.914 206 128 71 0 0
-4.6761 -2.7978 -4.4466 0.189 0.411 0.892 207 58 45 0 0
-4.6537 -2.8209 -4.4424 0.467 0.317 0.825 211 61 48 0 0
-4.5347 -3.2127 -4.4983 0.549 0.482 0.683 65 25 17 0 0
-4.5180 -3.2200 -4.4922 0.611 0.673 0.416 70 34 22 0 0
-4.5024 -3.2280 -4.4869 0.958 0.170 0.229 70 37 24 0 0
-4.4017 -4.5610 -4.8271 0.212 -0.214 0.954 134 95 141 0 0
-4.4008 -4.5851 -4.8338 0.230 -0.191 0.954 135 96 138 0 0
-4.4010 -4.6103 -4.8412 0.166 -0.134 0.977 135 97 138 0 0
-4.1582 -5.0296 -4.8443 -0.168 0.319 0.933 198 165 158 0 0
-4.1369 -5.0834 -4.8496 0.407 -0.145 0.902 208 189 181 0 0
-3.9001 -5.4333 -4.8353 0.066 0.625 0.778 210 196 187 0 0
-3.8566 -5.4582 -4.8212 0.141 0.494 0.858 208 194 186 0 0
-3.7421 -5.6372 -4.8171 0.453 0.426 0.783 208 196 188 0 0
-3.7341 -5.6543 -4.8182 0.328 0.347 0.878 210 198 192 0 0
-3.7045 -5.6691 -4.8079 0.356 0.118 0.927 209 198 191 0 0
-3.3188 -6.1961 -4.7721 0.848 0.490 0.201 207 194 189 0 0
-3.3075 -6.2080 -4.7700 0.642 0.701 0.312 208 196 190 0 0
-3.3102 -6.2434 -4.7817 0.970 -0.047 0.237 209 197 192 0 0
-3.2986 -6.2547 -4.7793 0.667 0.413 0.620 210 198 194 0 0
-3.2521 -6.2684 -4.7604 0.347 0.651 0.675 209 197 192 0 0
-3.1836 -6.4958 -4.7932 0.021 0.770 0.637 205 195 191 0 0
-2.8889 -6.8936 -4.7644 0.219 0.064 0.974 205 192 187 0 0
-2.8921 -6.9345 -4.7780 0.691 -0.061 0.720 205 193 187 0 0
-2.8439 -7.0084 -4.7759 -0.111 0.197 0.974 196 183 176 0 0
-2.6205 -7.3070 -4.7532 0.478 -0.110 0.872 198 186 183 0 0
-2.6146 -7.3304 -4.7571 0.465 -0.101 0.880 199 187 184 0 0
-6.8976 0.8287 -4.4620 0.056 0.572 0.818 197 191 195 0 0
-6.8612 0.7764 -4.4594 0.596 0.093 0.797 200 196 203 0 0
-6.8653 0.7624 -4.4655 0.422 0.777 0.466 207 204 212 0 0
-6.8531 0.7495 -4.4633 0.414 0.251 0.875 208 208 214 0 0
-6.8533 0.7357 -4.4674 0.431 0.737 0.521 210 209 218 0 0
-6.8371 0.7231 -4.4631 0.431 0.737 0.521 211 210 219 0 0
-6.8307 0.7098 -4.4638 0.457 0.350 0.818 205 205 216 0 0
-6.8197 0.6968 -4.4622 0.449 0.200 0.871 205 204 214 0 0
-6.7020 0.4986 -4.4622 0.098 0.480 0.871 202 197 201 0 0
-6.6886 0.4719 -4.4634 0.461 0.153 0.874 206 203 208 0 0
-6.6793 0.3304 -4.5000 0.265 -0.037 0.964 205 200 205 0 0
-6.6725 0.2880 -4.5090 0.109 0.443 0.890 208 203 207 0 0
-6.6632 0.2747 -4.5083 0.189 0.094 0.977 205 201 204 0 0
-6.5944 0.0797 -4.5314 0.552 -0.365 0.749 201 200 208 0 0
-6.5031 -0.0239 -4.5168 0.190 0.444 0.876 206 198 201 0 0
-6.4936 -0.0372 -4.5160 0.631 0.186 0.753 206 202 203 0 0
-6.4751 -0.0787 -4.5190 0.153 0.410 0.899 207 203 205 0 0
-6.4425 -0.1177 -4.5143 0.596 0.060 0.801 212 209 213 0 0
-6.3935 -0.3055 -4.5450 0.038 0.173 0.984 209 203 207 0 0
-6.2885 -0.5620 -4.5682 0.446 0.350 0.824 209 206 212 0 0
-6.2960 -0.6116 -4.5863 0.413 0.461 0.785 213 210 213 0 0
-6.2847 -0.6247 -4.5846 0.413 0.461 0.785 212 208 211 0 0
-6.2747 -0.6380 -4.5836 0.479 0.262 0.838 205 200 203 0 0
-6.2640 -0.6512 -4.5822 0.411 0.322 0.853 206 201 203 0 0
-6.2185 -0.7030 -4.5749 0.251 0.421 0.872 211 206 210 0 0
-6.1892 -0.8406 -4.6006 0.962 -0.059 0.267 207 198 200 0 0
-6.1780 -0.8537 -4.5989 0.494 0.746 0.446 208 200 202 0 0
-6.1643 -0.8660 -4.5958 0.560 0.696 0.450 209 203 205 0 0
-6.0961 -1.0432 -4.6139 0.390 -0.036 0.920 209 203 205 0 0
-6.1130 -1.0655 -4.6287 0.531 0.671 0.518 206 200 202 0 0
-6.0981 -1.0774 -4.6248 0.216 0.780 0.587 206 200 202 0 0
-6.0806 -1.0884 -4.6195 0.286 0.801 0.526 208 202 204 0 0
-6.1153 -1.1679 -4.6596 0.060 0.330 0.942 209 201 202 0 0
-6.1042 -1.1811 -4.6580 0.122 0.247 0.961 213 204 205 0 0
-6.0357 -1.2425 -4.6423 0.190 0.017 0.982 211 204 203 0 0
-6.0415 -1.2617 -4.6508 0.219 -0.100 0.971 209 201 203 0 0
-5.9019 -1.7733 -4.7312 0.113 0.123 0.986 212 202 205 0 0
-5.8940 -1.7881 -4.7316 0.023 0.188 0.982 209 198 202 0 0
-5.8889 -1.8042 -4.7338 -0.062 0.284 0.957 216 205 208 0 0
-5.8814 -1.8192 -4.7345 0.135 0.093 0.986 216 206 208 0 0
-5.7654 -2.1578 -4.7762 0.182 0.423 0.888 161 152 187 0 0
-5.7529 -2.1707 -4.7738 0.201 0.343 0.917 156 143 178 0 0
-5.7602 -2.1936 -4.7841 0.318 0.751 0.579 150 135 168 0 0
-5.7437 -2.2044 -4.7791 0.318 0.751 0.579 154 135 165 0 0
-5.7350 -2.2191 -4.7792 0.383 0.551 0.741 137 114 139 0 0
-4.9281 -2.4662 -4.4554 0.429 0.317 0.846 174 46 16 0 0
-4.9112 -2.4745 -4.4496 0.439 0.186 0.879 211 110 69 0 0
-4.9084 -2.4916 -4.4532 0.477 0.229 0.849 207 118 71 0 0
-4.7036 -2.7969 -4.4417 0.241 0.443 0.864 203 55 40 0 0
-4.6659 -2.7898 -4.4211 0.644 0.753 0.133 208 57 43 0 0
-4.6518 -2.7993 -4.4170 0.577 0.804 0.145 209 56 44 0 0
-4.6766 -2.8365 -4.4399 0.859 -0.057 0.509 208 56 44 0 0
-4.4173 -4.5748 -4.8188 0.889 0.205 -0.410 133 83 125 0 0
-4.4298 -4.6130 -4.8360 0.451 -0.371 0.812 129 78 120 0 0
-4.2376 -4.8327 -4.8058 0.947 -0.314 0.065 131 78 101 0 0
-4.2388 -4.8599 -4.8143 0.696 -0.357 0.623 128 77 97 0 0
-4.2428 -4.8903 -4.8251 0.619 -0.335 0.710 128 79 100 0 0
-4.2312 -4.9288 -4.8306 0.255 -0.104 0.961 129 86 103 0 0
-4.1644 -5.0599 -4.8360 0.099 0.216 0.971 197 167 163 0 0
-4.1584 -5.0791 -4.8387 0.412 -0.148 0.899 208 184 183 0 0
-3.9137 -5.4471 -4.8258 0.211 0.515 0.831 209 195 187 0 0
-3.8991 -5.4554 -4.8211 0.032 0.804 0.593 209 194 186 0 0
-3.8563 -5.5092 -4.8157 0.351 0.080 0.933 210 197 189 0 0
-3.7195 -5.6858 -4.8001 0.530 -0.026 0.848 215 204 198 0 0
-3.5434 -5.9777 -4.7987 0.808 -0.184 0.560 206 194 190 0 0
-3.5183 -6.0281 -4.8011 0.664 0.742 0.095 211 200 198 0 0
-3.2635 -6.2817 -4.7499 0.294 0.671 0.681 208 195 189 0 0
-3.2499 -6.3207 -4.7546 0.663 -0.003 0.748 208 196 190 0 0
-3.1889 -6.4344 -4.7578 0.081 0.089 0.993 210 201 199 0 0
-3.0872 -6.5385 -4.7383 0.239 0.080 0.968 197 184 176 0 0
-3.0796 -6.5567 -4.7398 0.210 0.003 0.978 198 186 178 0 0
-3.0617 -6.5883 -4.7402 0.094 0.040 0.995 207 196 190 0 0
-3.0548 -6.6081 -4.7426 0.240 -0.011 0.971 204 192 186 0 0
-3.0576 -6.7455 -4.7840 0.137 0.570 0.810 207 195 190 0 0
-3.0491 -6.7625 -4.7848 0.056 0.716 0.696 205 192 186 0 0
-3.0351 -6.7690 -4.7798 -0.006 0.669 0.744 204 190 183 0 0
-3.0275 -6.7878 -4.7816 0.286 0.601 0.747 202 189 181 0 0
-3.0112 -6.7898 -4.7742 0.535 0.744 0.401 204 191 184 0 0
-2.9984 -6.7983 -4.7703 0.721 0.687 0.090 205 192 185 0 0
-2.9868 -6.8094 -4.7679 0.395 0.833 0.386 206 193 188 0 0
-2.9764 -6.8226 -4.7666 0.237 0.699 0.675 207 194 186 0 0
-2.9584 -6.8548 -4.7672 0.433 0.405 0.806 204 191 184 0 0
-2.9511 -6.8742 -4.7693 -0.009 0.312 0.950 206 193 188 0 0
-2.9358 -6.8775 -4.7627 -0.137 0.410 0.902 206 193 187 0 0
-2.9298 -6.8997 -4.7662 0.153 0.347 0.925 207 193 189 0 0
-2.9172 -6.9086 -4.7626 0.293 0.222 0.930 205 192 186 0 0
-2.9100 -6.9283 -4.7649 0.195 0.264 0.945 205 192 187 0 0
-2.7887 -7.1290 -4.7638 0.260 0.063 0.964 204 190 187 0 0
-2.7030 -7.2647 -4.7612 0.085 0.116 0.990 200 187 183 0 0
-2.6341 -7.3654 -4.7568 0.423 -0.113 0.899 200 189 184 0 0
-2.6123 -7.4263 -4.7639 0.071 0.119 0.990 204 191 191 0 0
-2.6003 -7.4357 -4.7607 0.149 0.081 0.985 203 192 189 0 0
-2.5785 -7.4595 -4.7569 0.352 0.610 0.710 200 189 185 0 0
-2.5661 -7.4677 -4.7532 0.585 0.753 0.301 202 191 187 0 0
-2.5568 -7.4835 -4.7533 0.154 0.871 0.467 203 192 188 0 0
-2.5525 -7.5108 -4.7591 0.770 0.435 0.466 204 193 190 0 0
-2.5420 -7.5238 -4.7578 0.673 0.407 0.617 203 192 188 0 0
-2.5239 -7.5946 -4.7695 0.343 0.016 0.939 197 185 182 0 0
-6.9359 0.8512 -4.4563 0.517 0.580 0.629 205 203 212 0 0
-6.9237 0.8383 -4.4541 0.478 0.598 0.643 204 203 212 0 0
-6.9091 0.8255 -4.4507 0.417 0.522 0.744 206 204 212 0 0
-6.8815 0.7725 -4.4526 0.682 0.216 0.699 200 197 206 0 0
-6.8828 0.7586 -4.4573 0.531 0.519 0.670 201 200 207 0 0
-6.8720 0.7456 -4.4557 0.531 0.519 0.670 201 201 208 0 0
-6.8624 0.7325 -4.4549 0.472 0.706 0.528 208 208 216 0 0
-6.8513 0.7196 -4.4532 0.547 0.515 0.660 209 209 218 0 0
-6.8416 0.7065 -4.4522 0.558 0.502 0.661 210 209 217 0 0
-6.8302 0.6936 -4.4504 0.547 0.515 0.660 209 207 214 0 0
-6.8111 0.6396 -4.4567 0.223 0.355 0.908 205 202 210 0 0
-6.7484 0.5196 -4.4609 0.051 0.421 0.906 207 202 208 0 0
-6.7134 0.2949 -4.5089 0.000 0.285 0.959 204 199 200 0 0
-6.6273 0.1463 -4.5099 0.198 -0.185 0.963 208 204 206 0 0
-6.6113 0.1340 -4.5056 0.407 -0.040 0.913 209 204 207 0 0
-6.5321 -0.0611 -4.5235 0.151 0.495 0.856 205 199 202 0 0
-6.5011 -0.0704 -4.5111 0.403 0.383 0.831 210 204 207 0 0
-6.4559 -0.2591 -4.5437 -0.063 0.399 0.915 204 198 200 0 0
-6.4366 -0.2704 -4.5375 -0.018 0.339 0.941 205 199 201 0 0
-6.3799 -0.4285 -4.5556 0.092 0.226 0.970 203 198 202 0 0
-6.3685 -0.4415 -4.5538 0.170 0.472 0.865 202 196 199 0 0
-6.3495 -0.4526 -4.5478 0.160 0.613 0.774 208 202 204 0 0
-6.3529 -0.4691 -4.5542 0.113 0.364 0.924 209 203 205 0 0
-6.3037 -0.5675 -4.5587 0.425 0.287 0.858 206 202 209 0 0
-6.3042 -0.5835 -4.5636 0.570 -0.102 0.815 205 202 208 0 0
-6.3075 -0.6003 -4.5701 0.737 -0.167 0.655 206 204 210 0 0
-6.3015 -0.6147 -4.5713 0.813 0.402 0.422 208 207 213 0 0
-6.2949 -0.6290 -4.5722 0.609 0.384 0.694 208 206 211 0 0
-6.2888 -0.6434 -4.5734 0.776 0.331 0.537 208 204 210 0 0
-6.1912 -0.8100 -4.5741 0.180 0.012 0.984 210 204 205 0 0
-6.0446 -1.3330 -4.6540 0.260 -0.159 0.952 209 199 203 0 0
-5.9278 -1.7124 -4.7069 0.389 0.235 0.891 206 196 197 0 0
-5.9191 -1.7268 -4.7068 0.389 0.235 0.891 214 204 205 0 0
-5.8204 -2.1284 -4.7750 0.392 0.507 0.768 166 155 187 0 0
-5.7862 -2.1879 -4.7755 0.171 0.211 0.962 141 123 156 0 0
-5.7775 -2.2027 -4.7756 0.303 0.299 0.905 143 122 148 0 0
-5.7654 -2.2158 -4.7735 0.256 0.501 0.827 140 114 139 0 0
-4.9253 -2.4830 -4.4407 0.439 0.186 0.879 213 116 71 0 0
-4.9222 -2.5000 -4.4442 0.479 0.285 0.830 209 111 66 0 0
-4.9166 -2.5154 -4.4459 0.521 0.081 0.850 198 89 52 0 0
-4.9052 -2.5271 -4.4437 0.288 0.318 0.903 211 105 62 0 0
-4.6603 -2.8047 -4.4046 0.895 0.377 -0.239 208 56 43 0 0
-4.3926 -3.5753 -4.4971 -0.320 0.065 0.945 210 58 49 0 0
-4.2710 -4.5643 -4.7243 0.574 0.716 -0.397 127 68 103 0 0
-4.1894 -4.6485 -4.7088 0.661 0.512 -0.549 156 88 90 0 0
-4.2558 -4.8760 -4.8071 0.471 -0.223 0.853 122 66 87 0 0
-4.2500 -4.9472 -4.8250 0.240 -0.061 0.969 129 86 105 0 0
-4.2267 -5.0512 -4.8437 0.737 -0.210 0.642 139 106 117 0 0
-4.1914 -5.0887 -4.8373 0.393 0.241 0.887 191 162 160 0 0
-3.9277 -5.4615 -4.8166 0.245 0.631 0.736 209 195 188 0 0
-3.9129 -5.4695 -4.8117 0.443 0.487 0.753 208 195 186 0 0
-3.9017 -5.4823 -4.8099 0.443 0.487 0.753 209 194 186 0 0
-3.1140 -6.5483 -4.7342 0.063 0.071 0.995 203 190 184 0 0
-3.1053 -6.5647 -4.7348 0.125 0.023 0.992 203 190 183 0 0
-3.0972 -6.5822 -4.7359 0.087 0.055 0.995 206 195 190 0 0
-3.0898 -6.6010 -4.7377 0.247 0.016 0.969 208 197 194 0 0
-3.0816 -6.6184 -4.7387 0.148 -0.026 0.989 206 194 189 0 0
-3.0191 -6.7974 -4.7601 0.172 0.452 0.875 207 194 187 0 0
-3.0103 -6.8138 -4.7605 0.222 0.378 0.899 206 193 185 0 0
-3.0001 -6.8275 -4.7595 0.184 0.351 0.918 206 193 188 0 0
-2.9852 -6.8321 -4.7536 0.239 0.384 0.892 206 193 186 0 0
-2.9861 -6.8677 -4.7643 0.256 -0.104 0.961 207 195 189 0 0
-2.9805 -6.8905 -4.7682 0.310 -0.086 0.947 206 193 186 0 0
-2.9607 -6.8852 -4.7570 0.369 0.271 0.889 206 193 186 0 0
-2.9604 -6.9188 -4.7666 0.166 0.359 0.918 205 192 186 0 0
-2.9530 -6.9382 -4.7686 -0.067 0.222 0.973 206 193 188 0 0
-2.9296 -6.9253 -4.7534 -0.223 0.117 0.968 208 195 190 0 0
-2.9155 -6.9655 -4.7582 0.691 -0.061 0.720 208 196 191 0 0
-2.8989 -7.0354 -4.7703 0.388 0.273 0.880 195 181 175 0 0
-2.8881 -7.0481 -4.7687 0.104 0.643 0.759 194 180 173 0 0
-2.8745 -7.0549 -4.7641 0.144 0.658 0.739 196 182 174 0 0
-2.8047 -7.1190 -4.7486 0.349 0.059 0.935 204 191 184 0 0
-2.7976 -7.1393 -4.7510 0.502 0.041 0.864 204 191 184 0 0
-2.6555 -7.3677 -4.7478 0.440 -0.156 0.884 202 189 185 0 0
-2.6337 -7.4286 -4.7548 0.052 0.195 0.979 204 191 188 0 0
-2.6265 -7.4492 -4.7572 0.102 0.098 0.990 205 193 190 0 0
-2.6140 -7.4575 -4.7535 0.301 0.030 0.953 203 191 187 0 0
-2.6083 -7.4817 -4.7578 0.263 0.136 0.955 200 189 184 0 0
-2.5501 -7.5328 -4.7442 0.581 0.388 0.716 207 196 192 0 0
-2.5352 -7.6497 -4.7708 0.109 0.340 0.934 197 185 182 0 0
-6.9412 0.8620 -4.4380 0.828 0.319 0.461 208 208 214 0 0
-6.9352 0.8350 -4.4428 0.489 0.539 0.686 204 206 218 0 0
-6.9231 0.8221 -4.4406 0.419 0.550 0.722 205 207 218 0 0
-6.8956 0.7827 -4.4386 0.670 0.057 0.740 200 198 208 0 0
-6.8954 0.7552 -4.4465 0.650 0.483 0.586 203 202 209 0 0
-6.8848 0.7422 -4.4451 0.652 0.341 0.677 205 205 212 0 0
-6.8742 0.7292 -4.4437 0.527 0.455 0.718 207 206 214 0 0
-6.8699 0.7157 -4.4455 0.687 0.332 0.646 209 208 217 0 0
-6.8510 0.7033 -4.4399 0.486 0.327 0.811 205 204 212 0 0
-6.8414 0.6902 -4.4389 0.477 0.363 0.800 204 203 212 0 0
-6.8468 0.6759 -4.4457 0.525 0.167 0.835 206 204 213 0 0
-6.7347 0.2898 -4.5025 0.209 0.795 0.570 206 200 203 0 0
-6.5050 -0.1638 -4.5217 0.177 -0.021 0.984 207 203 204 0 0
-6.3874 -0.4476 -4.5463 0.331 0.127 0.935 205 201 206 0 0
-6.3678 -0.4587 -4.5400 0.094 0.559 0.824 209 204 210 0 0
-6.3168 -0.6043 -4.5572 0.745 -0.134 0.653 205 203 207 0 0
-6.2928 -0.6620 -4.5622 0.315 0.124 0.941 203 198 200 0 0
-6.2050 -1.0476 -4.6307 0.325 0.440 0.837 207 200 201 0 0
-6.1910 -1.0599 -4.6274 0.293 0.504 0.813 211 205 207 0 0
-6.1774 -1.0724 -4.6244 0.259 0.268 0.928 211 206 207 0 0
-6.1639 -1.0848 -4.6214 0.249 0.445 0.860 212 207 208 0 0
-6.1432 -1.0949 -4.6143 0.159 0.736 0.658 211 205 205 0 0
-6.0681 -1.4656 -4.6847 0.391 0.478 0.786 217 217 229 0 0
-6.0776 -1.4871 -4.6955 0.355 0.882 0.308 217 217 228 0 0
-5.9917 -1.7406 -4.7268 0.406 -0.218 0.888 214 203 205 0 0
-5.8298 -2.1526 -4.7669 0.191 0.294 0.937 159 148 180 0 0
-5.8174 -2.1848 -4.7702 0.192 0.169 0.967 148 132 162 0 0
-5.8073 -2.1989 -4.7693 0.171 0.211 0.962 148 125 154 0 0
-5.7941 -2.2115 -4.7665 0.239 0.235 0.942 140 113 137 0 0
-4.9518 -2.4804 -4.4346 0.551 0.299 0.779 210 104 70 0 0
-4.9407 -2.4923 -4.4327 0.391 0.168 0.905 207 111 63 0 0
-4.9362 -2.5085 -4.4352 0.541 0.269 0.797 205 94 51 0 0
-4.9305 -2.5238 -4.4368 0.513 0.043 0.857 206 97 57 0 0
-4.9176 -2.5537 -4.4392 0.556 0.259 0.790 195 99 57 0 0
-4.9095 -2.5675 -4.4392 0.323 0.362 0.874 206 106 67 0 0
-4.8990 -2.5799 -4.4377 0.227 0.489 0.842 197 101 62 0 0
-4.8779 -2.6237 -4.4401 0.548 0.700 0.458 217 140 81 0 0
-4.8670 -2.6357 -4.4382 0.558 0.098 0.824 203 122 67 0 0
-4.4607 -3.3981 -4.4606 -0.040 0.422 0.906 102 61 35 0 0
-4.3980 -3.6216 -4.4945 -0.327 0.069 0.943 208 61 47 0 0
-4.3985 -4.5495 -4.7623 0.852 0.188 -0.489 176 42 46 0 0
-4.2683 -4.5586 -4.7016 0.214 0.699 0.682 137 58 88 0 0
-4.1983 -4.5562 -4.6669 0.980 0.125 -0.152 178 73 65 0 0
-4.1963 -4.5787 -4.6724 0.980 0.125 -0.152 196 112 97 0 0
-4.1943 -4.6012 -4.6780 0.980 0.125 -0.152 186 112 93 0 0
-4.1924 -4.6240 -4.6836 0.991 0.036 -0.125 184 111 93 0 0
-4.1966 -4.6535 -4.6941 0.071 0.761 0.645 181 111 96 0 0
-4.1802 -4.6602 -4.6881 0.071 0.761 0.645 178 110 96 0 0
-4.1615 -4.6642 -4.6802 0.721 0.605 -0.338 139 74 66 0 0
-4.2706 -4.8639 -4.7908 0.852 0.041 -0.521 117 58 77 0 0
-4.2913 -4.9395 -4.8226 0.245 0.850 0.466 117 61 84 0 0
-4.2755 -4.9473 -4.8172 0.824 0.401 0.401 123 74 97 0 0
-4.2669 -4.9635 -4.8177 0.831 -0.140 0.538 133 92 118 0 0
-4.2591 -5.0332 -4.8340 0.475 -0.046 0.879 144 117 147 0 0
-4.2572 -5.0573 -4.8400 0.717 -0.043 0.696 140 114 143 0 0
-4.2067 -5.1301 -4.8365 0.521 0.042 0.853 206 181 181 0 0
-4.2014 -5.1504 -4.8398 0.546 -0.021 0.837 209 186 187 0 0
-3.9683 -5.4555 -4.8144 0.169 0.298 0.939 206 191 183 0 0
-3.9455 -5.4809 -4.8106 0.308 0.333 0.891 209 194 187 0 0
-3.6662 -5.9170 -4.8006 0.487 0.483 0.728 211 199 192 0 0
-3.6533 -5.9271 -4.7973 0.498 0.572 0.652 211 201 195 0 0
-3.6353 -5.9592 -4.7978 0.514 0.446 0.733 210 200 194 0 0
-3.1407 -6.5579 -4.7300 0.117 0.039 0.992 203 190 185 0 0
-3.1326 -6.5754 -4.7311 0.125 0.023 0.992 202 191 187 0 0
-3.1240 -6.5922 -4.7318 0.125 0.023 0.992 204 192 185 0 0
-3.1156 -6.6090 -4.7325 0.082 0.061 0.995 206 194 187 0 0
-3.0131 -6.8451 -4.7508 0.169 0.258 0.951 207 195 189 0 0
-2.9933 -6.8400 -4.7397 -0.089 0.629 0.772 207 193 187 0 0
-2.9677 -6.9596 -4.7617 -0.111 0.156 0.981 206 193 188 0 0
-2.9106 -7.0510 -4.7603 0.253 0.699 0.669 200 186 181 0 0
-2.8977 -7.0594 -4.7565 0.253 0.699 0.669 200 187 182 0 0
-2.8835 -7.0650 -4.7512 0.187 0.690 0.699 202 189 183 0 0
-2.5448 -7.5859 -4.7368 0.885 -0.166 0.434 205 195 191 0 0
-2.5631 -7.6682 -4.7694 0.421 0.245 0.873 200 189 185 0 0
-2.5547 -7.6865 -4.7706 0.273 0.340 0.900 197 185 181 0 0
-6.9559 0.8858 -4.4204 0.826 0.139 0.547 195 192 197 0 0
-6.9432 0.8729 -4.4180 0.772 0.265 0.579 200 196 203 0 0
-6.9501 0.8589 -4.4253 0.802 0.311 0.510 203 201 208 0 0
-6.9573 0.8448 -4.4328 0.517 0.580 0.629 207 206 214 0 0
-6.9502 0.8315 -4.4332 0.931 0.293 0.220 205 204 216 0 0
-6.8941 0.7390 -4.4326 0.513 0.268 0.815 211 211 218 0 0
-6.8868 0.7257 -4.4329 0.513 0.268 0.815 209 210 215 0 0
-6.8793 0.7125 -4.4331 0.632 0.238 0.738 207 207 215 0 0
-6.8740 0.6990 -4.4344 0.485 0.213 0.848 208 207 214 0 0
-6.7557 0.3717 -4.4710 0.218 -0.190 0.957 206 202 207 0 0
-6.7690 0.2977 -4.4987 0.895 0.355 0.272 211 209 214 0 0
-6.6732 0.0756 -4.5161 0.247 -0.057 0.967 204 199 201 0 0
-6.6681 0.0615 -4.5176 0.304 0.038 0.952 207 203 203 0 0
-6.6695 0.0463 -4.5227 0.323 -0.146 0.935 209 205 206 0 0
-6.6670 0.0317 -4.5257 0.470 -0.300 0.830 207 202 203 0 0
-6.6826 0.0140 -4.5383 0.101 0.232 0.967 209 202 204 0 0
-6.5194 -0.1838 -4.5161 0.357 -0.224 0.907 209 207 210 0 0
-6.5166 -0.2292 -4.5277 0.642 -0.181 0.745 218 217 227 0 0
-6.5064 -0.2425 -4.5266 0.532 0.385 0.754 214 214 222 0 0
-6.4973 -0.2561 -4.5261 0.532 0.385 0.754 210 209 215 0 0
-6.4173 -0.4093 -4.5314 0.466 0.016 0.884 204 200 204 0 0
-6.4206 -0.4258 -4.5377 0.389 0.024 0.921 206 201 206 0 0
-6.4068 -0.4382 -4.5346 0.568 0.101 0.817 207 202 206 0 0
-6.3985 -0.4520 -4.5345 0.483 0.331 0.811 203 199 206 0 0
-6.4014 -0.4684 -4.5406 0.163 0.426 0.890 203 200 209 0 0
-6.2303 -0.9397 -4.5931 0.016 0.075 0.997 206 199 199 0 0
-6.1521 -1.1160 -4.6058 0.151 0.095 0.984 208 200 201 0 0
-6.1250 -1.4177 -4.6792 0.447 0.155 0.881 211 205 208 0 0
-6.0219 -1.6812 -4.7049 0.178 0.548 0.817 213 203 204 0 0
-5.9961 -1.7432 -4.7103 0.464 -0.153 0.872 210 201 202 0 0
-5.9430 -1.9795 -4.7524 0.386 0.551 0.740 204 189 195 0 0
-5.9305 -1.9925 -4.7501 0.386 0.580 0.718 199 185 194 0 0
-5.8680 -2.1527 -4.7658 0.209 0.264 0.942 166 153 181 0 0
-5.8548 -2.1654 -4.7631 0.216 0.123 0.969 161 145 177 0 0
-5.8387 -2.1959 -4.7640 0.192 0.169 0.967 137 112 136 0 0
-5.8315 -2.2115 -4.7650 0.181 0.225 0.957 141 113 135 0 0
-5.3876 -2.2637 -4.5652 -0.093 0.754 0.651 175 51 43 0 0
-4.9732 -2.4746 -4.4251 0.438 0.514 0.737 202 61 42 0 0
-4.9631 -2.4872 -4.4239 0.629 0.444 0.639 202 73 48 0 0
-4.9546 -2.5008 -4.4237 0.419 0.299 0.858 220 115 71 0 0
-4.9458 -2.5142 -4.4233 0.419 0.299 0.858 201 89 44 0 0
-4.9449 -2.5326 -4.4281 0.452 0.093 0.887 211 111 67 0 0
-4.9286 -2.5603 -4.4282 0.425 0.221 0.878 204 101 59 0 0
-4.9262 -2.5779 -4.4320 0.227 0.281 0.933 180 59 30 0 0
-4.8881 -2.6299 -4.4285 0.452 0.239 0.859 203 119 66 0 0
-4.8551 -2.8022 -4.4620 0.178 -0.408 0.895 200 74 45 0 0
-4.8596 -2.8251 -4.4707 0.162 -0.395 0.904 198 69 46 0 0
-4.1800 -4.6321 -4.6603 0.813 0.425 -0.398 183 116 95 0 0
-4.1539 -4.6526 -4.6536 0.790 0.585 -0.184 180 113 90 0 0
-4.2209 -5.1435 -4.8269 0.546 -0.021 0.837 203 176 176 0 0
-4.2161 -5.1645 -4.8306 0.546 -0.021 0.837 205 180 180 0 0
-4.2116 -5.1859 -4.8345 0.559 -0.058 0.827 205 184 183 0 0
-4.0864 -5.3836 -4.8307 0.225 0.815 0.534 211 200 195 0 0
-4.0726 -5.3934 -4.8268 0.294 0.767 0.570 213 202 200 0 0
-3.5122 -6.1219 -4.7646 -0.014 0.299 0.954 207 193 184 0 0
-3.3212 -6.4243 -4.7590 0.515 -0.170 0.840 208 195 189 0 0
-3.1596 -6.5854 -4.7270 0.143 -0.028 0.989 204 191 185 0 0
-3.1452 -6.6240 -4.7311 0.077 -0.025 0.997 203 191 185 0 0
-3.0504 -6.8763 -4.7577 0.240 -0.043 0.970 205 191 184 0 0
-3.0385 -6.9209 -4.7647 0.200 -0.047 0.979 202 188 181 0 0
-3.0337 -6.9456 -4.7694 -0.119 -0.045 0.992 205 192 186 0 0
-3.0239 -6.9604 -4.7689 -0.119 -0.045 0.992 206 193 187 0 0
-3.0080 -6.9633 -4.7621 -0.218 0.142 0.966 208 195 190 0 0
-2.9392 -7.0666 -4.7585 0.317 0.622 0.716 202 189 181 0 0
-2.9226 -7.0674 -4.7506 0.602 0.517 0.609 201 188 181 0 0
-2.9057 -7.0674 -4.7424 0.452 0.866 0.213 206 193 186 0 0
-2.9012 -7.0931 -4.7476 0.587 0.504 0.633 207 195 188 0 0
-2.5533 -7.5578 -4.7127 0.858 -0.126 0.497 207 195 193 0 0
-2.5537 -7.5968 -4.7240 0.916 -0.223 0.335 205 193 190 0 0
-2.5736 -7.6831 -4.7584 0.624 0.480 0.617 199 188 185 0 0
-2.5730 -7.7201 -4.7687 0.887 0.275 0.371 199 188 184 0 0
-6.9817 0.8954 -4.4123 0.452 0.756 0.474 198 195 203 0 0
-6.9590 0.8558 -4.4126 0.674 0.491 0.552 196 192 200 0 0
-6.8281 0.5749 -4.4298 0.165 0.497 0.852 200 196 202 0 0
-6.7692 0.3678 -4.4606 0.362 -0.302 0.882 207 203 206 0 0
-6.7718 0.2950 -4.4826 0.746 0.645 0.166 206 205 210 0 0
-6.7037 0.0686 -4.5144 0.047 0.161 0.986 209 206 210 0 0
-6.6880 0.0561 -4.5104 0.076 0.255 0.964 206 205 211 0 0
-6.6754 0.0432 -4.5080 0.076 0.255 0.964 208 207 213 0 0
-6.7029 0.0085 -4.5312 0.993 0.065 0.102 213 212 218 0 0
-6.6923 -0.0351 -4.5385 0.582 0.811 0.064 203 197 198 0 0
-6.6628 -0.0451 -4.5272 0.608 0.502 0.615 201 193 194 0 0
-6.6532 -0.0586 -4.5264 0.592 0.154 0.791 205 196 197 0 0
-6.6430 -0.0720 -4.5253 0.280 0.358 0.891 203 196 197 0 0
-6.5377 -0.2047 -4.5125 0.358 -0.143 0.923 211 208 213 0 0
-6.4389 -0.4318 -4.5298 0.380 0.084 0.921 208 203 208 0 0
-6.4400 -0.4477 -4.5348 0.173 0.255 0.951 209 205 208 0 0
-6.4283 -0.4608 -4.5329 0.209 0.248 0.946 208 203 209 0 0
-6.2761 -0.9385 -4.5960 0.319 -0.037 0.947 206 196 195 0 0
-6.2715 -0.9537 -4.5981 0.319 -0.037 0.947 207 199 199 0 0
-6.2732 -0.9710 -4.6039 0.437 0.017 0.899 211 206 208 0 0
-6.2658 -0.9855 -4.6044 0.569 -0.074 0.819 216 213 217 0 0
-6.2415 -1.0620 -4.6146 0.300 0.191 0.935 213 207 209 0 0
-6.1838 -1.2306 -4.6350 0.189 0.011 0.982 210 200 201 0 0
-6.1032 -1.4812 -4.6677 0.506 0.434 0.745 215 210 213 0 0
-6.0908 -1.4942 -4.6654 0.383 0.826 0.414 215 209 213 0 0
-6.0741 -1.5590 -4.6759 0.489 0.079 0.869 216 207 208 0 0
-6.0695 -1.5751 -4.6782 0.431 0.092 0.898 214 205 205 0 0
-6.0641 -1.5909 -4.6801 0.496 0.193 0.847 211 201 202 0 0
-6.0512 -1.6217 -4.6827 0.752 -0.232 0.616 210 200 202 0 0
-6.0484 -1.6567 -4.6914 0.659 -0.104 0.745 213 204 206 0 0
-6.0115 -1.7506 -4.7004 0.288 0.015 0.957 214 203 204 0 0
-5.9728 -1.9939 -4.7512 0.483 0.465 0.742 207 193 200 0 0
-5.8975 -2.1485 -4.7591 0.125 0.382 0.916 173 158 183 0 0
-5.8603 -2.2071 -4.7579 0.139 0.129 0.982 148 121 143 0 0
-5.8539 -2.2232 -4.7595 0.124 0.286 0.950 140 111 134 0 0
-5.8234 -2.2271 -4.7459 0.236 0.773 0.588 131 100 123 0 0
-5.0652 -2.4552 -4.4457 -0.023 0.746 0.665 200 59 43 0 0
-5.0448 -2.4617 -4.4377 -0.023 0.746 0.665 200 60 42 0 0
-5.0011 -2.4727 -4.4198 0.310 0.446 0.840 202 61 42 0 0
-4.9898 -2.4846 -4.4177 0.310 0.446 0.840 201 62 42 0 0
-4.9109 -2.6251 -4.4199 0.370 0.175 0.912 218 137 79 0 0
-4.9014 -2.6381 -4.4190 0.579 0.341 0.740 197 113 55 0 0
-4.8925 -2.6516 -4.4186 0.542 0.048 0.839 212 129 74 0 0
-4.8891 -2.8052 -4.4608 0.091 -0.358 0.929 196 63 41 0 0
-4.8850 -2.8221 -4.4636 0.110 -0.337 0.935 201 59 43 0 0
-4.1355 -4.6289 -4.6185 0.469 0.853 -0.228 185 118 92 0 0
-4.2310 -5.1520 -4.8139 0.593 -0.140 0.793 189 158 162 0 0
-3.8951 -5.6855 -4.8043 0.255 0.220 0.942 212 199 193 0 0
-3.8909 -5.7083 -4.8088 0.685 -0.168 0.708 211 199 191 0 0
-3.8828 -5.7257 -4.8099 0.558 -0.267 0.786 210 199 190 0 0
-3.7867 -5.8496 -4.7990 0.306 0.453 0.837 209 196 189 0 0
-3.5345 -6.2127 -4.7812 0.307 0.166 0.937 210 198 191 0 0
-3.3602 -6.4851 -4.7749 0.268 0.685 0.678 209 197 191 0 0
-3.1550 -6.8333 -4.7755 0.079 0.410 0.909 207 196 189 0 0
-3.0480 -6.8976 -4.7423 0.040 0.009 0.999 204 190 183 0 0
-3.0374 -6.9792 -4.7605 -0.125 0.038 0.991 205 192 186 0 0
-2.9305 -7.0751 -4.7364 0.603 0.347 0.718 207 193 186 0 0
-2.9219 -7.0923 -4.7372 0.555 0.287 0.781 207 193 186 0 0
-2.9096 -7.1020 -4.7340 0.602 0.517 0.609 207 193 189 0 0
-2.8985 -7.1140 -4.7321 0.497 0.627 0.600 206 193 188 0 0
-2.7019 -7.5185 -4.7529 -0.070 0.479 0.875 205 192 187 0 0
-2.5778 -7.6060 -4.7181 0.511 -0.173 0.842 201 188 185 0 0
-2.5809 -7.6515 -4.7326 0.397 -0.068 0.915 201 189 186 0 0
-2.5794 -7.6863 -4.7418 0.345 0.053 0.937 198 186 181 0 0
-2.5134 -7.7583 -4.7305 0.084 -0.052 0.995 197 184 180 0 0
-6.9131 0.6910 -4.4196 0.590 -0.134 0.796 206 203 210 0 0
-6.8713 0.6107 -4.4224 0.488 -0.014 0.873 201 200 207 0 0
-6.8725 0.5824 -4.4310 0.348 0.175 0.921 205 203 209 0 0
-6.8427 0.5429 -4.4280 0.340 -0.098 0.935 201 195 200 0 0
-6.8202 0.4600 -4.4407 0.279 -0.050 0.959 205 200 202 0 0
-6.8101 0.4326 -4.4437 0.219 -0.098 0.971 199 194 196 0 0
-6.8102 0.4182 -4.4478 0.132 -0.051 0.990 201 195 197 0 0
-6.7795 0.3063 -4.4649 0.820 0.370 0.438 205 204 210 0 0
-6.7734 0.2926 -4.4658 0.746 0.645 0.166 203 202 207 0 0
-6.7533 0.1483 -4.4972 0.783 -0.511 0.356 208 203 206 0 0
-6.7269 0.0777 -4.5046 0.449 -0.132 0.884 207 204 207 0 0
-6.7321 0.0619 -4.5116 0.172 0.319 0.932 208 207 212 0 0
-6.7149 0.0497 -4.5068 0.169 0.178 0.969 209 208 216 0 0
-6.7165 0.0344 -4.5119 0.557 0.485 0.675 205 205 216 0 0
-6.7094 0.0205 -4.5125 0.759 0.530 0.377 205 206 217 0 0
-6.7049 -0.0241 -4.5230 0.868 0.420 -0.264 214 212 220 0 0
-6.6772 -0.0497 -4.5170 0.804 0.593 -0.037 204 198 198 0 0
-6.4896 -0.4137 -4.5304 -0.052 0.277 0.960 209 204 207 0 0
-6.4907 -0.4455 -4.5400 0.195 0.729 0.656 209 204 208 0 0
-6.4738 -0.4574 -4.5353 0.169 0.637 0.752 207 203 207 0 0
-6.4599 -0.4699 -4.5321 0.186 0.545 0.817 209 204 209 0 0
-6.4432 -0.4818 -4.5275 0.191 0.443 0.876 210 205 211 0 0
-6.4457 -0.4983 -4.5334 0.448 0.221 0.866 209 207 213 0 0
-6.4545 -0.5163 -4.5427 0.787 0.550 0.280 210 206 212 0 0
-6.4445 -0.5617 -4.5509 0.245 0.554 0.796 209 205 209 0 0
-6.2854 -0.9929 -4.5971 0.501 0.288 0.816 207 199 200 0 0
-6.2771 -1.0072 -4.5971 0.501 0.288 0.816 206 198 200 0 0
-6.2541 -1.0674 -4.6032 0.221 0.179 0.959 207 200 201 0 0
-6.1923 -1.1661 -4.6016 0.169 -0.111 0.979 214 206 205 0 0
-6.1765 -1.4214 -4.6666 0.138 0.474 0.870 208 197 193 0 0
-6.1644 -1.4346 -4.6646 0.266 0.320 0.909 209 198 195 0 0
-6.1231 -1.4899 -4.6605 0.432 0.128 0.893 213 206 206 0 0
-6.1102 -1.5924 -4.6834 0.495 0.556 0.668 213 203 202 0 0
-6.0804 -1.6345 -4.6810 0.757 -0.115 0.644 209 199 198 0 0
-6.0613 -1.6448 -4.6748 -0.028 0.066 0.997 215 205 205 0 0
-6.0368 -1.7622 -4.6964 0.459 -0.178 0.870 219 209 211 0 0
-5.9200 -2.1601 -4.7535 0.060 0.409 0.910 167 143 163 0 0
-5.8876 -2.2212 -4.7553 0.062 0.117 0.991 145 114 134 0 0
-5.8727 -2.2331 -4.7515 0.066 0.368 0.928 132 102 122 0 0
-5.8355 -2.2335 -4.7338 0.140 0.727 0.672 129 96 114 0 0
-5.7957 -2.2326 -4.7144 0.082 0.975 0.206 121 87 103 0 0
-4.9929 -2.5052 -4.4068 0.308 0.417 0.855 202 62 44 0 0
-4.9594 -2.5793 -4.4118 0.440 0.267 0.857 216 111 79 0 0
-4.9150 -2.6466 -4.4097 0.452 0.239 0.859 218 129 85 0 0
-4.9168 -2.8235 -4.4608 0.103 -0.233 0.967 196 59 44 0 0
-4.9174 -2.8438 -4.4668 0.148 -0.345 0.927 199 58 44 0 0
-4.8980 -2.9301 -4.4820 -0.050 0.550 0.834 197 49 36 0 0
-4.4996 -3.7956 -4.5369 0.851 -0.044 -0.523 212 67 58 0 0
-4.2918 -5.1141 -4.8119 0.952 0.144 0.270 140 107 126 0 0
-4.2806 -5.1275 -4.8103 0.295 0.593 0.749 146 116 135 0 0
-4.1896 -5.2866 -4.8119 0.192 0.127 0.973 209 190 183 0 0
-4.1687 -5.3152 -4.8100 -0.063 0.467 0.882 212 196 189 0 0
-3.9710 -5.5577 -4.7841 0.351 0.205 0.913 211 197 189 0 0
-3.9380 -5.6544 -4.7957 0.509 0.099 0.855 210 197 189 0 0
-3.9108 -5.7025 -4.7963 0.267 0.147 0.953 208 195 187 0 0
-3.8018 -5.8664 -4.7907 0.177 0.280 0.943 206 192 185 0 0
-3.7774 -5.8895 -4.7855 0.447 0.228 0.865 210 196 190 0 0
-3.7745 -5.9146 -4.7913 0.465 0.032 0.885 208 193 186 0 0
-3.7681 -5.9347 -4.7939 0.465 0.032 0.885 209 195 187 0 0
-3.7541 -5.9436 -4.7897 0.491 0.188 0.850 208 194 186 0 0
-3.7268 -5.9622 -4.7819 0.263 0.204 0.943 209 196 189 0 0
-3.5547 -6.2085 -4.7693 -0.005 0.283 0.959 206 192 184 0 0
-3.5479 -6.2283 -4.7717 0.246 0.320 0.915 207 193 185 0 0
-3.5444 -6.2534 -4.7772 0.402 0.047 0.915 206 193 185 0 0
-3.3298 -6.5857 -4.7687 0.022 0.398 0.917 208 195 189 0 0
-3.2927 -6.6172 -4.7598 0.161 0.183 0.970 205 192 185 0 0
-3.2484 -6.6678 -4.7529 0.388 -0.041 0.921 205 191 185 0 0
-3.1757 -6.8313 -4.7645 0.196 0.110 0.975 208 195 187 0 0
-3.1676 -6.8497 -4.7659 0.040 0.696 0.717 208 195 187 0 0
-3.0950 -6.9134 -4.7491 -0.132 0.199 0.971 207 195 190 0 0
-3.0752 -6.9088 -4.7384 -0.056 0.003 0.998 206 193 185 0 0
-3.0683 -6.9294 -4.7409 0.015 0.037 0.999 205 191 183 0 0
-3.0494 -6.9265 -4.7310 -0.092 0.095 0.991 205 191 183 0 0
-3.0549 -6.9713 -4.7464 -0.218 0.354 0.909 205 191 185 0 0
-3.0536 -7.0031 -4.7548 0.154 -0.023 0.988 204 192 184 0 0
-2.9338 -7.1787 -4.7472 0.550 -0.078 0.832 207 194 189 0 0
-2.9355 -7.2178 -4.7591 0.021 0.282 0.959 208 195 192 0 0
-2.6029 -7.6554 -4.7239 0.394 -0.053 0.918 204 190 187 0 0
-2.5966 -7.6788 -4.7276 0.346 -0.070 0.936 200 186 183 0 0
-2.5415 -7.7775 -4.7292 0.084 -0.052 0.995 200 187 182 0 0
-2.5148 -7.9084 -4.7536 0.400 0.716 0.572 202 191 185 0 0
-6.8935 0.6062 -4.4163 0.266 -0.353 0.897 208 205 211 0 0
-6.8306 0.4136 -4.4408 0.248 -0.119 0.961 201 195 196 0 0
