ply
format ascii 1.0
element vertex 689
property float x
property float y
property float z
property uchar diffuse_red
property uchar diffuse_green
property uchar diffuse_blue
end_header
-4.857751340015007 -3.46474978059817 -3.4192122507735303 179 140 71
-4.842372446667323 -3.4864496346369056 -3.408173100329465 178 139 70
-4.853506034632191 -3.498906646151138 -3.411573078616124 175 138 69
-4.8677797672715055 -3.510327232291984 -3.416673726636433 175 138 64
-4.905371915056388 -3.5138600238857385 -3.4344345885841636 175 137 59
-4.9124725713899045 -3.5278735440130107 -3.4356136252760052 170 131 45
-4.915048474116006 -3.543428345078141 -3.4343343006994402 166 127 39
-4.9138932496365015 -3.5602275331695905 -3.431032132731175 166 125 37
-4.926014916775749 -3.5726121299602136 -3.4349258840726935 168 128 44
-4.926256404891846 -3.588948035283447 -3.4323805342332045 171 131 53
-4.930137318257009 -3.604084786073077 -3.431805923197736 171 129 56
-4.90685527881917 -3.6280303828485208 -3.416545646649107 164 123 51
-4.904747358080658 -3.6450418521208543 -3.412744163212829 155 112 44
-4.8974798039907865 -3.6636789272513615 -3.4061608883045142 144 102 37
-4.893878571984108 -3.6811073636378278 -3.4015630181582694 144 99 33
-4.896265785894503 -3.6966224937358207 -3.40019812179802 153 108 40
-4.899768414860054 -3.7117884127746468 -3.3994342351327846 166 118 50
-4.90713364736054 -3.7420226173426148 -3.3980979676934164 152 108 46
-4.902321592566379 -3.7597403788996093 -3.3928623124637567 203 188 138
-4.918352472670032 -3.7711104202877426 -3.3988283062572218 169 151 96
-4.941077802117528 -3.7805316257531594 -3.4083774421281685 169 146 85
-4.949489002404311 -3.7943156990989584 -3.410233144531758 189 174 112
-4.978172192504894 -3.8184843326917703 -3.420284236802058 204 197 131
-4.99121294932894 -3.8310298730826733 -3.424600066341824 179 157 90
-4.990190141582613 -3.8476863556824537 -3.421385753347976 136 101 40
-4.994485250100735 -3.8628023012909734 -3.421016571198786 142 102 38
-4.978982603794085 -3.8835521548956646 -3.4100719290339376 151 106 38
-4.967443458337224 -3.9031005217231853 -3.4012564842887176 149 105 30
-4.9708905702731805 -3.9183941975376193 -3.400444689976575 142 97 24
-4.967012862177295 -3.935722200897517 -3.3957283326214474 148 100 21
-4.971046041495118 -3.9508457482660395 -3.395230146725423 179 131 41
-5.147352850303402 -4.379973288259529 -3.4112714624766696 131 86 18
-5.111319761041393 -4.403678825367106 -3.3898305825410304 172 117 23
-5.120296494550232 -4.418044882181576 -3.3918672649156645 208 172 54
-5.069970948657693 -4.444378689334773 -3.3630263039524797 201 178 38
-5.092648242273242 -4.4559408349857135 -3.372202984298926 184 158 36
-5.028335158452685 -4.643770687598015 -3.310211426936071 75 36 12
-5.049806552928408 -4.6559210554162895 -3.318703996504618 113 76 45
-5.082719273824436 -4.66621499898547 -3.333080086365502 187 155 96
-5.092611854760886 -4.680499811879969 -3.335576747783866 115 75 22
-5.117414102189615 -4.692354444317408 -3.345742261050616 133 91 21
-5.129401231064983 -4.706397017919811 -3.3493000970839084 167 127 23
-7.3217193261344535 -7.551792640863127 -3.954806898750607 213 201 190
-7.314286221078548 -7.587735823991597 -3.94532156121038 209 195 186
-7.309179938756533 -7.605407171581952 -3.9399499535313196 211 197 188
-7.298210280301288 -7.6590582438958545 -3.9258527374430825 216 205 197
-7.274116047167729 -7.948772193572927 -3.866869685204233 215 205 197
-7.274921344025926 -7.967243994696742 -3.8642511492667118 216 205 198
-7.27048486384301 -7.984512307772155 -3.8592719636154174 216 205 198
-7.2549177360135335 -7.9991930094296375 -3.8492852855055184 215 205 197
-7.263118678521287 -8.019308444800153 -3.850006264315088 216 206 197
-7.242440347905196 -8.032694049804986 -3.837737562721504 216 206 197
-7.2520736601133375 -8.053129994963076 -3.8391049756271545 214 204 195
-7.242052883240018 -8.068920694146744 -3.8316427542467992 213 203 195
-7.275550124152507 -8.724578727062267 -3.7410941714808157 210 197 187
-7.251646186111487 -9.588991216119092 -3.588514326394331 209 194 177
-5.945627781280833 0.9425453135464914 -4.6462763078654525 200 199 207
-5.9505307707108805 0.9246719418937729 -4.645749437754148 205 204 210
-5.9671976101130895 0.9167961362964834 -4.6525579992322035 207 206 212
-5.98109849661768 0.9065006868236365 -4.657630612961194 204 203 209
-5.9938586711173185 0.8951821475666116 -4.661983203140011 202 201 207
-5.9816778405691515 0.8628018147830052 -4.650805516800796 204 200 206
-5.994324373530161 0.8513514281008447 -4.655081509639095 202 197 201
-6.01137674595929 0.8435360091774307 -4.662087011223403 202 196 198
-6.011675172170975 0.8216703184057786 -4.6586760687106805 200 195 198
-6.016617307920686 0.8036812190850882 -4.658149378868175 202 200 203
-6.020657642924883 0.7849355111064783 -4.657061957045722 204 203 210
-6.022487608748131 0.7643600041118683 -4.654604162550342 203 202 210
-6.021788548216983 0.7417106460281939 -4.6505816461982725 202 200 207
-6.024676040825057 0.7220250285952045 -4.648781840022742 203 202 208
-6.030965889958828 0.7051230129327092 -4.649086049357114 201 198 207
-6.017393913314075 0.6720199866609962 -4.637115640493703 200 198 205
-6.019981654383698 0.6521323734903739 -4.63513750023813 202 199 206
-6.025177974766718 0.6343595546608919 -4.6347693513658 205 202 208
-6.032744648391754 0.6184879658869237 -4.635860840168802 206 204 209
-6.042316615496277 0.6042047192857547 -4.63818390173696 206 204 207
-6.048633711980297 0.5872791362210621 -4.6384975031702975 208 204 207
-6.049529270892771 0.5660079381655462 -4.635473057538036 206 201 205
-6.066158518156725 0.5572690281523068 -4.642123016016133 205 200 202
-6.081738772185183 0.5476252984727596 -4.648116700043893 204 197 198
-6.0993767209458625 0.5395405263562528 -4.655362611496654 203 195 195
-6.111571344754744 0.5270905647753011 -4.659256718099281 202 194 194
-6.116388101987422 0.5088015804852486 -4.658620408164765 204 196 196
-6.1139182333979285 0.4848050818569286 -4.653519351582555 207 200 204
-6.108505911661496 0.4585462576172659 -4.646622265116302 209 206 211
-6.105751921983141 0.43439910950023286 -4.641358810652771 209 207 214
-6.10756834921132 0.4138219142493835 -4.638894170600615 209 209 215
-6.116760478997747 0.3989411956960975 -4.640935716027463 210 210 217
-6.12339074308287 0.3820593123165172 -4.6414084210780455 207 206 212
-6.126893821677895 0.36276410265009035 -4.639970879995905 207 205 210
-6.140037265143842 0.3508248155577349 -4.644408545743011 205 203 208
-6.1467843086654375 0.3339678080616573 -4.644941975480911 207 206 211
-6.156163907805774 0.3190868643360994 -4.647074473323505 210 207 213
-6.153653327231326 0.29519475306765264 -4.641970632416524 210 208 214
-6.1697392693137685 0.285325691807636 -4.64817311097093 213 212 217
-6.181627687108009 0.2722406863890957 -4.651815328776148 214 213 219
-6.19591113099351 0.26089844600027545 -4.656903389843913 213 211 216
-6.197407148921144 0.23997884092209984 -4.654227555329488 208 204 204
-6.19776707842545 0.2182261429311122 -4.650864838511581 206 199 200
-6.191380046618154 0.19150317380365484 -4.643419193494988 206 200 200
-6.190073154641921 0.16857239747302452 -4.639055899556101 207 202 201
-6.190187294412773 0.14670856483353292 -4.635555815018687 207 201 201
-6.189893929352554 0.12456368215810766 -4.631812242130659 206 200 200
-6.191372475367015 0.10372821223839715 -4.629141609556977 204 198 198
-6.194971809654303 0.08444108816751494 -4.627752101451172 205 199 199
-6.198461950341371 0.06507318606386564 -4.626296459702872 206 200 202
-6.21029742232666 0.05171494782958162 -4.6298685470896705 208 202 204
-6.189744984876506 0.015069127457512942 -4.613934015494339 206 200 200
-6.202402431823685 0.0022933949801019495 -4.61799977857936 206 199 200
-6.2095598271692 -0.014450002011642716 -4.618750849556118 206 198 199
-6.223992664113031 -0.02605126278172368 -4.623869297436124 203 197 199
-6.233823484023419 -0.04096540158099779 -4.626215399000072 203 196 197
-6.2434871168528625 -0.056032164330936066 -4.628455536005576 203 197 197
-6.249985124114113 -0.07335410424956207 -4.628792487936474 207 202 203
-6.2575409387749765 -0.0899537432706903 -4.629760311221328 209 205 206
-6.254385580234753 -0.11403511818349896 -4.624312746703232 208 203 204
-6.257567851198524 -0.13368590027053104 -4.622661677334688 208 203 202
-6.255509375575262 -0.15695808109869044 -4.61787808015153 208 201 200
-6.251169364949642 -0.18177287784977295 -4.611736271201572 207 201 201
-6.265462382426485 -0.1937688012429174 -4.61672267733165 207 201 201
-6.266556930763677 -0.21483977790573408 -4.6138273719242475 207 202 203
-6.280447521853396 -0.2708215425150239 -4.611465508816396 210 205 206
-6.295885853438203 -0.2822263914748458 -4.617103918081138 210 206 206
-6.304503388084253 -0.32008361236884586 -4.615130156958745 207 199 199
-6.308466175473551 -0.3392504006298642 -4.613936621266406 202 193 191
-6.3059797432624025 -0.36269124113958273 -4.6089178862360685 196 188 184
-6.314345863216923 -0.3789442145938708 -4.610335369113187 198 189 186
-6.324563451216008 -0.39400757591106594 -4.612844923710465 204 195 193
-6.342589511339165 -0.4258132292687164 -4.616421731802021 210 207 210
-4.905100584047198 -3.0664351089103126 -3.4893142092023686 213 184 49
-4.933382898779162 -3.071774991198203 -3.5021727803543916 213 184 49
-4.920364176602731 -3.0937807442435776 -3.4922755274677466 213 183 47
-4.942159554308669 -3.1018514187450417 -3.5015415569509156 212 179 43
-4.9279059570667245 -3.1242787668117398 -3.4909763927808606 207 167 46
-4.922026396957771 -3.143331396591438 -3.4850243970445436 150 107 21
-4.912470137809015 -3.163780143487873 -3.4770608643986347 180 136 46
-4.899877154340859 -3.185349883310794 -3.4674411497671893 187 145 47
-4.889478497251344 -3.2059993238498916 -3.459036119091601 156 115 31
-4.902542306026009 -3.217585040880232 -3.4634926311507597 160 118 40
-4.903659036296863 -3.233775741380569 -3.461401719286179 167 126 47
-4.894557923593965 -3.2538301944486347 -3.4537232136819056 175 134 53
-4.892124087924608 -3.271318667756049 -3.449697976823858 173 135 58
-4.905795912281644 -3.2827588690509275 -3.4544732554604494 173 141 62
-4.91500491340259 -3.2959107240262275 -3.456804136170656 181 154 80
-4.92001293958924 -3.310645428576509 -3.4568386541631373 183 157 84
-4.922159964865613 -3.3264412165301747 -3.455312020708963 169 136 69
-4.9323510884641495 -3.3393030314951884 -3.4581667447860562 150 111 45
-4.907710605744214 -3.364812776411653 -3.4420590049683706 138 101 39
-4.878167559103281 -3.39195582864669 -3.4233061778843283 144 105 37
-4.842015103079001 -3.4213071114159863 -3.4009863453143545 172 136 68
-4.8309361127745865 -3.441574668051142 -3.392313213795236 182 145 78
-4.853781965715479 -3.449817427387472 -3.402061111488787 179 140 69
-4.8450293624361125 -3.469221163582695 -3.3946575755570993 180 139 65
-4.844226901851536 -3.4858061394377784 -3.3915710595922692 176 136 61
-4.862829350730341 -3.495672589318477 -3.398995359881063 174 134 61
-4.883383474374642 -3.504945722141223 -3.407463398508334 172 131 54
-4.900280316381787 -3.5155500650254226 -3.413939879688028 173 133 56
-4.9084994182720605 -3.529157845815267 -3.4157161663063422 172 137 58
-4.92694320599653 -3.539357708302165 -3.423009240392966 174 145 68
-4.9241368987966165 -3.556720558461812 -3.41882365168096 172 142 64
-4.915169226692613 -3.57609838851894 -3.4113199440378086 170 136 55
-4.913064161814117 -3.5931650281670344 -3.4075228757799887 164 126 42
-4.912248272848164 -3.6097886453904673 -3.4044235584591425 167 126 47
-4.903276707004349 -3.6290394135208017 -3.3969386237039725 166 122 47
-4.891564131461212 -3.649117549066758 -3.3879887824843866 166 120 40
-4.884831235658702 -3.6675379124439296 -3.381725435474571 162 118 39
-4.8952305946976855 -3.6804831226071903 -3.3846676658166945 158 114 37
-4.900102520392836 -3.695204498221164 -3.3846382944110216 150 106 33
-4.90501146232683 -3.7099251257413473 -3.3846270106458616 151 105 33
-4.921313137914415 -3.7374047546700666 -3.3880703768877014 141 95 27
-4.913998437071205 -3.755905025705168 -3.3815116538406356 148 107 48
-4.929080067827418 -3.7675744304285743 -3.3869339149775644 178 143 83
-4.948182572852482 -3.7780938283454333 -3.3944947376032557 179 144 74
-4.960936683631135 -3.7905839615217607 -3.398653860861427 179 144 70
-4.972822504906922 -3.8033786026241025 -3.4023420372985704 181 146 69
-4.985227426250905 -3.816064318652524 -3.4062998744469177 177 139 62
-4.999626570955126 -3.828215099421896 -3.4113126070602102 158 119 39
-4.997907262753921 -3.845077528565148 -3.4077359759994725 151 109 31
-5.003342050481044 -3.859869703225414 -3.4079682787330055 164 117 35
-4.984998192180778 -3.8814337427480794 -3.3955582799860236 173 124 36
-4.97106160759289 -3.901657792110581 -3.3855052782837505 175 125 36
-4.989176539368605 -3.912844088646301 -3.3924783274771686 162 111 30
-4.975486573612599 -3.9329205038541497 -3.382569031427582 152 102 19
-4.976699699956646 -3.9488239978643973 -3.380571611138621 171 120 34
-5.004169839732204 -3.957563368418393 -3.3924831671370543 166 116 27
-5.0056204205506125 -3.9734508625907208 -3.3906035982515905 166 116 29
-5.027734269759249 -3.9837960421892418 -3.3996543206150127 163 112 23
-5.066179439556636 -3.989893319778692 -3.4173223087277425 170 116 26
-5.074222803052107 -4.004162323248773 -3.418905772365328 174 120 29
-5.233622672351359 -4.195739635835102 -3.4651169815910525 121 87 11
-5.236908406215241 -4.228163932729594 -3.4614389074059777 137 102 27
-5.159134228172385 -4.392910115983178 -3.3968999645905167 126 74 8
-5.181500597743687 -4.404641407960753 -3.4058478400398284 173 117 14
-5.097404055209676 -4.437909756231732 -3.3596211543046293 232 219 40
-5.10605667797272 -4.452310303543348 -3.3614789328928025 213 197 39
-5.137702068978271 -4.4622105617107595 -3.3752281816809684 187 153 27
-5.048689018690836 -4.654990157770153 -3.3006756293196977 79 44 7
-5.076018002813984 -4.666210712499674 -3.312115186218782 161 119 40
-5.095154647587845 -4.678915513070079 -3.3193371899051023 165 120 26
-5.124369330561581 -4.69002810434416 -3.3317095355586455 179 135 14
-5.136900790942451 -4.7039814386657675 -3.3355226496646972 217 179 38
-7.342102242183716 -7.5699380854676726 -3.93976630258234 211 198 189
-7.344539418849019 -7.589061934468144 -3.9378392881152515 210 197 187
-7.337721453837421 -7.606463597536242 -3.9317003128152224 210 197 188
-7.335819295939152 -7.624748163545705 -3.9278036678858315 215 202 194
-7.330154130616303 -7.642298407817245 -3.9222000465425753 215 205 195
-7.331667206488135 -7.661189567867585 -3.9198623556307806 216 206 197
-7.293502606426111 -7.96691892398082 -3.8516214916061906 217 206 200
-7.269629897799554 -7.979793467927784 -3.8379411226054034 217 206 200
-7.288825321931077 -8.002437243136466 -3.843575385275994 216 206 198
-7.277766126985017 -8.01814719157919 -3.8356530169024934 217 206 199
-7.262740298732601 -8.051067708577508 -3.823006654638809 214 204 193
-7.2732198955231695 -8.07173211215567 -3.8247325383165847 213 203 193
-7.277830278230913 -8.737955534461669 -3.718629371701967 210 197 185
-7.278940768554947 -8.756047786951111 -3.716226202061296 210 197 185
-7.314539588793877 -9.522104092269956 -3.608928642075905 212 199 183
-5.977909501427691 0.9439768693612511 -4.640061847296537 202 200 207
-5.993551111593998 0.9351690769576065 -4.646186894888754 204 203 209
-6.009236836068107 0.9263300136391025 -4.652328173990907 203 200 207
-6.012815347658216 0.885047881361656 -4.647359741435817 204 201 207
-6.029146535681478 0.8766208897475168 -4.653879578935601 198 193 197
-6.033978554057162 0.8585044757235542 -4.653274342999892 197 191 193
-6.037226808458722 0.8390590868649066 -4.651688678931314 199 193 194
-6.0413453729556785 0.8203367421083776 -4.6506406030505945 198 194 197
-6.048788476970997 0.8043625812032488 -4.651643846480712 199 197 204
-6.04522883919328 0.7792843214649686 -4.645856705160084 201 200 207
-6.050923036598094 0.7397449536473398 -4.642192705069325 206 204 209
-6.057025411324221 0.7226384287062273 -4.642364782529775 202 199 206
-6.046424963054246 0.6919138638449379 -4.632261501385946 199 196 202
-6.050502507519062 0.6731782702651731 -4.631191466520436 200 197 202
-6.062959043722634 0.6612158828277673 -4.635266620734245 203 199 204
-6.0735228677353135 0.6476772651592033 -4.638172037663336 206 201 207
-6.0709160777667615 0.6235168082775768 -4.632993937401237 205 200 205
-6.084127910389443 0.6120544979204864 -4.637514967483476 206 201 205
-6.081499767867599 0.5878976632014768 -4.632327142996016 206 201 203
-6.098924522799589 0.5797202613846942 -4.6394155845213065 203 198 197
-6.1117157706899805 0.5677934042770537 -4.643658144747434 203 196 196
-6.13127311247713 0.5611587228782583 -4.652026730505166 201 195 194
-6.141377421746419 0.5469948417004441 -4.654608806333239 203 196 194
-6.141148729080272 0.524688589029972 -4.650879942275521 206 198 197
-6.14363121661675 0.5045205571117188 -4.648807242175625 206 201 205
-6.142227219819045 0.48132924654059467 -4.644367217886253 208 206 211
-6.1317202807571585 0.451096839014499 -4.6343889307603074 207 206 213
-6.143929609172968 0.43851141685008616 -4.638243634893525 209 209 217
-6.145650570835459 0.4177924806886188 -4.635713805575188 213 213 220
-6.145816698792151 0.3958874686963282 -4.632240699872178 210 210 216
-6.158865055945453 0.383859978407015 -4.636591101701901 209 207 213
-6.165683417102548 0.36702763314758163 -4.6371534269689585 206 205 210
-6.1754321511848795 0.3524033825025588 -4.639489105645275 207 205 212
-6.176790703152827 0.33138964437863416 -4.636736436210533 209 208 214
-6.192785554238742 0.3214319694539111 -4.642845545726716 208 207 212
-6.209702504488451 0.31209924347113704 -4.649501341382848 208 207 213
-6.223319199849386 0.30022025360076193 -4.654150300074768 213 212 217
-6.226074142157961 0.2801760284958026 -4.652229260051969 208 207 210
-6.229156354112998 0.2603780625860945 -4.650506215556548 205 201 202
-6.230754789584348 0.23948125242953902 -4.647888360688076 203 196 196
-6.231093237894745 0.21766280413120326 -4.64451251569643 203 196 196
-6.230271856368789 0.1950065273711697 -4.640440644830499 204 197 197
-6.228970328074961 0.1720200767049714 -4.636083337159535 207 201 201
-6.228089076936345 0.14936509616729116 -4.631982763706681 207 201 201
-6.227532226961687 0.12696840322977207 -4.6280807516984 208 203 203
-6.22534171452384 0.10340732271543328 -4.623200912676665 206 200 202
-6.22560949314886 0.015906069348644428 -4.609136165685333 205 199 200
-6.233225755384156 -0.0005521950322507642 -4.61014450335942 208 203 203
-6.240420213997513 -0.017332767096576756 -4.610896855929475 207 202 202
-6.257079860794307 -0.027445881955968403 -4.61730180070909 208 203 204
-6.269045431272262 -0.04093451314342832 -4.620892272166745 206 201 203
-6.282415896838293 -0.05348392274661223 -4.625313566494949 207 203 205
-6.290609697458566 -0.06970360824258652 -4.626639516205735 213 209 211
-6.298673356257392 -0.08603988775044515 -4.62788370311442 214 210 211
-6.293604267379709 -0.1115076234415964 -4.621304422948701 211 208 208
-6.294854445237351 -0.13256622959057424 -4.618492138072335 208 203 205
-6.2984469727701695 -0.15200234358077672 -4.61707423848346 207 201 202
-6.302796285820196 -0.17092137193881596 -4.616105692945595 206 200 201
-6.301574602967344 -0.1936501997327215 -4.611828735503501 205 200 201
-6.304305096553215 -0.21366702892669312 -4.6099003324931624 206 200 201
-6.307106151635142 -0.255487473031695 -4.604469120018364 208 201 203
-6.308338481680116 -0.2764960324205995 -4.60165633425473 206 200 201
-6.333824340389002 -0.32497950324086844 -4.606099455798625 201 193 192
-6.337872202297924 -0.34413889395820363 -4.604946339832391 196 186 185
-6.376354154857589 -0.42816040667680616 -4.60990084621158 212 210 214
-6.3823914046903925 -0.4461059001471927 -4.609905379127393 211 207 210
-6.417530040851481 -0.576597238725093 -4.605707167324264 208 206 211
-4.954303110427909 -3.0973473523178536 -3.4901655313891533 211 182 47
-4.9399757682732695 -3.119816657776707 -3.4796015515760055 212 178 58
-4.9398779731450935 -3.13660875044396 -3.476830384506215 157 118 26
-4.9273664957001255 -3.1582392946484488 -3.467279401046853 187 149 45
-4.9141160702576325 -3.1800840343978907 -3.457336811303731 195 157 50
-4.90514268176761 -3.200201497208744 -3.4497399238188398 166 128 38
-4.910051375046218 -3.214938032727274 -3.4497199854305287 139 99 16
-4.909987557504019 -3.231581196973702 -3.446989385677221 159 116 32
-4.90612560578866 -3.249650322725234 -3.442193238417349 179 135 54
-4.908751572853194 -3.2652463362671504 -3.4409314814924032 186 144 64
-4.912691903106824 -3.2803508844532834 -3.440384193803818 181 139 62
-4.927440958305436 -3.2914451125258304 -3.445707304034354 176 133 52
-4.918087450446462 -3.3114967993471724 -3.4379375152502964 174 130 48
-4.919744487959901 -3.327452235708111 -3.4361495288395654 172 126 43
-4.939918928590538 -3.3366545183295147 -3.4443996254839084 165 118 34
-4.931969991552657 -3.356123101594416 -3.4374027350842424 158 112 32
-4.8964794167921735 -3.385447431126411 -3.415506395840507 161 116 34
-4.8656554104841065 -3.4129228560267526 -3.3961636053527164 164 118 40
-4.845033548265438 -3.436618274384256 -3.3823609160188117 177 134 58
-4.865742145263556 -3.4456329427840147 -3.3908994069442207 179 136 56
-4.857409120632233 -3.464902955114595 -3.3837492402765137 174 130 49
-4.85952070463122 -3.480488720211901 -3.3822407346031613 174 130 50
-4.863772985996491 -3.495332901505676 -3.3818863331443034 174 133 59
-4.88400977761379 -3.5047018653546704 -3.3901395026840553 176 137 68
-4.902663633962633 -3.514693838782281 -3.397527162852326 185 157 86
-4.9334445741098945 -3.5206594827763578 -3.4114244934333415 208 200 135
-4.93025145127387 -3.5381713709385494 -3.407041736565049 226 229 185
-4.920265057301492 -3.557921844553227 -3.3990151693253274 230 234 195
-4.909741622290735 -3.5777907240845592 -3.390710041373777 221 223 169
-4.9087859293915335 -3.59445147272232 -3.387545875459719 185 168 103
-4.9032424473316265 -3.6125933168944426 -3.3819258700636827 154 115 42
-4.897683885517255 -3.6307017292649872 -3.376304005354845 152 111 36
-4.882607333295208 -3.651834292999784 -3.3655950495610765 158 112 37
-4.870492036182414 -3.6719378874160546 -3.3564830886428494 164 118 38
-4.9001716149208665 -3.678721272289918 -3.3697158880475846 168 123 43
-4.904836471880875 -3.693504305393829 -3.3695706510628307 162 116 39
-4.910376440380533 -3.7080238296781354 -3.3698907772528175 159 114 36
-4.9443201080584815 -3.7137520781323565 -3.385353994271708 156 108 32
-4.930309485362493 -3.734380943017933 -3.3752415160158398 134 88 22
-4.926724110451807 -3.7517490406479643 -3.370692653769553 131 86 24
-4.963342080751547 -3.7895489803261886 -3.3822448451763227 181 138 53
-4.963536125998946 -3.8057939348123635 -3.3797033710181736 179 135 47
-4.985361069917507 -3.815676532983338 -3.3886401880582633 182 140 56
-4.990295377101318 -3.8958123747044286 -3.3780238338698276 172 119 33
-5.004553475616009 -3.9081059724299365 -3.382915289777696 168 114 30
-5.0034473001119055 -3.9247145177585683 -3.379686919432524 164 110 23
-5.010067776468514 -3.9391811017307847 -3.3805374434275324 175 123 35
-5.021687006765055 -3.952303346807114 -3.3840200902229616 170 121 32
-5.041214297703148 -3.9633294591841035 -3.391661805047161 161 113 26
-5.064928460272742 -3.9733117714578055 -3.4014948079751868 162 114 27
-5.095477589829034 -3.9815756185758553 -3.4149073858583714 157 107 18
-5.1030383166197435 -4.012469397017118 -3.413547238682168 141 92 6
-5.22194152138174 -4.197669469908249 -3.440926872876621 125 87 4
-5.243141750869043 -4.20936526147383 -3.449267868148994 103 68 12
-5.1438182400697805 -4.443823808913683 -3.3632687018444396 200 168 27
-5.1607883775608085 -4.45668279695759 -3.3693781686354414 186 145 18
-5.140209951215107 -4.670200305469981 -3.324804357832277 229 198 50
-5.123592665430405 -4.688981420807959 -3.3137327765393625 219 183 33
-5.135731543674237 -4.702980999799591 -3.3173240598932914 229 192 45
-7.367102742600312 -7.57024689787926 -3.929805821862924 212 202 193
-7.3686568820810106 -7.589243184482301 -3.9274748696208777 213 202 193
-7.361621789443764 -7.6066413382748115 -3.921255158329053 214 201 193
-7.3451953024585475 -7.622239793096105 -3.910791996651604 215 202 194
-7.365599579115075 -7.644731174088104 -3.916997389467373 216 204 195
-7.295235745742259 -7.999364355100306 -3.825489534665206 214 203 195
-7.291514268145711 -8.016771752609493 -3.8208685692459046 215 204 196
-7.309382021061635 -8.112178860823972 -3.8140209316757465 213 203 193
-7.322378073745724 -8.746597533976367 -3.717384535504096 213 201 188
-7.319849906470482 -8.76363272217337 -3.7134002340278496 214 201 189
-6.003970798970562 0.9621391605272216 -4.633449275231503 202 201 206
-6.016082970410925 0.9502765112571478 -4.637349782743929 201 199 204
-6.028859036964639 0.9389270563374962 -4.64165234048178 203 201 207
-6.0376696917387465 0.9241776781097181 -4.643499323788596 203 201 207
-6.037854638134544 0.9021402519098767 -4.640022261290154 201 198 203
-6.058152492346123 0.8969864702247639 -4.64894165879447 196 191 193
-6.05882294185755 0.8753331633068785 -4.645760041228762 192 186 188
-6.070882714800304 0.8631825065494207 -4.649588767467467 197 192 195
-6.075620603368654 0.844903656743901 -4.6489076288209805 200 196 202
-6.06931047326045 0.8174732193186184 -4.641436953398242 201 199 206
-6.066277789090954 0.7927987017417059 -4.635987069379233 201 200 207
-6.09776499416329 0.6856396135997124 -4.633777339085921 206 201 206
-6.106544021813365 0.6705866275928984 -4.635559997671804 206 201 206
-6.106389883782563 0.64833024830922 -4.631884572000554 206 200 204
-6.113292040889307 0.6317393407828791 -4.632516518548849 204 198 202
-6.105498239139547 0.6034078850051473 -4.624187126419136 202 196 197
-6.120115337836298 0.5929492355516292 -4.629518463971972 203 195 195
-6.135627549451485 0.583137813008567 -4.635384642612881 203 194 194
-6.159465706866877 0.5798322277376805 -4.646304256340415 203 195 193
-6.155570145922774 0.5545974745342479 -4.640349097335821 199 190 190
-6.159689325751496 0.5356848351408429 -4.639268107198878 201 192 191
-6.161687462595947 0.5151104762199064 -4.6368990453941965 202 195 196
-6.167347580892486 0.49739400025215236 -4.636752047474502 200 197 201
-6.155406138180981 0.46600847105485876 -4.625935480611727 205 204 210
-6.159528314498433 0.44712459309386426 -4.624860584280449 208 208 214
-6.166357615172179 0.43032172702030314 -4.62542322496042 210 209 216
-6.1677448143265545 0.40932144793209774 -4.622691681613815 210 209 215
-6.180100742149548 0.39672286198697126 -4.626590233007061 210 209 215
-6.188007432702554 0.38068336717528356 -4.627794094483807 209 206 213
-6.194628890092878 0.3636425247823056 -4.628218356616989 206 205 210
-6.195627263270438 0.3423271038478869 -4.625248984186259 207 206 211
-6.219659325630075 0.33839781948431236 -4.6361608490712145 207 205 210
-6.229524271537523 0.3237090047956928 -4.638524230888388 208 206 211
-6.2547139130612655 0.3204617155175148 -4.650102680726518 209 207 211
-6.2554333502057125 0.2988364043016459 -4.646949132316165 207 203 205
-6.270090273989589 0.2875881273388717 -4.652171834653859 200 194 197
-6.274183434585481 0.26845249114360664 -4.651042258314554 203 195 197
-6.273845625681225 0.24604158679304095 -4.647253572664154 207 201 201
-6.266531503546565 0.21851876786769467 -4.639285519465091 208 202 203
-6.263425852481828 0.19413678915758753 -4.6338479104932775 210 205 206
-6.262547080306396 0.17141495043860844 -4.629748972925562 209 205 206
-6.267924337269403 0.15326670863700673 -4.629396191886616 207 203 204
-6.256940725529809 0.12324791790156683 -4.619261028803103 207 201 202
-6.260237807813248 0.1036185710074963 -4.61766903944512 205 199 199
-6.281552132910298 0.008893243835506253 -4.612583065696025 206 201 201
-6.290171871646784 -0.006990422435077269 -4.614154769733748 209 205 205
-6.294027674879803 -0.026254404197256144 -4.612890372632891 209 205 206
-6.305263699755405 -0.04034807356553821 -4.616008875046181 211 207 208
-6.3163951548369734 -0.05455684063201108 -4.619058506267056 213 209 210
-6.329318711421002 -0.0675603248821056 -4.623164291957932 213 209 210
-6.331780759319861 -0.08786508653365974 -4.621061768766778 211 207 208
-6.3357469806773015 -0.10712698707651276 -4.619850765565554 209 205 206
-6.335751828327621 -0.1291170303804236 -4.616294830769688 207 202 204
-6.332346735671408 -0.15342610861910572 -4.610725133003525 207 201 203
-6.333565739198218 -0.1745439469788732 -4.6078937472330965 206 200 200
-6.33033071479149 -0.19867918195393297 -4.602433899160481 205 199 198
-6.353589206591899 -0.20483708127797362 -4.612613437034963 203 197 198
-6.33447758987396 -0.26157087310671956 -4.594249856060154 204 198 199
-6.357780985335255 -0.31165009648756997 -4.59734395086613 208 201 201
-6.366346446261826 -0.3278624315727972 -4.5988363910882395 207 199 198
-6.4343639537273205 -0.5901633488821852 -4.58907598678877 209 204 209
-4.952270327964276 -3.1152661399097368 -3.468320351212659 213 186 53
-4.93107683156865 -3.17376167622589 -3.448671331682869 179 148 49
-4.917827935722483 -3.195554124087744 -3.4387787996897896 163 131 47
-4.91760223121972 -3.2122750656975914 -3.4359646886106634 130 94 13
-4.916314989702137 -3.22938705841275 -3.4325772202715803 139 99 17
-4.913017539508174 -3.2472418196471673 -3.4281036351488705 162 119 34
-4.918603633641022 -3.261724705222146 -3.4284443031824465 181 139 52
-4.930208572913456 -3.2739709017988705 -3.4320390172644957 179 136 48
-4.939586624633665 -3.2870876727058564 -3.4344228173827767 174 128 39
-4.9403130748921305 -3.3034310562968567 -3.4321273208284975 172 126 36
-4.940845653855312 -3.3198365730552712 -3.4297286130446905 171 123 32
-4.923573891621014 -3.342720683571023 -3.417726404499303 168 120 31
-4.912790110161164 -3.3631610327895745 -3.4092371737621896 167 119 32
-4.887341393472414 -3.388812085798613 -3.3928581220789553 168 120 35
-4.876704408916971 -3.4090375973260216 -3.3844741923075072 163 116 33
-4.8620581142021795 -3.430623131326163 -3.3739436759254944 182 137 54
-4.8547011066390535 -3.449557088474738 -3.367344801101998 170 125 40
-4.847849341326534 -3.468266961632912 -3.3610249603717843 168 124 37
-4.845472533948847 -3.485375819113098 -3.357114450883915 175 132 54
-4.849577590914027 -3.500222357193423 -3.3566846206219823 180 144 78
-4.879689335548824 -3.506154970582378 -3.370193676505933 182 151 90
-4.895336576306671 -3.517145676376991 -3.3759339153608505 195 178 109
-4.914464445378563 -3.5270207693883178 -3.383527154795649 214 214 151
-4.911672755611905 -3.5443377126309374 -3.379383618842726 225 230 194
-4.9022039497905805 -3.5638565509314017 -3.3716753604673695 228 235 202
-4.893284643976891 -3.5831364723406667 -3.3642698026768962 219 224 173
-4.896914679644898 -3.5982352643098348 -3.3635709015826496 193 185 128
-4.898728453306261 -3.613932037356179 -3.361902505648372 153 122 65
-4.898730502882403 -3.630212476492756 -3.359269111739588 141 102 43
-4.898732280443779 -3.646480894553588 -3.3566375322851583 139 98 38
-4.8989572700493955 -3.6626659155818335 -3.354126703374687 149 106 34
-4.911232495125584 -3.675019024118907 -3.358026197519874 156 113 35
-4.916821105441303 -3.6895222069678253 -3.358364790254318 157 111 35
-4.920766048698783 -3.7045529947269764 -3.3578282096782863 158 111 33
-4.91906562361768 -3.7213404795704665 -3.354294711492403 161 112 34
-5.0065475064693645 -3.890806305065187 -3.368909034653157 156 102 19
-5.01856522837695 -3.903748583142075 -3.3725894606692712 165 110 22
-5.021980344558684 -3.9191207898502203 -3.371743046454665 173 119 27
-5.053497641211604 -3.959507663063718 -3.3803523553273265 155 114 30
-5.100199357472001 -3.9633386689194046 -3.4021731428015722 155 111 24
-5.122117086414798 -3.990447834361282 -3.408318252266563 190 145 43
-5.118008675958168 -4.007995377929491 -3.403504703413853 169 126 23
-5.211589268945349 -4.199295809935628 -3.4175164118455443 152 115 6
-5.246196140311718 -4.207880429890884 -3.432756298089303 129 90 9
-5.190857941367583 -4.44977345076859 -3.3670243629668164 153 86 7
-5.156208852062079 -4.666351961403461 -3.3153299787693724 253 244 35
-5.114896398490923 -4.689249308921772 -3.2917738097340683 229 197 44
-7.417024645595499 -7.48087169152122 -3.9462525116454406 215 202 194
-7.388172542929253 -7.569829498179187 -3.917994270454558 215 203 195
-7.39337397910341 -7.589519479857914 -3.917307532775998 216 204 195
-7.383654659951202 -7.606459447075117 -3.9098961935773207 215 202 194
-7.361703719085837 -7.621062679113961 -3.8969855375984483 216 203 195
-7.337131830785638 -7.967688766080138 -3.8290900351443207 216 206 197
-7.332958010630335 -7.985103403719563 -3.824266562048801 215 204 195
-6.047549294405803 0.9729559341643971 -4.633926501735819 207 205 210
-6.056894941677725 0.9586336887508686 -4.636082864382943 206 204 209
-6.067475761988844 0.9453198334206168 -4.6389925231205416 204 202 206
-6.079306915916875 0.9330169504811315 -4.642663142975259 202 197 201
-6.0920805725573395 0.9214567679848853 -4.646904249305437 198 193 195
-6.090581988651251 0.8979217161032215 -4.6423889843401325 202 196 199
-6.091276316873768 0.8762386630501099 -4.639221074025774 202 198 204
-6.0896332339337516 0.8526299316670429 -4.634624831985888 200 197 204
-6.093499219541483 0.8336047820023749 -4.633402292013089 202 201 207
-6.09928178171438 0.8161562769179883 -4.633350546699451 206 205 211
-6.0977936034856 0.7927199350797179 -4.6288561894582205 205 203 210
-6.1181747700952505 0.6984068732086802 -4.623377258735676 206 201 206
-6.120824862058703 0.6783823870213883 -4.62141210141655 207 203 205
-6.130626323678553 0.664100432362099 -4.623792890548327 203 198 202
-6.141535924449491 0.6506691517022382 -4.626840784355234 199 195 195
-6.14679807030382 0.6326946901928936 -4.626455335198977 200 192 193
-6.171123680378213 0.6298529677057523 -4.637626635958179 200 192 192
-6.182415927311891 0.6165788237089069 -4.640882834934518 196 188 187
-6.186870712737828 0.5978667281346093 -4.639992328091712 197 188 186
-6.187844170821904 0.5764110628782487 -4.636994571437868 200 190 188
-6.194027111015258 0.5590496539616578 -4.637148303578187 202 194 193
-6.195793019435139 0.5382235569843415 -4.634631033230291 202 197 200
-6.196616915452683 0.5166726125264082 -4.631546392472742 203 201 206
-6.190892752456646 0.49005740390337993 -4.624513725115104 203 202 209
-6.1924306930178625 0.46910234683400487 -4.62186664870621 202 201 207
-6.1888998439685645 0.44425354119565946 -4.6161677120644935 204 203 209
-6.188095282028743 0.42153334094588313 -4.612115781791594 207 206 212
-6.213027318457911 0.41851414535549486 -4.62354836676711 208 206 212
-6.211676976266983 0.3953526458571123 -4.6191642707819724 208 206 212
-6.220566188569183 0.3799904281956278 -4.620934551431768 207 205 210
-6.235741168213427 0.3693536195609329 -4.626472763330661 206 204 209
-6.249750569925913 0.35777419088492196 -4.631301568257309 204 202 207
-6.248392255558596 0.33459295649978454 -4.626910475392135 204 201 206
-6.271269737339783 0.3295775546407662 -4.637038577361398 206 201 207
-6.28295310410491 0.31610814315039976 -4.640450251109236 201 196 201
-6.299892574014861 0.3064999414560083 -4.646998086904454 200 194 195
-6.303352061556572 0.2868369436816645 -4.645478246522341 202 196 197
-6.288417505922255 0.2536016076149196 -4.632973568541061 208 204 205
-6.301315692380248 0.24092481998229506 -4.6370939806492535 212 209 213
-6.30597549515557 0.22216230344736987 -4.63629335338161 212 211 215
-6.313207227947152 0.2052695317649081 -4.6370241521977595 214 213 217
-6.312365696442713 0.1824852922585781 -4.632944210323829 212 210 213
-6.308240833914629 0.15734432894501327 -4.6269141208150435 204 199 199
-6.304198245898964 0.1323022079370398 -4.620939320601766 204 198 199
-6.293396895772369 0.036341474086006284 -4.600286193443414 204 199 198
-6.311945702273254 0.027487004193225837 -4.607725107086952 205 199 199
-6.312239594933116 0.005665210378118565 -4.604343355843344 206 201 201
-6.319803581449769 -0.011027899617455386 -4.605265231364618 207 202 203
-6.326924186322248 -0.02805428421139295 -4.6059213338481015 208 203 204
-6.343259609059981 -0.038669068236288115 -4.612017904274027 209 204 206
-6.365162916674712 -0.08962952190800266 -4.61426425692324 208 202 203
-6.37245245606318 -0.10666651025565305 -4.614999414816907 207 200 201
-6.369029483467721 -0.13106064451568386 -4.609425442107624 206 200 201
-6.3686026025697 -0.15337554758551142 -4.605619498838417 205 199 201
-6.36568376436629 -0.17736435292128577 -4.600351975133473 204 198 198
-6.381382579900674 -0.188717495367779 -4.6060250074365845 202 196 196
-6.376435175476777 -0.21405785382390768 -4.599569479293364 203 197 195
-6.364237539777188 -0.24422500013519063 -4.588868549701225 205 197 197
-6.386120833086476 -0.25150811093372083 -4.5981553024901896 205 199 200
-6.387389098797942 -0.2726277314813791 -4.595352733312964 206 200 200
-6.388525533057878 -0.2938242812924506 -4.592474718840468 206 200 200
-6.463527757599541 -0.5742122216830065 -4.58307552846886 208 203 207
-4.952280180170949 -3.1155753651279525 -3.45035173006418 214 189 64
-4.936930446388881 -3.1884305286648127 -3.431253512445174 162 139 55
-4.924218840183758 -3.2099704923599925 -3.4216993707866026 125 96 18
-4.921422929499033 -3.2276577123814882 -3.4175077584543385 134 96 14
-4.928782834727273 -3.2414725658465455 -3.4187966434492103 153 110 20
-4.933616393111473 -3.2562609973784507 -3.4187205459708747 158 114 23
-4.941744847862163 -3.2698279194627937 -3.420416890291331 175 129 35
-4.9311188522651035 -3.2903899265585634 -3.412017723489377 169 123 29
-4.925157740523629 -3.3257157249821065 -3.403465793724254 169 118 26
-4.9705626023442635 -3.325706211636888 -3.4251752249653333 160 108 18
-4.915999775267478 -3.3620924702826755 -3.3932158266230408 160 110 20
-4.8998478614516525 -3.3843918496422236 -3.3818943092429126 168 122 34
-4.880776545544875 -3.4076450864063657 -3.3690230742529663 163 114 27
-4.877780915395231 -3.4250901284891917 -3.364775066777715 172 126 40
-4.869375885659559 -3.444415640006002 -3.3576373185058603 167 121 36
-4.852661080886548 -3.466598701155673 -3.3460654599972783 167 122 39
-4.838355058058897 -3.504085042667152 -3.3331751255509676 180 148 85
-4.88919971839359 -3.5028636323972315 -3.357680916776805 179 152 90
-4.904976650195284 -3.513817426219516 -3.3634557551206448 187 173 109
-4.917922333137462 -3.5257914964534653 -3.367712300881391 225 227 183
-4.916947134302426 -3.542491230365275 -3.364550554454073 240 248 219
-4.905311127816985 -3.5627304548528986 -3.3557206056073023 242 251 220
-4.896356943578823 -3.582014301188759 -3.3483270337941655 229 235 192
-4.904783136075196 -3.5955279151927915 -3.350174329892512 177 168 111
-4.9077180561998 -3.61086208330283 -3.3491024130650957 142 112 59
-4.910593255112564 -3.626217308434702 -3.3479985449300216 138 100 44
-4.919607976797427 -3.6395982088706345 -3.350148635970475 136 98 37
-4.898559395697227 -3.6626132929640813 -3.3363705181116283 135 96 35
-4.912317807854193 -3.6744798394955045 -3.341032982112431 146 103 37
-4.886365018802737 -3.6988984251022163 -3.3246836411903042 149 101 27
-4.902418209485066 -3.710059911254802 -3.330557034216474 150 99 24
-5.000359836511217 -3.9246658354004205 -3.3427429757031253 173 125 34
-5.042211528033203 -3.9294017937453716 -3.3619876818672787 149 113 37
-5.066595117736582 -3.9390850815436926 -3.372082404006301 126 95 33
-5.099695576177775 -3.9465113089670316 -3.3867089412725573 127 96 32
-5.1415939640611015 -3.9847647542494435 -3.4005659083268664 173 133 35
-5.1311916955405135 -4.0039869747812045 -3.392489959833808 187 147 37
-5.2060674479574125 -4.199807924973659 -3.3966802789066457 153 118 3
-5.218274212826308 -4.443381253378548 -3.363201066743166 132 54 4
-5.237330601607646 -4.455994691697324 -3.370275917721088 135 63 4
-5.2076751097679095 -4.494357652063572 -3.349905563956318 177 123 15
-7.450519222862313 -7.406626712192769 -3.952131050405868 218 207 200
-7.447295209809719 -7.481860315235453 -3.9384461903923214 215 203 194
-7.407596960793276 -7.60661689857328 -3.89932961927583 215 202 193
-7.398919813394538 -7.623737164545047 -3.8924177216979925 215 202 194
-7.398889650609706 -7.64243887829026 -3.88938465351702 216 206 198
-7.405259362901507 -7.662345891335456 -3.8892167942170213 215 203 194
-7.41058696598344 -7.682064992106736 -3.8885810373355847 215 204 194
-7.423563136230009 -7.703278714310874 -3.8913607848366243 215 205 195
-7.422139112754245 -7.7403939769586305 -3.88468918232051 216 206 197
-7.361578726038735 -7.987036319358555 -3.815924895241633 215 205 195
-6.083524065521023 0.9771304125262158 -4.629539541495495 203 201 206
-6.092806856595027 0.9626674509710251 -4.631626573094028 202 199 206
-6.108218693301437 0.9533220092082814 -4.637453070635829 200 195 198
-6.120442689389202 0.9412395331454652 -4.64132247093723 200 194 196
-6.118581395376144 0.9173483475297475 -4.636590392032433 202 197 201
-6.120615891741081 0.8967271253353827 -4.634237978331508 205 202 208
-6.120493762887583 0.8743239702253968 -4.630572781667815 205 202 209
-6.124503609289107 0.8553550690866896 -4.62942605223906 207 204 211
-6.123435474798408 0.8321982750121969 -4.62518951157794 204 203 209
-6.1453757648230125 0.7611183381246975 -4.624181715256843 206 201 207
-6.151907941520705 0.7441664539766938 -4.6245595801337105 206 201 206
-6.161365624115849 0.729559191800544 -4.626706571527199 205 200 204
-6.171930611298709 0.7158093783465387 -4.629518348834192 206 201 205
-6.177403503409889 0.697935575421358 -4.629243890002037 206 201 205
-6.178340515457199 0.676423978577116 -4.626226060393238 203 198 200
-6.183322975902751 0.6581478751635289 -4.625653536242079 201 195 194
-6.197061620743163 0.6468143290471003 -4.630364017899411 201 193 192
-6.209100467267294 0.6340790947129055 -4.634040245425535 199 191 189
-6.207618915098475 0.6106353572607611 -4.629560847410917 201 193 191
-6.226367967602899 0.6031147305751084 -4.637268622687587 203 197 197
-6.226982071737714 0.5813089099464638 -4.634049817742381 209 206 209
-6.231430870389245 0.5625101105821843 -4.633139279596291 209 208 214
-6.211515007884979 0.5247567259239261 -4.617586961886328 209 208 216
-6.213908945442936 0.5044185937254133 -4.6154511092545185 208 208 215
-6.218949151472982 0.4861289239259328 -4.614903869562218 206 206 212
-6.223365257794711 0.46734942644357585 -4.613980887903446 206 205 211
-6.211362765261987 0.4359721598046685 -4.603219459385253 206 205 211
-6.231479598568781 0.4292233898025499 -4.611702144397592 206 204 210
-6.244354845972907 0.41686932671036836 -4.615837607952187 207 205 210
-6.237913186280727 0.3898051125538855 -4.60841582833227 207 205 211
-6.257603249210281 0.3825529290479602 -4.616614450737478 207 205 210
-6.25643901967715 0.35949938631448397 -4.612348823371691 205 202 206
-6.270846091483738 0.3481606300563518 -4.617376427479979 205 199 205
-6.2936237158086366 0.3430244960174711 -4.627384461778656 204 200 203
-6.3057142957908745 0.3298174187390764 -4.631009327391099 204 199 202
-6.312987720078108 0.31298524027308705 -4.631759066995381 204 199 204
-6.322545724953358 0.2978226393303919 -4.633864365946697 207 203 205
-6.307517247613645 0.2644957109649219 -4.621349606518996 209 207 211
-6.325213518489888 0.25531161542833347 -4.628288755478985 210 208 212
-6.336052542202586 0.241030547698062 -4.631145351586122 212 211 217
-6.336409986107239 0.21906364948035906 -4.6277785220861425 215 213 219
-6.342381756517855 0.20119279058846648 -4.627741846675865 214 212 217
-6.351206465153469 0.18537359703531356 -4.62939260980767 209 206 207
-6.366593095254718 0.17425924251161592 -4.634922306671653 205 200 201
-6.347529334494414 0.13831750806290097 -4.620067013153262 204 198 199
-6.348930805174667 0.1171507549657893 -4.617325642824113 205 199 198
-6.3419259504024454 0.08999610266926192 -4.609621397884537 206 200 200
-6.344790033964879 0.0699114342996136 -4.607749996978255 206 201 201
-6.3598192569946805 0.05844453808440377 -4.613052918052698 206 201 200
-6.357158545538599 0.034434148315164836 -4.607921374587813 206 200 200
-6.368634781945239 0.020392472716123558 -4.611119628035483 206 201 201
-6.368663512330512 -0.0017089099076854906 -4.607574780974454 208 202 203
-6.368614328007214 -0.02384738957148979 -4.603986898035613 208 203 204
-6.38674211683273 -0.09963391288519695 -4.600407747278833 205 198 199
-6.402501072012061 -0.1109119832829702 -4.606088194286907 204 198 199
-6.4058882226535365 -0.13069136883376947 -4.604514762224207 209 205 205
-6.41178637398867 -0.14876561218018036 -4.604410320596962 210 205 205
-6.403049788585255 -0.17675560693546383 -4.595747818336142 210 204 202
-6.400822970618731 -0.20029493122637862 -4.590898517531172 208 202 200
-6.384184501135386 -0.23348106802583066 -4.577640576090733 208 202 202
-6.393788407222785 -0.24901285474574375 -4.579708267502308 207 201 202
-6.403086679606128 -0.2647812330744028 -4.581592479954646 206 200 200
-6.417877697519988 -0.2769362878790732 -4.586671290714724 205 199 199
-6.43529629575648 -0.28741466278186517 -4.593269964527176 207 200 201
-6.470849007741068 -0.5719157273786871 -4.564374759422299 210 205 208
-6.48564718994694 -0.5845821295726943 -4.569374646784511 208 204 207
-6.498221700642292 -0.5986852689530666 -4.573085437700713 208 204 204
-5.274670360380235 -2.5284372349488295 -3.680352481183983 210 184 101
-4.941941298376373 -3.220055175854945 -3.41072146649093 132 100 15
-4.949969024238744 -3.2336508532535633 -3.4123511214268434 164 121 27
-4.953441245049933 -3.248986818570623 -3.4115335851279127 157 113 17
-4.889138298938545 -3.3883212398349376 -3.3585115293459733 182 149 60
-4.869252447817458 -3.4118245490636085 -3.345267872987415 168 124 24
-4.850911220691657 -3.4346729882094342 -3.332864412335796 173 128 33
-4.8641299168253065 -3.4462967099413127 -3.3372808409058563 172 126 36
-4.859777516629014 -3.4641234488906263 -3.3323402060930607 169 124 38
-4.842563846927298 -3.5026176556231516 -3.317954004824143 175 140 77
-4.896081740679754 -3.5004739133817915 -3.34375687698597 169 139 76
-4.905840370159123 -3.5134790680117636 -3.346304977757136 166 146 85
-4.917972898101051 -3.525715033598189 -3.3501061548045423 209 210 154
-4.922220199809617 -3.5406452140202647 -3.349722648489709 242 251 217
-4.908924674889339 -3.5614355202956234 -3.3400507347666086 243 250 222
-4.907561203418463 -3.578198587940645 -3.33670315168656 222 226 183
-4.913251021815319 -3.592623371456885 -3.3370872035915213 159 142 89
-4.922239477834417 -3.6059857099000774 -3.3392114339719554 131 95 40
-4.935446552385923 -3.618010620835484 -3.3435577393878044 126 88 29
-4.914317775617668 -3.6411358185298464 -3.329783719965289 128 88 29
-4.910752980207876 -3.6585382769159254 -3.3252860505374304 130 90 30
-4.9120938749448655 -3.6743561623741843 -3.323377079020912 124 84 25
-4.892706450386084 -3.696693362396619 -3.310558270849376 145 98 27
-4.909468426539975 -3.7076328755830166 -3.3167703514995908 145 89 17
-5.250579172352416 -4.221866308243906 -3.3962359180276556 162 113 7
-5.268122991091918 -4.234470115777766 -3.402551944445197 110 72 6
-5.246104821002245 -4.453280710357483 -3.3568478122056105 122 46 3
-5.247188560191247 -4.46943883429951 -3.3547617340654154 129 58 7
-7.495021478783955 -7.428755795909934 -3.947548694542204 217 206 199
-7.492488637327838 -7.447361970838967 -3.9433481023589536 216 205 199
-7.475216405204036 -7.463469053020459 -3.932538564390692 215 205 197
-7.473908980379927 -7.482207740227316 -3.9288995500824337 214 204 195
-7.438077885936557 -7.626746162317966 -3.888583265508511 215 203 194
-7.431329850430137 -7.6442489091215835 -3.882555226129751 216 206 198
-7.445000139960515 -7.703094213356234 -3.879583388257479 214 202 193
-7.464717342311804 -7.725688864829717 -3.8853246505032795 213 203 193
-6.125669246112018 0.9863440760016537 -4.628746917034184 201 196 202
-6.135950298510009 0.9726153689604706 -4.63140779691075 198 192 194
-6.148322114238263 0.9605983948030485 -4.635333111221517 198 192 194
-6.145630911010135 0.9359630409578481 -4.630102787458096 201 196 198
-6.150288280957256 0.9174718320613835 -4.629337195112963 203 199 204
-6.157479686625381 0.9010735194418474 -4.630107047039996 202 200 207
