ply
format ascii 1.0
element vertex 819
property float x
property float y
property float z
property float nx
property float ny
property float nz
property uchar diffuse_red
property uchar diffuse_green
property uchar diffuse_blue
property uchar class
property uchar detection
end_header
-0.3440 0.7698 -0.6722 0.706 -0.705 0.067 175 150 127 0 0
-0.3415 0.7705 -0.6723 0.857 -0.514 -0.035 175 151 127 0 0
-0.3395 0.7761 -0.6741 0.629 -0.751 0.198 174 150 126 0 0
-0.3370 0.7777 -0.6746 0.615 -0.775 0.146 177 153 130 0 0
-0.3345 0.7783 -0.6747 -0.022 -0.813 0.583 184 160 136 0 0
-0.2966 0.8183 -0.6866 0.675 -0.737 0.022 134 110 86 0 0
-0.2567 0.8428 -0.6929 0.484 -0.016 0.875 156 129 107 0 0
-0.1886 0.8703 -0.6987 0.116 -0.913 -0.391 168 143 123 0 0
-0.1861 0.8749 -0.7002 0.576 -0.805 -0.143 169 143 123 0 0
-0.1836 0.8697 -0.6982 0.668 -0.674 0.315 168 142 122 0 0
-0.0607 0.9445 -0.7175 0.278 -0.245 0.929 173 155 135 0 0
-0.0580 0.9469 -0.7182 0.338 -0.242 0.909 174 157 138 0 0
-0.0266 0.9665 -0.7233 0.640 -0.378 0.669 167 146 125 0 0
-0.0240 0.9681 -0.7237 0.445 -0.405 0.798 171 150 130 0 0
-1.2821 0.2091 -0.5310 0.649 0.161 0.743 187 168 142 0 0
-1.2268 0.2479 -0.5416 0.285 -0.420 0.862 163 134 105 0 0
-1.2250 0.2492 -0.5419 0.321 -0.467 0.824 164 135 105 0 0
-1.2157 0.2554 -0.5436 0.700 -0.449 0.556 174 148 120 0 0
-1.2138 0.2565 -0.5439 0.566 -0.645 0.513 163 136 109 0 0
-1.2122 0.2580 -0.5443 0.542 -0.654 0.528 148 123 98 0 0
-1.1854 0.2808 -0.5508 -0.077 -0.863 0.500 170 140 114 0 0
-1.1771 0.2851 -0.5519 0.081 -0.813 0.576 179 152 123 0 0
-1.1730 0.2843 -0.5513 -0.236 -0.793 0.561 183 156 128 0 0
-1.1737 0.2880 -0.5527 -0.007 -0.973 0.230 181 154 126 0 0
-1.1032 0.3224 -0.5607 0.418 -0.009 0.908 185 162 134 0 0
-1.0994 0.3418 -0.5674 -0.145 -0.415 0.898 186 161 132 0 0
-1.0652 0.3490 -0.5679 0.813 -0.301 0.498 185 160 132 0 0
-0.9936 0.3997 -0.5818 0.884 -0.398 0.245 184 158 132 0 0
-0.9943 0.4046 -0.5835 -0.092 -0.959 0.270 188 162 134 0 0
-0.9654 0.4144 -0.5853 0.662 -0.699 0.270 185 161 136 0 0
-0.9636 0.4162 -0.5858 0.716 -0.667 0.208 182 155 131 0 0
-0.9619 0.4180 -0.5864 0.733 -0.636 0.243 186 160 135 0 0
-0.9602 0.4197 -0.5869 0.733 -0.636 0.243 194 170 143 0 0
-0.9306 0.4286 -0.5883 0.199 -0.952 0.232 190 166 139 0 0
-0.9280 0.4291 -0.5883 0.199 -0.952 0.232 198 175 151 0 0
-0.9259 0.4304 -0.5887 0.309 -0.778 0.548 194 171 147 0 0
-0.9001 0.4447 -0.5922 0.585 -0.802 0.123 197 177 151 0 0
-0.8894 0.4555 -0.5954 0.416 -0.733 0.538 181 154 125 0 0
-0.8859 0.4545 -0.5949 0.342 -0.936 0.082 182 155 127 0 0
-0.8179 0.4861 -0.6021 0.229 -0.962 0.146 173 142 117 0 0
-0.7289 0.5518 -0.6202 0.441 -0.645 0.624 207 191 172 0 0
-0.7267 0.5531 -0.6205 0.441 -0.645 0.624 207 192 173 0 0
-0.6415 0.5890 -0.6282 0.585 -0.523 0.620 191 169 141 0 0
-0.6185 0.6008 -0.6311 0.840 -0.535 0.094 180 154 128 0 0
-0.5714 0.6307 -0.6389 0.341 -0.146 0.929 200 180 157 0 0
-0.4040 0.7157 -0.6592 -0.505 -0.582 0.638 183 162 138 0 0
-0.3983 0.7291 -0.6637 0.147 -0.218 0.965 183 162 140 0 0
-0.3690 0.7408 -0.6661 -0.224 -0.962 0.156 182 159 137 0 0
-0.3464 0.7669 -0.6740 0.572 -0.798 -0.191 165 138 116 0 0
-0.3441 0.7694 -0.6748 0.706 -0.705 0.067 167 141 119 0 0
-0.3417 0.7710 -0.6752 0.835 -0.550 -0.008 172 146 125 0 0
-0.3370 0.7759 -0.6767 0.232 -0.773 0.591 184 161 138 0 0
-0.2967 0.8178 -0.6892 0.860 -0.502 0.091 142 116 93 0 0
-0.2567 0.8389 -0.6944 0.300 -0.068 0.951 162 135 113 0 0
-0.2265 0.8533 -0.6977 0.486 -0.726 0.485 176 152 127 0 0
-0.1887 0.8714 -0.7019 0.026 -0.984 -0.174 159 132 111 0 0
-0.1862 0.8754 -0.7032 0.576 -0.805 -0.143 159 133 111 0 0
-0.1511 0.8817 -0.7033 0.512 -0.788 0.342 170 147 125 0 0
-0.1461 0.8832 -0.7036 0.062 -0.797 0.601 168 146 123 0 0
-0.1360 0.8893 -0.7051 0.671 -0.309 0.674 178 159 142 0 0
-0.0269 0.9651 -0.7256 -0.135 -0.985 -0.105 169 148 128 0 0
-0.0243 0.9656 -0.7257 0.648 -0.762 -0.027 172 151 133 0 0
-0.0161 0.9736 -0.7280 0.710 -0.542 0.450 173 154 138 0 0
-0.0133 0.9764 -0.7289 0.561 -0.567 0.604 178 161 144 0 0
-0.0106 0.9786 -0.7295 0.518 -0.461 0.720 184 167 150 0 0
-1.3286 0.1852 -0.5277 0.189 -0.820 0.541 173 149 115 0 0
-1.2773 0.2025 -0.5308 0.987 0.161 -0.003 186 168 142 0 0
-1.2637 0.2287 -0.5393 0.417 -0.089 0.905 177 154 127 0 0
-1.2556 0.2412 -0.5434 0.142 -0.929 0.343 189 166 140 0 0
-1.2250 0.2461 -0.5432 0.316 -0.424 0.848 162 134 103 0 0
-1.2233 0.2474 -0.5436 0.321 -0.467 0.824 172 145 116 0 0
-1.2065 0.2612 -0.5476 0.667 -0.661 0.343 141 114 84 0 0
-1.2062 0.2639 -0.5485 0.961 -0.275 0.003 150 121 93 0 0
-1.1686 0.2798 -0.5519 -0.220 -0.549 0.807 183 156 127 0 0
-1.1099 0.3159 -0.5613 0.340 -0.262 0.903 201 185 161 0 0
-1.0978 0.3397 -0.5691 0.023 -0.346 0.938 184 161 131 0 0
-1.0551 0.3583 -0.5732 0.552 -0.666 0.502 177 155 127 0 0
-0.9956 0.3710 -0.5742 0.426 -0.896 0.123 189 165 137 0 0
-0.9934 0.3991 -0.5841 0.879 -0.416 0.233 181 156 128 0 0
-0.9637 0.4118 -0.5869 0.486 -0.457 0.745 183 158 132 0 0
-0.9601 0.4109 -0.5863 0.378 -0.314 0.871 184 158 131 0 0
-0.9601 0.4151 -0.5878 0.608 -0.303 0.734 189 164 136 0 0
-0.9577 0.4159 -0.5880 0.587 -0.297 0.753 192 167 141 0 0
-0.9602 0.4234 -0.5908 -0.367 -0.619 0.694 189 163 137 0 0
-0.9279 0.4286 -0.5907 0.223 -0.900 0.375 209 191 169 0 0
-0.9047 0.4424 -0.5942 0.579 -0.814 0.055 195 172 146 0 0
-0.8997 0.4437 -0.5944 0.496 -0.826 0.269 195 172 148 0 0
-0.8959 0.4469 -0.5953 0.829 -0.489 0.272 189 163 137 0 0
-0.8903 0.4519 -0.5968 0.663 -0.702 0.259 187 160 133 0 0
-0.8860 0.4543 -0.5974 0.342 -0.936 0.082 186 160 133 0 0
-0.8785 0.4563 -0.5977 0.524 -0.809 -0.266 175 146 119 0 0
-0.8154 0.4863 -0.6046 0.229 -0.962 0.146 175 144 117 0 0
-0.8064 0.4908 -0.6056 0.747 -0.638 -0.187 180 150 124 0 0
-0.8053 0.4940 -0.6067 0.862 -0.506 0.041 180 152 125 0 0
-0.6147 0.6049 -0.6350 0.667 -0.740 0.087 173 146 122 0 0
-0.5690 0.6311 -0.6416 0.691 -0.123 0.713 198 178 154 0 0
-0.5645 0.6339 -0.6423 0.358 -0.224 0.907 195 175 151 0 0
-0.5623 0.6356 -0.6428 0.358 -0.224 0.907 194 174 150 0 0
-0.4037 0.7128 -0.6609 -0.540 -0.822 0.178 178 154 131 0 0
-0.3791 0.7385 -0.6686 0.186 -0.769 0.612 182 160 137 0 0
-0.3766 0.7385 -0.6685 0.434 -0.712 0.553 186 164 144 0 0
-0.3691 0.7404 -0.6687 -0.224 -0.962 0.156 186 164 141 0 0
-0.3652 0.7722 -0.6798 0.841 -0.351 -0.411 186 164 140 0 0
-0.3465 0.7668 -0.6768 0.638 -0.767 -0.071 163 137 113 0 0
-0.3441 0.7679 -0.6770 0.810 -0.569 0.141 163 137 114 0 0
-0.3418 0.7709 -0.6779 0.810 -0.569 0.141 163 136 115 0 0
-0.2090 0.8458 -0.6968 0.172 -0.985 -0.027 164 137 115 0 0
-0.1964 0.8636 -0.7024 -0.298 -0.952 -0.076 149 123 101 0 0
-0.1939 0.8631 -0.7021 0.065 -0.980 -0.187 151 124 102 0 0
-0.1914 0.8684 -0.7038 0.475 -0.686 -0.551 154 126 106 0 0
-0.1888 0.8722 -0.7050 0.198 -0.946 -0.257 156 130 107 0 0
-0.1863 0.8766 -0.7065 0.091 -0.973 -0.210 157 130 109 0 0
-0.1838 0.8760 -0.7061 0.382 -0.825 -0.417 159 133 111 0 0
-0.1515 0.8733 -0.7032 0.023 -0.954 0.299 169 145 122 0 0
-0.0668 0.9334 -0.7196 0.540 -0.378 0.752 174 156 137 0 0
-0.0422 0.9601 -0.7277 0.681 -0.251 0.688 173 155 136 0 0
-0.0395 0.9627 -0.7284 0.733 -0.387 0.559 176 158 140 0 0
-0.0272 0.9624 -0.7276 0.046 -0.996 -0.074 182 165 146 0 0
-0.0221 0.9649 -0.7282 0.702 -0.712 0.000 186 170 155 0 0
-0.0193 0.9677 -0.7290 0.702 -0.712 0.000 187 171 157 0 0
-0.0166 0.9700 -0.7297 0.650 -0.757 0.068 185 169 155 0 0
-0.0115 0.9717 -0.7300 0.169 -0.824 0.541 184 167 153 0 0
-0.0061 0.9764 -0.7313 0.371 -0.445 0.815 184 169 152 0 0
-1.2637 0.2230 -0.5398 0.289 -0.107 0.951 193 175 150 0 0
-1.2625 0.2247 -0.5403 0.441 -0.074 0.895 191 172 147 0 0
-1.2609 0.2261 -0.5407 0.438 -0.117 0.891 190 170 146 0 0
-1.2610 0.2288 -0.5417 0.333 -0.407 0.851 194 175 152 0 0
-1.2585 0.2296 -0.5418 0.408 -0.371 0.834 200 182 160 0 0
-1.2293 0.2438 -0.5452 -0.230 -0.445 0.865 179 154 121 0 0
-1.2249 0.2428 -0.5445 0.183 -0.397 0.900 173 148 118 0 0
-1.2111 0.2563 -0.5486 0.668 -0.275 0.691 159 130 104 0 0
-1.1784 0.2766 -0.5539 -0.193 -0.760 0.621 176 149 122 0 0
-1.1736 0.2752 -0.5531 0.078 -0.497 0.864 180 153 124 0 0
-1.1656 0.2766 -0.5531 -0.160 -0.350 0.923 178 152 123 0 0
-1.1501 0.2801 -0.5534 0.025 -0.519 0.854 186 161 134 0 0
-1.0991 0.3141 -0.5625 0.093 -0.249 0.964 194 174 149 0 0
-1.0971 0.3152 -0.5628 0.107 -0.199 0.974 196 179 153 0 0
-1.0948 0.3161 -0.5630 0.140 -0.105 0.985 195 178 152 0 0
-1.0933 0.3178 -0.5635 0.337 -0.030 0.941 196 176 151 0 0
-1.0695 0.3356 -0.5685 0.913 -0.316 0.256 168 140 111 0 0
-1.0486 0.3610 -0.5763 0.211 -0.977 -0.041 196 178 152 0 0
-1.0253 0.3663 -0.5768 0.421 -0.900 0.115 197 177 151 0 0
-0.9896 0.3976 -0.5859 0.363 -0.213 0.907 191 166 139 0 0
-0.9570 0.4144 -0.5900 0.415 -0.169 0.894 189 163 136 0 0
-0.9570 0.4186 -0.5915 -0.508 -0.702 0.499 190 164 139 0 0
-0.9151 0.4309 -0.5933 0.423 -0.271 0.865 183 155 128 0 0
-0.9021 0.4424 -0.5967 0.440 -0.865 0.240 179 153 128 0 0
-0.8958 0.4463 -0.5977 0.815 -0.462 0.349 182 156 130 0 0
-0.8901 0.4511 -0.5991 0.573 -0.765 0.293 192 166 139 0 0
-0.8861 0.4540 -0.5999 0.342 -0.936 0.082 188 162 133 0 0
-0.8065 0.4904 -0.6081 0.761 -0.420 0.495 173 143 116 0 0
-0.8048 0.4926 -0.6088 0.761 -0.420 0.495 176 148 121 0 0
-0.7180 0.5450 -0.6224 0.109 -0.273 0.956 199 182 162 0 0
-0.7157 0.5462 -0.6227 -0.035 -0.330 0.943 196 179 160 0 0
-0.7100 0.5588 -0.6269 0.718 -0.031 0.695 198 176 153 0 0
-0.7096 0.5643 -0.6288 0.398 -0.450 0.799 195 173 147 0 0
-0.6198 0.5876 -0.6317 0.253 -0.371 0.894 190 168 141 0 0
-0.5578 0.6379 -0.6460 0.462 -0.762 0.454 209 192 173 0 0
-0.5556 0.6398 -0.6466 0.004 -0.951 0.310 207 190 171 0 0
-0.5530 0.6399 -0.6465 0.254 -0.910 0.329 206 189 167 0 0
-0.5317 0.6706 -0.6562 0.413 -0.723 0.553 194 174 151 0 0
-0.4802 0.6770 -0.6553 0.017 -0.987 0.157 175 149 124 0 0
-0.4775 0.6765 -0.6550 -0.134 -0.987 -0.094 177 151 126 0 0
-0.4515 0.6499 -0.6438 -0.180 -0.496 0.849 201 184 168 0 0
-0.4409 0.6886 -0.6571 0.888 0.028 0.459 179 154 128 0 0
-0.4347 0.6972 -0.6599 0.453 -0.141 0.881 179 155 130 0 0
-0.3493 0.7674 -0.6799 0.300 -0.900 -0.317 180 160 135 0 0
-0.3467 0.7670 -0.6796 0.638 -0.767 -0.071 166 141 115 0 0
-0.3442 0.7679 -0.6798 0.534 -0.733 0.422 156 129 107 0 0
-0.3418 0.7697 -0.6803 0.680 -0.594 0.429 157 130 108 0 0
-0.3314 0.7672 -0.6787 0.101 -0.193 0.976 182 161 136 0 0
-0.3289 0.7674 -0.6787 0.183 -0.170 0.968 185 163 139 0 0
-0.3130 0.7591 -0.6747 0.723 -0.687 0.073 190 170 147 0 0
-0.2704 0.7978 -0.6860 -0.674 -0.738 -0.035 173 151 128 0 0
-0.2681 0.8017 -0.6873 0.095 -0.509 0.855 175 150 127 0 0
-0.2655 0.8009 -0.6868 0.593 -0.301 0.747 172 149 126 0 0
-0.2628 0.7962 -0.6850 -0.243 -0.698 0.674 171 148 123 0 0
-0.1991 0.8620 -0.7048 0.428 -0.870 -0.245 154 127 104 0 0
-0.1940 0.8692 -0.7071 0.475 -0.686 -0.551 145 119 97 0 0
-0.1915 0.8715 -0.7078 0.475 -0.686 -0.551 149 123 100 0 0
-0.1516 0.8730 -0.7058 0.044 -0.880 0.472 158 135 112 0 0
-0.0911 0.9052 -0.7137 0.741 -0.212 0.637 167 148 128 0 0
-0.0802 0.9205 -0.7186 0.192 -0.794 0.577 175 156 138 0 0
-0.0728 0.9213 -0.7184 0.143 -0.687 0.712 172 154 135 0 0
-0.0702 0.9231 -0.7189 0.842 -0.395 0.367 174 157 137 0 0
-0.0497 0.9601 -0.7310 -0.164 -0.740 0.652 173 155 136 0 0
-0.0395 0.9628 -0.7314 0.857 -0.508 0.087 171 153 134 0 0
-0.0364 0.9691 -0.7334 0.876 -0.446 0.181 177 158 141 0 0
-0.0252 0.9593 -0.7292 0.335 -0.908 0.254 185 168 150 0 0
-0.0227 0.9600 -0.7293 0.518 -0.839 0.165 189 172 157 0 0
-0.0203 0.9598 -0.7291 0.293 -0.837 0.462 192 178 164 0 0
-0.0174 0.9639 -0.7304 0.323 -0.743 0.586 192 180 168 0 0
-0.0148 0.9649 -0.7306 0.398 -0.758 0.517 192 180 168 0 0
-1.3020 0.1875 -0.5318 0.933 -0.325 0.154 171 147 118 0 0
-1.3001 0.1886 -0.5320 0.864 -0.499 0.070 174 152 121 0 0
-1.2991 0.1904 -0.5326 0.530 -0.833 0.158 180 158 128 0 0
-1.2967 0.1911 -0.5327 0.286 -0.872 0.398 191 172 143 0 0
-1.2940 0.1916 -0.5327 0.188 -0.979 0.083 200 183 156 0 0
-1.2782 0.2025 -0.5357 0.944 0.062 0.323 179 158 131 0 0
-1.2612 0.2180 -0.5402 0.430 0.017 0.903 196 178 153 0 0
-1.2624 0.2216 -0.5416 0.064 -0.182 0.981 195 177 152 0 0
-1.2604 0.2226 -0.5419 0.193 -0.166 0.967 197 180 155 0 0
-1.2585 0.2238 -0.5422 0.419 -0.104 0.902 198 180 157 0 0
-1.2574 0.2256 -0.5428 0.370 -0.197 0.908 201 183 160 0 0
-1.2231 0.2410 -0.5462 0.225 -0.536 0.813 186 165 138 0 0
-1.2081 0.2562 -0.5508 0.373 -0.456 0.808 154 126 101 0 0
-1.2062 0.2574 -0.5511 0.317 -0.799 0.512 151 122 99 0 0
-1.2039 0.2583 -0.5513 0.332 -0.831 0.446 162 135 107 0 0
-1.2023 0.2626 -0.5528 0.327 -0.871 0.365 169 143 113 0 0
-1.2001 0.2636 -0.5530 0.401 -0.861 0.313 171 145 116 0 0
-1.1776 0.2754 -0.5559 -0.269 -0.758 0.595 172 144 116 0 0
-1.1643 0.2750 -0.5549 0.008 -0.318 0.948 174 147 118 0 0
-1.1590 0.2791 -0.5560 -0.121 -0.805 0.582 177 150 121 0 0
-1.1411 0.2925 -0.5598 -0.269 -0.704 0.657 191 168 136 0 0
-1.1365 0.2911 -0.5590 -0.118 -0.750 0.650 193 170 141 0 0
-1.1331 0.2908 -0.5587 -0.118 -0.750 0.650 194 172 144 0 0
-1.1321 0.2930 -0.5594 0.476 -0.729 0.492 193 171 143 0 0
-1.1306 0.2946 -0.5599 0.749 -0.565 0.345 190 168 139 0 0
-1.1268 0.2940 -0.5594 0.525 -0.313 0.792 186 161 132 0 0
-1.1079 0.3034 -0.5617 0.278 -0.950 0.145 179 155 126 0 0
-1.0874 0.3177 -0.5656 0.468 0.025 0.884 188 165 136 0 0
-1.0717 0.3275 -0.5682 0.668 -0.743 -0.039 172 143 114 0 0
-1.0673 0.3295 -0.5686 0.290 -0.922 -0.255 164 134 106 0 0
-1.0668 0.3357 -0.5708 0.594 -0.646 0.479 173 145 118 0 0
-1.0484 0.3604 -0.5786 0.391 -0.911 0.132 197 177 152 0 0
-1.0257 0.3626 -0.5780 0.590 -0.784 0.192 194 172 145 0 0
-0.8880 0.4518 -0.6018 0.581 -0.770 0.262 188 162 133 0 0
-0.8858 0.4531 -0.6021 0.437 -0.836 0.332 189 162 133 0 0
-0.8817 0.4558 -0.6029 0.162 -0.980 0.119 191 166 138 0 0
-0.8794 0.4568 -0.6031 0.488 -0.872 0.044 190 165 135 0 0
-0.8583 0.4651 -0.6048 0.286 -0.804 0.522 151 121 97 0 0
-0.7953 0.4956 -0.6119 0.110 -0.454 0.884 170 143 120 0 0
-0.7165 0.5410 -0.6235 0.087 -0.212 0.974 199 182 163 0 0
-0.7119 0.5432 -0.6240 0.033 -0.261 0.965 206 191 173 0 0
-0.6705 0.5699 -0.6311 0.902 0.161 0.400 181 156 131 0 0
-0.6704 0.5765 -0.6335 0.957 0.147 0.250 183 157 131 0 0
-0.6243 0.5845 -0.6335 0.460 -0.457 0.761 194 172 147 0 0
-0.6176 0.5885 -0.6345 0.793 -0.318 0.520 191 167 141 0 0
-0.5717 0.6206 -0.6433 -0.172 -0.848 0.502 202 183 160 0 0
-0.5687 0.6194 -0.6427 0.331 -0.939 0.090 205 188 167 0 0
-0.5668 0.6221 -0.6435 0.555 -0.765 0.325 200 181 159 0 0
-0.5644 0.6231 -0.6438 0.861 -0.470 0.194 193 172 148 0 0
-0.5625 0.6256 -0.6445 0.936 -0.351 -0.005 189 167 143 0 0
-0.5576 0.6364 -0.6481 0.383 -0.819 0.428 195 176 153 0 0
-0.5551 0.6373 -0.6483 0.282 -0.838 0.467 200 181 158 0 0
-0.4470 0.6521 -0.6469 0.673 -0.739 0.031 191 173 155 0 0
-0.4432 0.6582 -0.6489 0.918 0.032 0.395 187 166 146 0 0
-0.4422 0.6669 -0.6520 0.915 0.065 0.398 181 158 135 0 0
-0.4369 0.7084 -0.6668 0.862 -0.192 0.469 182 161 136 0 0
-0.3938 0.7129 -0.6657 0.603 -0.593 0.534 180 156 132 0 0
-0.3488 0.7615 -0.6805 0.751 -0.434 0.498 185 165 143 0 0
-0.3465 0.7643 -0.6814 0.723 -0.453 0.521 181 158 135 0 0
-0.3441 0.7658 -0.6818 0.158 -0.629 0.761 168 143 121 0 0
-0.3417 0.7668 -0.6820 0.220 -0.568 0.793 166 141 118 0 0
-0.3311 0.7629 -0.6799 0.160 -0.248 0.956 185 167 144 0 0
-0.3202 0.7530 -0.6757 -0.341 -0.922 0.182 179 158 135 0 0
-0.3154 0.7563 -0.6765 0.639 -0.768 0.046 185 165 140 0 0
-0.3131 0.7588 -0.6773 0.740 -0.657 0.144 187 167 143 0 0
-0.3110 0.7631 -0.6787 0.800 -0.503 0.328 188 168 145 0 0
-0.2839 0.8114 -0.6946 -0.006 -0.692 0.722 156 132 108 0 0
-0.2655 0.7982 -0.6886 0.376 -0.420 0.826 172 149 126 0 0
-0.2629 0.7949 -0.6873 -0.310 -0.648 0.696 169 143 121 0 0
-0.2536 0.8128 -0.6932 0.872 -0.116 0.476 157 131 109 0 0
-0.2042 0.8585 -0.7067 0.414 -0.735 -0.537 138 114 91 0 0
-0.1838 0.8916 -0.7174 -0.358 -0.778 -0.516 150 123 101 0 0
-0.1567 0.8699 -0.7078 -0.035 -0.998 0.051 149 124 101 0 0
-0.0941 0.8987 -0.7144 0.819 -0.255 0.514 165 145 127 0 0
-0.0916 0.9004 -0.7149 0.721 -0.211 0.660 164 143 123 0 0
-0.0858 0.9125 -0.7189 0.497 -0.296 0.816 166 147 127 0 0
-0.0826 0.9228 -0.7224 0.259 -0.320 0.911 175 158 139 0 0
-0.0474 0.9590 -0.7333 0.282 -0.559 0.780 161 140 121 0 0
-0.0397 0.9621 -0.7340 0.857 -0.508 0.087 168 147 129 0 0
-0.0367 0.9676 -0.7358 0.876 -0.446 0.181 172 153 135 0 0
-0.0254 0.9584 -0.7318 0.360 -0.778 0.515 181 163 145 0 0
-0.0230 0.9579 -0.7314 0.530 -0.754 0.389 181 165 147 0 0
-0.0202 0.9612 -0.7324 0.362 -0.782 0.507 187 171 154 0 0
-0.0177 0.9620 -0.7326 0.210 -0.742 0.636 191 177 163 0 0
-0.0152 0.9630 -0.7328 0.323 -0.743 0.586 192 179 166 0 0
0.0264 0.9852 -0.7382 0.892 -0.451 0.012 169 152 134 0 0
-1.2941 0.1914 -0.5351 0.188 -0.979 0.083 202 185 159 0 0
-1.2935 0.1934 -0.5358 0.417 -0.904 0.093 201 185 157 0 0
-1.2782 0.2022 -0.5380 0.919 -0.165 0.359 188 168 141 0 0
-1.2622 0.2105 -0.5401 0.221 -0.972 0.075 190 172 144 0 0
-1.2586 0.2183 -0.5426 0.167 -0.184 0.969 190 169 144 0 0
-1.2560 0.2215 -0.5437 0.412 -0.083 0.907 197 179 156 0 0
-1.2548 0.2232 -0.5442 0.133 -0.248 0.960 199 182 157 0 0
-1.2220 0.2397 -0.5481 0.211 -0.600 0.772 189 170 142 0 0
-1.2202 0.2409 -0.5485 0.058 -0.738 0.673 195 178 152 0 0
-1.2034 0.2575 -0.5535 0.326 -0.635 0.701 172 146 117 0 0
-1.2020 0.2591 -0.5540 0.297 -0.541 0.787 178 152 123 0 0
-1.1751 0.2728 -0.5572 -0.285 -0.786 0.548 165 135 108 0 0
-1.1299 0.2904 -0.5608 0.565 -0.561 0.605 190 166 138 0 0
-1.1284 0.2921 -0.5613 0.658 -0.554 0.511 178 151 122 0 0
-1.1247 0.2915 -0.5609 0.738 -0.484 0.470 168 141 112 0 0
-1.1224 0.2923 -0.5610 0.608 -0.499 0.618 159 132 102 0 0
-1.1217 0.2948 -0.5619 0.370 -0.835 0.407 162 133 104 0 0
-1.1198 0.2961 -0.5622 0.037 -0.881 0.472 167 141 111 0 0
-1.1062 0.3045 -0.5644 0.475 -0.879 0.036 179 157 128 0 0
-1.1041 0.3055 -0.5647 0.516 -0.850 0.100 189 169 141 0 0
-1.1005 0.3082 -0.5655 0.483 -0.832 0.271 186 164 137 0 0
-1.0947 0.3087 -0.5653 -0.097 -0.989 0.114 193 174 145 0 0
-1.0911 0.3082 -0.5649 -0.131 -0.973 0.189 194 174 144 0 0
-1.0867 0.3068 -0.5641 0.054 -0.959 -0.278 191 168 137 0 0
-1.0885 0.3119 -0.5660 0.519 -0.629 0.578 184 159 129 0 0
-1.0862 0.3128 -0.5662 0.591 -0.445 0.673 181 157 127 0 0
-1.0841 0.3204 -0.5689 0.334 0.024 0.942 184 159 132 0 0
-1.0530 0.3511 -0.5781 0.867 -0.095 0.489 186 164 138 0 0
-1.0515 0.3530 -0.5787 0.629 -0.191 0.754 180 157 129 0 0
-1.0483 0.3600 -0.5810 0.294 -0.936 0.194 194 173 144 0 0
-1.0258 0.3624 -0.5805 0.621 -0.781 0.073 187 163 134 0 0
-1.0001 0.3680 -0.5809 0.231 -0.925 0.301 177 149 121 0 0
-0.9972 0.3681 -0.5807 0.006 -0.937 0.349 179 153 125 0 0
-0.8983 0.4401 -0.6008 0.370 -0.706 0.604 157 127 100 0 0
-0.8092 0.4840 -0.6111 0.320 -0.800 0.507 168 139 115 0 0
-0.8037 0.4895 -0.6128 0.762 -0.250 0.597 170 141 117 0 0
-0.8021 0.4918 -0.6135 0.675 -0.365 0.641 179 151 128 0 0
-0.7914 0.4930 -0.6133 0.199 -0.381 0.903 178 153 128 0 0
-0.7893 0.4943 -0.6137 0.313 -0.354 0.881 189 164 140 0 0
-0.7469 0.5337 -0.6253 0.571 -0.335 0.750 189 165 140 0 0
-0.7017 0.5513 -0.6289 -0.142 -0.588 0.797 193 171 147 0 0
-0.6962 0.5513 -0.6285 0.426 -0.478 0.768 195 173 147 0 0
-0.6941 0.5527 -0.6289 0.733 -0.275 0.623 192 169 145 0 0
-0.6902 0.5567 -0.6302 0.666 -0.258 0.700 201 182 160 0 0
-0.6633 0.5577 -0.6288 0.179 -0.331 0.926 186 160 135 0 0
-0.6609 0.5586 -0.6290 0.406 -0.246 0.880 186 160 135 0 0
-0.6266 0.5827 -0.6356 0.557 -0.765 0.324 202 186 165 0 0
-0.6237 0.5822 -0.6353 0.388 -0.884 0.260 202 184 164 0 0
-0.6215 0.5835 -0.6356 0.326 -0.931 0.165 194 173 148 0 0
-0.6187 0.5831 -0.6353 0.645 -0.748 -0.160 187 163 137 0 0
-0.6129 0.6139 -0.6461 0.690 -0.723 -0.018 179 154 128 0 0
-0.5714 0.6192 -0.6454 0.111 -0.930 0.351 193 171 148 0 0
-0.5688 0.6192 -0.6453 0.331 -0.939 0.090 198 176 152 0 0
-0.5610 0.6291 -0.6484 0.929 -0.366 0.065 179 155 129 0 0
-0.5577 0.6269 -0.6474 0.324 -0.783 0.532 185 161 137 0 0
-0.5574 0.6353 -0.6504 0.436 -0.786 0.438 186 164 142 0 0
-0.5551 0.6364 -0.6507 0.244 -0.905 0.348 191 170 147 0 0
-0.5522 0.6358 -0.6503 0.171 -0.939 0.299 188 166 143 0 0
-0.5440 0.6346 -0.6493 -0.251 -0.963 -0.098 189 169 145 0 0
-0.4470 0.6509 -0.6491 0.662 -0.727 -0.181 189 168 149 0 0
-0.4415 0.6621 -0.6529 0.918 0.039 0.395 184 163 140 0 0
-0.4406 0.6707 -0.6560 0.918 0.039 0.395 184 162 139 0 0
-0.4364 0.7049 -0.6682 0.924 -0.255 0.287 183 161 137 0 0
-0.3937 0.7107 -0.6676 0.569 -0.542 0.619 164 137 113 0 0
-0.3253 0.7529 -0.6786 -0.177 -0.872 0.455 192 175 153 0 0
-0.3229 0.7544 -0.6791 0.137 -0.869 0.476 189 171 148 0 0
-0.3179 0.7546 -0.6788 0.301 -0.857 0.419 180 159 136 0 0
-0.3131 0.7573 -0.6795 0.585 -0.621 0.521 188 169 146 0 0
-0.3108 0.7597 -0.6802 0.702 -0.449 0.552 189 168 146 0 0
-0.2656 0.7966 -0.6908 0.018 -0.966 0.257 172 147 124 0 0
-0.2632 0.7982 -0.6912 0.274 -0.822 0.499 169 143 121 0 0
-0.2607 0.7991 -0.6914 0.221 -0.844 0.489 166 142 119 0 0
-0.2583 0.8019 -0.6923 0.786 -0.545 0.290 165 139 116 0 0
-0.2560 0.8061 -0.6937 0.914 -0.384 0.133 163 138 114 0 0
-0.2464 0.8171 -0.6971 0.362 -0.705 0.610 160 133 113 0 0
-0.2415 0.8214 -0.6983 0.817 -0.321 -0.478 164 137 116 0 0
-0.2391 0.8272 -0.7003 0.851 -0.355 -0.387 166 141 117 0 0
-0.2044 0.8639 -0.7115 0.570 -0.818 0.082 131 107 85 0 0
-0.2018 0.8732 -0.7147 0.850 -0.455 0.266 133 109 86 0 0
-0.1839 0.8954 -0.7217 -0.447 -0.882 0.147 140 115 93 0 0
-0.1813 0.8952 -0.7214 -0.111 -0.993 -0.029 148 122 100 0 0
-0.1245 0.8802 -0.7124 0.141 -0.737 0.661 178 160 143 0 0
-0.0945 0.8947 -0.7158 0.819 -0.255 0.514 177 160 143 0 0
-0.0430 0.9548 -0.7344 0.156 -0.979 -0.129 156 135 115 0 0
0.0263 0.9849 -0.7410 0.892 -0.451 0.012 171 153 136 0 0
0.0300 0.9934 -0.7439 -0.311 -0.543 0.780 172 154 137 0 0
-1.2610 0.2119 -0.5429 0.257 -0.966 0.028 188 168 140 0 0
-1.2513 0.2200 -0.5452 -0.003 -0.255 0.967 191 170 143 0 0
-1.2204 0.2380 -0.5499 0.066 -0.689 0.721 187 166 138 0 0
-1.1576 0.2651 -0.5558 0.546 -0.642 0.537 175 148 119 0 0
-1.1564 0.2669 -0.5564 0.684 -0.435 0.585 174 146 116 0 0
-1.1508 0.2827 -0.5618 0.731 -0.670 0.129 178 153 123 0 0
-1.1215 0.2942 -0.5641 0.081 -0.988 0.133 158 131 102 0 0
-1.1077 0.3056 -0.5674 0.334 -0.867 -0.371 160 132 106 0 0
-1.1055 0.3066 -0.5677 0.334 -0.867 -0.371 160 132 107 0 0
-1.0980 0.3085 -0.5679 -0.144 -0.936 -0.320 174 147 119 0 0
-1.0950 0.3086 -0.5677 -0.093 -0.942 -0.322 183 158 129 0 0
-1.0871 0.3101 -0.5678 0.355 -0.927 0.120 175 146 119 0 0
-1.0851 0.3112 -0.5680 0.671 -0.655 0.348 176 149 123 0 0
-1.0836 0.3129 -0.5686 0.732 -0.285 0.619 179 153 125 0 0
-1.0819 0.3144 -0.5690 0.187 -0.578 0.794 186 160 132 0 0
-1.0799 0.3156 -0.5693 0.040 -0.446 0.894 188 166 139 0 0
-1.0640 0.3284 -0.5730 -0.216 -0.836 0.504 182 157 129 0 0
-1.0488 0.3495 -0.5798 0.575 0.054 0.817 194 173 146 0 0
-1.0427 0.3566 -0.5820 -0.281 -0.881 0.381 190 167 140 0 0
-0.9363 0.4135 -0.5960 0.534 -0.457 0.711 186 161 133 0 0
-0.8152 0.4790 -0.6123 0.558 -0.779 0.286 170 141 116 0 0
-0.8113 0.4822 -0.6132 0.511 -0.855 -0.088 170 141 116 0 0
-0.8095 0.4841 -0.6138 0.353 -0.927 0.122 165 135 111 0 0
-0.6624 0.5550 -0.6304 0.050 -0.669 0.742 187 161 136 0 0
-0.6599 0.5555 -0.6304 0.538 -0.266 0.800 185 159 134 0 0
-0.6436 0.5694 -0.6345 -0.096 -0.433 0.896 194 174 149 0 0
-0.6285 0.5798 -0.6373 0.728 -0.413 0.547 203 185 165 0 0
-0.6265 0.5819 -0.6380 0.718 -0.683 0.134 204 188 167 0 0
-0.6237 0.5815 -0.6376 0.278 -0.931 -0.236 202 186 167 0 0
-0.6210 0.5815 -0.6374 -0.193 -0.918 -0.346 201 183 162 0 0
-0.6191 0.5839 -0.6382 0.438 -0.843 -0.314 193 170 144 0 0
-0.5739 0.6179 -0.6478 0.030 -0.926 0.376 193 172 148 0 0
-0.5715 0.6187 -0.6479 0.194 -0.972 0.136 189 165 140 0 0
-0.5691 0.6195 -0.6481 0.405 -0.913 -0.044 184 158 132 0 0
-0.5668 0.6209 -0.6484 0.446 -0.894 0.046 177 151 126 0 0
-0.5575 0.6256 -0.6495 0.324 -0.783 0.532 188 166 141 0 0
-0.5550 0.6355 -0.6530 0.244 -0.905 0.348 192 171 147 0 0
-0.4652 0.6524 -0.6535 0.749 -0.626 -0.217 166 138 116 0 0
-0.4614 0.6588 -0.6556 -0.486 -0.855 0.178 164 136 113 0 0
-0.4388 0.6739 -0.6597 0.884 0.049 0.465 183 160 137 0 0
-0.4344 0.6924 -0.6662 0.457 -0.221 0.862 183 161 137 0 0
-0.4310 0.6879 -0.6643 -0.557 -0.800 0.226 183 161 137 0 0
-0.4231 0.6865 -0.6633 0.088 -0.858 0.506 180 158 134 0 0
-0.3907 0.7063 -0.6685 -0.110 -0.920 0.376 166 140 116 0 0
-0.3794 0.7165 -0.6715 0.727 -0.159 0.668 160 134 111 0 0
-0.3180 0.7533 -0.6810 0.111 -0.959 0.259 189 169 146 0 0
-0.3155 0.7534 -0.6809 0.235 -0.806 0.543 189 170 145 0 0
-0.3131 0.7556 -0.6816 0.585 -0.621 0.521 192 175 150 0 0
-0.3108 0.7577 -0.6822 0.555 -0.598 0.579 190 171 147 0 0
-0.2945 0.8139 -0.7017 0.964 -0.140 0.226 184 162 139 0 0
-0.2925 0.8220 -0.7046 0.681 -0.651 -0.336 182 159 135 0 0
-0.2606 0.7923 -0.6917 0.565 -0.624 0.540 171 148 124 0 0
-0.2560 0.8025 -0.6951 0.907 -0.220 0.358 165 141 117 0 0
-0.2489 0.8129 -0.6985 0.712 -0.317 0.627 166 142 119 0 0
-0.2462 0.8095 -0.6970 0.483 -0.691 0.538 167 142 121 0 0
-0.2416 0.8227 -0.7016 0.811 -0.369 -0.453 170 144 124 0 0
-0.2393 0.8315 -0.7047 0.811 -0.369 -0.453 169 145 121 0 0
-0.2342 0.8267 -0.7026 0.835 -0.203 0.511 169 145 121 0 0
-0.2045 0.8679 -0.7158 0.766 -0.493 0.413 128 105 82 0 0
-0.1866 0.8908 -0.7230 0.004 -0.998 0.061 129 104 82 0 0
-0.1841 0.8876 -0.7217 0.862 -0.455 -0.222 132 108 84 0 0
-0.1815 0.8945 -0.7241 0.846 -0.460 -0.268 140 116 92 0 0
-0.1497 0.8675 -0.7121 0.173 -0.670 0.722 139 117 96 0 0
-0.0949 0.8901 -0.7169 0.787 -0.185 0.589 186 170 155 0 0
-0.0924 0.8915 -0.7173 0.800 -0.264 0.539 185 169 154 0 0
0.0076 0.9718 -0.7403 -0.347 -0.778 0.524 178 161 145 0 0
0.0101 0.9726 -0.7404 0.256 -0.767 0.588 171 153 135 0 0
0.0126 0.9734 -0.7406 0.535 -0.676 0.507 167 148 132 0 0
0.0149 0.9723 -0.7400 -0.110 -0.980 0.166 168 150 132 0 0
0.0205 0.9780 -0.7418 0.460 -0.706 -0.538 169 152 135 0 0
0.0236 0.9835 -0.7436 0.534 -0.801 -0.271 172 154 137 0 0
0.0263 0.9856 -0.7441 0.648 -0.677 -0.348 172 155 137 0 0
0.0285 0.9836 -0.7433 0.432 -0.899 -0.076 172 155 138 0 0
-1.2612 0.2117 -0.5453 0.176 -0.982 0.067 175 152 126 0 0
-1.2573 0.2112 -0.5448 0.161 -0.955 0.248 170 148 120 0 0
-1.2406 0.2271 -0.5496 0.199 -0.020 0.980 190 167 142 0 0
-1.2186 0.2388 -0.5525 -0.125 -0.992 -0.017 181 158 132 0 0
-1.2159 0.2393 -0.5525 -0.108 -0.861 0.497 185 164 137 0 0
-1.1494 0.2871 -0.5658 0.258 -0.469 0.845 176 151 121 0 0
-1.1342 0.2847 -0.5639 -0.222 -0.604 0.766 187 164 134 0 0
-1.1053 0.3060 -0.5699 0.595 -0.803 0.016 133 106 83 0 0
-1.0995 0.3097 -0.5709 -0.119 -0.916 -0.383 152 123 98 0 0
-1.0865 0.3091 -0.5698 0.192 -0.981 -0.038 166 137 111 0 0
-1.0847 0.3104 -0.5702 0.653 -0.748 0.117 177 149 121 0 0
-1.0805 0.3125 -0.5707 0.339 -0.805 0.486 188 166 139 0 0
-1.0457 0.3350 -0.5768 0.092 -0.316 0.944 198 180 156 0 0
-1.0423 0.3557 -0.5842 -0.301 -0.910 0.285 189 164 135 0 0
-0.9354 0.4117 -0.5979 0.585 -0.428 0.689 179 151 123 0 0
-0.8933 0.4407 -0.6058 0.792 -0.361 0.492 161 132 106 0 0
-0.8562 0.4603 -0.6106 0.511 -0.581 0.634 186 160 132 0 0
-0.8542 0.4617 -0.6110 0.511 -0.581 0.634 186 159 132 0 0
-0.8117 0.4823 -0.6159 0.538 -0.831 -0.142 170 144 119 0 0
-0.8095 0.4836 -0.6162 0.253 -0.965 0.067 162 132 109 0 0
-0.7026 0.5394 -0.6298 0.212 -0.795 0.568 189 165 141 0 0
-0.6644 0.5525 -0.6322 0.164 -0.615 0.771 188 163 139 0 0
-0.6619 0.5531 -0.6322 0.344 -0.586 0.733 185 160 136 0 0
-0.6403 0.5672 -0.6361 0.237 -0.400 0.885 197 179 155 0 0
-0.6255 0.5783 -0.6392 0.548 -0.511 0.662 203 185 163 0 0
-0.6241 0.5821 -0.6405 0.278 -0.931 -0.236 202 185 165 0 0
-0.6216 0.5826 -0.6405 0.135 -0.969 -0.208 199 181 162 0 0
-0.6196 0.5846 -0.6411 0.482 -0.829 -0.283 198 178 155 0 0
-0.5735 0.6158 -0.6496 0.382 -0.910 0.161 191 169 145 0 0
-0.5715 0.6181 -0.6504 0.222 -0.954 0.201 190 165 141 0 0
-0.5691 0.6190 -0.6505 0.564 -0.824 0.061 182 156 132 0 0
-0.5669 0.6206 -0.6510 0.405 -0.913 -0.044 170 142 118 0 0
-0.5645 0.6214 -0.6511 0.442 -0.871 0.214 170 143 117 0 0
-0.5434 0.6312 -0.6534 0.806 -0.588 -0.068 165 140 118 0 0
-0.5301 0.6206 -0.6486 -0.117 -0.983 0.141 190 169 146 0 0
-0.5273 0.6200 -0.6482 -0.057 -0.983 -0.173 194 175 154 0 0
-0.4701 0.6504 -0.6557 -0.257 -0.965 -0.045 149 121 99 0 0
-0.4675 0.6502 -0.6554 -0.253 -0.962 -0.102 150 122 100 0 0
-0.4654 0.6527 -0.6562 0.700 -0.587 -0.406 154 126 103 0 0
-0.4636 0.6561 -0.6574 0.718 -0.649 -0.252 162 134 112 0 0
-0.4502 0.6529 -0.6553 -0.263 -0.892 0.367 175 154 130 0 0
-0.4330 0.6836 -0.6655 0.318 -0.448 0.836 186 165 141 0 0
-0.4305 0.6836 -0.6654 0.226 -0.479 0.848 187 166 141 0 0
-0.4283 0.6862 -0.6662 -0.037 -0.597 0.801 186 166 142 0 0
-0.4255 0.6848 -0.6655 0.019 -0.851 0.525 189 169 145 0 0
-0.4231 0.6851 -0.6654 0.246 -0.820 0.517 184 164 140 0 0
-0.4204 0.6845 -0.6650 0.709 -0.625 0.326 188 169 146 0 0
-0.4182 0.6863 -0.6656 0.563 -0.591 0.577 195 178 160 0 0
-0.3858 0.7063 -0.6708 -0.080 -0.642 0.762 163 138 114 0 0
-0.3155 0.7525 -0.6833 -0.002 -0.920 0.393 194 176 152 0 0
-0.2963 0.8000 -0.6995 0.978 -0.170 0.121 177 153 130 0 0
-0.2943 0.8077 -0.7022 0.951 -0.166 0.262 185 163 139 0 0
-0.2698 0.7747 -0.6885 0.670 -0.061 0.739 178 156 133 0 0
-0.2538 0.8071 -0.6994 0.965 -0.227 0.130 165 139 116 0 0
-0.2514 0.8095 -0.7001 0.768 -0.235 0.595 166 140 120 0 0
-0.2196 0.8457 -0.7114 0.027 -0.715 0.699 137 112 90 0 0
-0.2171 0.8458 -0.7113 0.027 -0.715 0.699 138 113 91 0 0
-0.2046 0.8684 -0.7188 0.742 -0.560 0.368 131 107 84 0 0
-0.2021 0.8711 -0.7196 0.809 -0.511 0.289 127 103 79 0 0
-0.1970 0.8781 -0.7219 0.880 -0.435 -0.188 130 105 82 0 0
-0.1919 0.8834 -0.7235 0.812 -0.505 0.293 135 110 87 0 0
-0.1893 0.8825 -0.7230 0.661 -0.727 -0.185 133 109 85 0 0
-0.1867 0.8910 -0.7260 0.047 -0.971 0.234 130 106 82 0 0
-0.1842 0.8901 -0.7255 0.851 -0.422 -0.313 130 105 82 0 0
-0.1622 0.8619 -0.7137 0.250 -0.862 0.441 157 133 110 0 0
-0.1523 0.8652 -0.7142 0.346 -0.803 0.486 135 113 91 0 0
-0.0981 0.8799 -0.7162 0.775 -0.203 0.599 180 163 147 0 0
-0.0953 0.8852 -0.7179 0.775 -0.203 0.599 183 167 151 0 0
-0.0925 0.8906 -0.7197 0.815 -0.227 0.533 185 168 153 0 0
-0.0898 0.8954 -0.7213 0.784 -0.259 0.564 186 169 154 0 0
-0.0870 0.9003 -0.7229 0.784 -0.259 0.564 185 168 153 0 0
-0.0841 0.9064 -0.7250 0.614 -0.374 0.694 180 163 146 0 0
-0.0815 0.9089 -0.7258 0.790 -0.273 0.548 181 164 145 0 0
0.0228 0.9778 -0.7444 0.627 -0.767 -0.136 171 154 136 0 0
0.0256 0.9806 -0.7452 0.819 -0.558 -0.133 172 155 137 0 0
0.0284 0.9838 -0.7462 0.432 -0.899 -0.076 175 156 138 0 0
-1.2571 0.2134 -0.5481 0.575 -0.111 0.810 170 146 119 0 0
-1.2380 0.2219 -0.5500 0.242 0.061 0.968 198 181 156 0 0
-1.2353 0.2224 -0.5500 0.304 0.023 0.952 199 182 160 0 0
-1.2158 0.2389 -0.5548 0.043 -0.989 0.144 175 149 122 0 0
-1.2137 0.2399 -0.5550 -0.005 -0.888 0.461 174 149 119 0 0
-1.1844 0.2539 -0.5583 -0.076 -0.163 0.984 186 160 134 0 0
-1.1636 0.2582 -0.5585 0.310 -0.258 0.915 183 156 129 0 0
-1.1605 0.2583 -0.5584 0.334 -0.335 0.881 186 160 131 0 0
-1.1586 0.2594 -0.5587 0.334 -0.335 0.881 181 155 124 0 0
-1.1503 0.2815 -0.5663 0.092 -0.288 0.953 177 152 123 0 0
-1.1013 0.3080 -0.5729 -0.141 -0.972 -0.187 139 111 88 0 0
-1.0976 0.3074 -0.5724 -0.141 -0.972 -0.187 151 121 97 0 0
-1.0450 0.3338 -0.5788 0.129 -0.629 0.766 188 166 140 0 0
-1.0433 0.3353 -0.5792 0.426 -0.553 0.717 189 167 141 0 0
-0.9962 0.3581 -0.5846 -0.109 -0.246 0.963 191 167 140 0 0
-0.8097 0.4834 -0.6187 0.253 -0.965 0.067 175 151 128 0 0
-0.7131 0.5313 -0.6301 0.922 -0.332 0.198 198 180 160 0 0
-0.7049 0.5378 -0.6320 0.470 -0.673 0.571 184 159 134 0 0
-0.6733 0.5404 -0.6309 0.496 -0.704 0.508 198 177 155 0 0
-0.6707 0.5407 -0.6308 0.470 -0.698 0.541 195 175 152 0 0
-0.6689 0.5430 -0.6316 0.568 -0.558 0.605 193 171 147 0 0
-0.6692 0.5505 -0.6344 0.673 -0.653 0.348 186 160 137 0 0
-0.6669 0.5515 -0.6346 0.365 -0.694 0.620 189 165 142 0 0
-0.6645 0.5522 -0.6347 0.387 -0.514 0.766 189 163 140 0 0
-0.6459 0.5599 -0.6363 0.301 -0.538 0.788 200 182 158 0 0
-0.6369 0.5647 -0.6375 0.539 -0.673 0.507 201 181 158 0 0
-0.5721 0.6105 -0.6502 0.618 -0.740 -0.266 183 159 136 0 0
-0.5712 0.6165 -0.6524 0.437 -0.899 0.024 176 149 126 0 0
-0.5692 0.6187 -0.6531 0.564 -0.824 0.061 173 147 122 0 0
-0.5669 0.6198 -0.6533 0.498 -0.867 0.012 165 138 113 0 0
-0.5644 0.6203 -0.6533 0.356 -0.827 0.434 169 141 115 0 0
-0.5620 0.6211 -0.6535 0.425 -0.706 0.567 185 160 135 0 0
-0.5303 0.6207 -0.6513 0.014 -0.684 0.729 178 157 135 0 0
-0.5279 0.6216 -0.6514 -0.028 -0.879 0.476 196 177 156 0 0
-0.5223 0.6199 -0.6504 0.110 -0.941 0.319 193 175 155 0 0
-0.5153 0.6438 -0.6588 0.141 -0.942 0.304 185 163 138 0 0
-0.4743 0.6575 -0.6612 0.828 -0.091 0.554 154 128 105 0 0
-0.4702 0.6503 -0.6583 -0.036 -0.996 -0.081 149 121 98 0 0
-0.4678 0.6509 -0.6584 0.055 -0.972 -0.230 148 120 97 0 0
-0.4660 0.6544 -0.6595 0.700 -0.587 -0.406 151 123 100 0 0
-0.4303 0.6818 -0.6673 0.327 -0.126 0.936 186 166 142 0 0
-0.4228 0.6826 -0.6671 0.308 -0.564 0.766 187 167 143 0 0
-0.4204 0.6834 -0.6673 0.327 -0.538 0.777 188 169 145 0 0
-0.4179 0.6839 -0.6673 0.446 -0.620 0.646 196 179 159 0 0
-0.3856 0.7041 -0.6727 -0.080 -0.642 0.762 172 148 125 0 0
-0.3826 0.7008 -0.6713 0.889 -0.338 0.309 158 134 109 0 0
-0.3770 0.7150 -0.6761 0.768 -0.084 0.635 154 127 103 0 0
-0.3514 0.7332 -0.6812 0.311 -0.888 0.339 178 154 130 0 0
-0.3495 0.7388 -0.6831 0.806 -0.532 0.259 180 156 133 0 0
-0.3038 0.7605 -0.6882 0.509 -0.510 0.694 176 153 130 0 0
-0.2964 0.7996 -0.7022 0.964 -0.252 0.080 174 150 127 0 0
-0.2630 0.7844 -0.6944 -0.615 -0.687 0.387 170 148 125 0 0
-0.2489 0.8065 -0.7016 0.748 -0.011 0.664 171 148 125 0 0
-0.2366 0.8099 -0.7021 0.534 0.060 0.844 175 153 129 0 0
-0.2172 0.8442 -0.7135 0.318 -0.701 0.638 139 114 92 0 0
-0.2147 0.8430 -0.7129 -0.117 -0.743 0.659 139 114 93 0 0
-0.2047 0.8654 -0.7205 0.618 -0.691 0.375 133 110 87 0 0
-0.1971 0.8781 -0.7248 0.855 -0.412 0.316 128 107 83 0 0
-0.1946 0.8802 -0.7254 0.943 -0.318 -0.094 134 110 89 0 0
-0.1920 0.8837 -0.7265 0.792 -0.285 0.539 139 114 93 0 0
-0.1895 0.8823 -0.7258 0.658 -0.586 0.473 138 113 91 0 0
-0.1869 0.8859 -0.7270 0.741 -0.608 0.284 134 110 87 0 0
-0.1843 0.8923 -0.7292 0.918 -0.350 -0.186 134 110 87 0 0
-0.1648 0.8615 -0.7165 -0.021 -0.927 0.375 163 140 116 0 0
-0.1624 0.8615 -0.7163 -0.073 -0.934 0.349 166 142 117 0 0
-0.1080 0.8783 -0.7190 0.146 -0.970 0.193 178 160 142 0 0
-0.1055 0.8788 -0.7190 0.239 -0.949 0.205 174 156 138 0 0
0.0173 0.9737 -0.7461 0.621 -0.301 0.724 170 152 135 0 0
0.0199 0.9753 -0.7465 0.673 -0.300 0.677 170 152 133 0 0
0.0230 0.9798 -0.7480 0.766 -0.310 0.563 171 154 136 0 0
0.0260 0.9846 -0.7496 0.766 -0.310 0.563 171 154 134 0 0
0.0280 0.9815 -0.7483 0.533 -0.619 0.577 175 157 137 0 0
-1.2010 0.2398 -0.5566 0.439 -0.330 0.836 175 149 121 0 0
-1.1759 0.2574 -0.5615 -0.161 -0.301 0.940 196 174 147 0 0
-1.1604 0.2549 -0.5596 0.483 -0.245 0.841 184 158 129 0 0
-1.1579 0.2555 -0.5596 0.494 -0.304 0.814 184 160 129 0 0
-1.1567 0.2573 -0.5602 0.334 -0.335 0.881 184 158 128 0 0
-1.1562 0.2598 -0.5611 0.297 -0.073 0.952 176 147 118 0 0
-1.1492 0.2740 -0.5659 0.569 -0.061 0.820 200 181 153 0 0
-1.1478 0.2757 -0.5664 0.288 -0.260 0.922 193 173 144 0 0
-1.1479 0.2789 -0.5676 0.119 -0.313 0.942 182 161 130 0 0
-1.1455 0.2796 -0.5677 0.011 -0.499 0.867 175 150 119 0 0
-1.1428 0.2800 -0.5677 -0.187 -0.615 0.766 174 149 119 0 0
-1.1359 0.2825 -0.5682 0.262 -0.325 0.909 188 164 133 0 0
-1.1258 0.2912 -0.5707 0.917 0.234 0.325 182 158 128 0 0
-1.1028 0.3059 -0.5747 0.208 -0.955 0.211 140 112 87 0 0
-1.0595 0.3256 -0.5792 0.275 -0.164 0.947 193 170 147 0 0
-1.0420 0.3335 -0.5809 0.425 -0.477 0.769 183 158 132 0 0
-1.0401 0.3348 -0.5813 0.580 -0.417 0.700 179 153 125 0 0
-1.0374 0.3387 -0.5826 0.118 -0.762 0.637 179 152 124 0 0
-1.0347 0.3390 -0.5825 0.092 -0.802 0.590 184 159 130 0 0
-1.0315 0.3423 -0.5835 0.357 -0.699 0.620 182 156 128 0 0
-1.0093 0.3446 -0.5829 -0.002 -0.750 0.662 187 163 133 0 0
-1.0039 0.3453 -0.5828 -0.023 -0.783 0.622 193 172 143 0 0
-0.8897 0.4432 -0.6117 0.829 -0.504 0.242 168 141 114 0 0
-0.6883 0.5368 -0.6331 -0.041 -0.717 0.696 194 172 149 0 0
-0.6664 0.5496 -0.6365 0.154 -0.692 0.705 187 162 138 0 0
-0.5802 0.5847 -0.6438 0.531 -0.845 0.057 183 161 137 0 0
-0.5706 0.6135 -0.6539 0.677 -0.736 -0.026 175 148 125 0 0
-0.5690 0.6172 -0.6552 0.374 -0.800 0.469 166 138 114 0 0
-0.5666 0.6182 -0.6554 0.374 -0.800 0.469 164 136 112 0 0
-0.5436 0.6306 -0.6585 0.917 -0.349 0.196 179 156 134 0 0
-0.5297 0.6178 -0.6528 0.382 -0.552 0.741 184 162 138 0 0
-0.5172 0.6194 -0.6525 0.302 -0.911 0.281 183 161 137 0 0
-0.5147 0.6195 -0.6524 -0.099 -0.888 -0.449 180 157 132 0 0
-0.4949 0.6335 -0.6563 0.442 -0.720 0.536 185 161 136 0 0
-0.4926 0.6347 -0.6566 0.442 -0.720 0.536 194 171 148 0 0
-0.4787 0.6415 -0.6582 0.750 -0.013 0.662 195 173 150 0 0
-0.4772 0.6462 -0.6599 0.750 -0.013 0.662 196 175 150 0 0
-0.4738 0.6541 -0.6626 0.826 -0.072 0.559 171 146 121 0 0
-0.4705 0.6508 -0.6611 0.075 -0.993 -0.095 159 132 110 0 0
-0.4681 0.6517 -0.6613 0.210 -0.825 -0.525 153 125 101 0 0
-0.4659 0.6533 -0.6618 0.260 -0.869 -0.421 155 127 104 0 0
-0.4634 0.6535 -0.6617 -0.007 -0.953 -0.304 159 131 109 0 0
-0.4481 0.6535 -0.6607 0.325 -0.888 0.325 174 151 128 0 0
-0.4223 0.6790 -0.6684 0.368 -0.437 0.821 184 164 140 0 0
-0.4041 0.6911 -0.6717 0.355 -0.613 0.705 190 169 147 0 0
-0.3826 0.6992 -0.6733 0.889 -0.338 0.309 178 156 133 0 0
-0.3786 0.7069 -0.6759 0.838 -0.043 0.545 155 129 104 0 0
-0.3769 0.7129 -0.6780 0.950 -0.178 0.255 157 131 107 0 0
-0.3310 0.7544 -0.6904 0.097 -0.961 0.258 180 159 134 0 0
-0.2723 0.7704 -0.6925 0.835 -0.538 -0.119 184 163 142 0 0
-0.2697 0.7674 -0.6912 0.461 -0.211 0.862 181 160 138 0 0
-0.2673 0.7689 -0.6916 0.492 -0.275 0.826 181 160 138 0 0
-0.2630 0.7832 -0.6967 -0.615 -0.687 0.387 178 157 135 0 0
-0.2488 0.7997 -0.7018 0.748 -0.011 0.664 176 154 130 0 0
-0.2198 0.8424 -0.7158 0.171 -0.691 0.703 150 126 104 0 0
-0.2048 0.8640 -0.7229 0.618 -0.691 0.375 151 129 105 0 0
-0.1972 0.8770 -0.7272 0.887 -0.361 0.287 139 116 93 0 0
-0.1008 0.8786 -0.7214 0.172 -0.964 -0.204 168 148 127 0 0
-0.0983 0.8808 -0.7221 0.463 -0.808 0.363 173 154 135 0 0
-0.0935 0.8801 -0.7215 0.890 -0.295 0.347 175 156 137 0 0
-0.0907 0.8862 -0.7236 0.890 -0.295 0.347 174 156 138 0 0
-0.0592 0.9165 -0.7327 0.672 -0.112 0.732 178 161 144 0 0
-0.0552 0.9333 -0.7387 0.527 -0.194 0.827 189 175 158 0 0
-0.0525 0.9365 -0.7398 0.521 -0.199 0.830 193 181 164 0 0
-0.0260 0.9353 -0.7376 0.577 -0.157 0.802 183 166 151 0 0
-0.0228 0.9428 -0.7401 0.772 -0.313 0.554 181 165 149 0 0
0.0256 0.9819 -0.7515 0.597 -0.169 0.784 165 147 127 0 0
-1.1778 0.2473 -0.5603 -0.229 -0.399 0.888 187 161 133 0 0
-1.1574 0.2518 -0.5606 0.543 -0.256 0.800 181 156 127 0 0
-1.1561 0.2535 -0.5612 0.538 -0.177 0.824 180 155 127 0 0
-1.1539 0.2544 -0.5614 0.375 -0.217 0.901 179 153 126 0 0
-1.1477 0.2723 -0.5676 0.528 -0.223 0.820 211 195 173 0 0
-1.1457 0.2733 -0.5679 0.266 -0.260 0.928 209 193 170 0 0
-1.1237 0.2794 -0.5687 0.077 -0.429 0.900 186 162 131 0 0
-1.1025 0.3020 -0.5757 0.193 -0.428 0.883 139 111 88 0 0
-1.1027 0.3054 -0.5770 0.141 -0.950 0.277 145 117 93 0 0
-1.0934 0.3055 -0.5764 -0.208 -0.904 0.374 162 134 110 0 0
-1.0899 0.3050 -0.5760 -0.140 -0.806 0.575 160 131 106 0 0
-1.0581 0.3238 -0.5809 0.130 -0.210 0.969 199 179 155 0 0
-1.0248 0.3377 -0.5839 0.612 -0.786 -0.089 184 158 130 0 0
-1.0229 0.3390 -0.5842 0.378 -0.925 0.046 184 158 131 0 0
-0.9765 0.3663 -0.5913 -0.322 -0.628 0.708 192 169 142 0 0
-0.8898 0.4430 -0.6142 0.660 -0.698 0.279 185 160 134 0 0
-0.8859 0.4459 -0.6150 0.683 -0.719 0.123 201 181 158 0 0
-0.7556 0.4971 -0.6254 0.399 -0.914 0.070 200 178 158 0 0
-0.7497 0.5020 -0.6269 0.681 -0.403 0.612 190 167 144 0 0
-0.6900 0.5337 -0.6347 -0.072 -0.866 0.494 198 176 154 0 0
-0.6841 0.5327 -0.6339 -0.195 -0.961 0.199 201 178 156 0 0
-0.6796 0.5349 -0.6345 0.405 -0.803 0.438 196 174 150 0 0
-0.6701 0.5381 -0.6350 0.581 -0.621 0.527 182 155 130 0 0
-0.6482 0.5508 -0.6383 0.241 -0.939 0.244 198 179 154 0 0
-0.6464 0.5530 -0.6390 0.610 -0.777 0.155 197 175 152 0 0
-0.6104 0.5873 -0.6494 0.694 -0.566 0.445 182 156 130 0 0
-0.5877 0.5826 -0.6461 0.223 -0.913 -0.341 171 144 119 0 0
-0.5722 0.6095 -0.6551 0.774 -0.460 0.435 163 135 111 0 0
-0.5709 0.6141 -0.6568 0.549 -0.457 0.700 162 134 108 0 0
-0.5688 0.6158 -0.6573 0.552 -0.539 0.636 155 128 104 0 0
-0.5150 0.6203 -0.6554 -0.076 -0.943 -0.325 187 163 139 0 0
-0.5169 0.6381 -0.6621 0.189 -0.568 -0.801 179 155 129 0 0
-0.4947 0.6320 -0.6584 0.243 -0.650 0.720 182 156 130 0 0
-0.4710 0.6525 -0.6644 0.883 -0.347 0.316 181 157 130 0 0
-0.4686 0.6530 -0.6645 0.144 -0.888 -0.436 172 146 120 0 0
-0.4661 0.6534 -0.6644 -0.069 -0.925 -0.373 166 138 115 0 0
-0.4635 0.6533 -0.6643 -0.379 -0.921 -0.094 160 132 108 0 0
-0.4484 0.6541 -0.6635 0.487 -0.810 0.325 175 150 127 0 0
-0.4410 0.6552 -0.6634 0.579 -0.815 0.019 174 153 129 0 0
-0.4364 0.6576 -0.6640 0.448 -0.769 0.456 184 165 140 0 0
-0.4337 0.6564 -0.6634 0.312 -0.722 0.618 191 171 148 0 0
-0.3900 0.6973 -0.6758 0.508 -0.377 0.775 202 187 169 0 0
-0.3825 0.6975 -0.6753 0.889 -0.338 0.309 188 169 146 0 0
-0.3768 0.7114 -0.6801 0.953 -0.169 0.250 170 144 121 0 0
-0.3584 0.7257 -0.6843 0.871 -0.447 0.204 177 153 129 0 0
-0.3562 0.7287 -0.6852 0.195 -0.864 0.463 176 150 128 0 0
-0.3536 0.7279 -0.6848 -0.089 -0.911 0.403 172 146 124 0 0
-0.3356 0.7478 -0.6910 0.307 -0.797 0.520 163 137 113 0 0
-0.3311 0.7537 -0.6929 0.088 -0.938 0.337 167 141 118 0 0
-0.3286 0.7540 -0.6929 -0.013 -0.977 0.211 176 150 125 0 0
-0.3129 0.7461 -0.6888 0.721 -0.444 0.532 174 150 127 0 0
-0.2723 0.7674 -0.6941 0.804 -0.590 -0.067 185 167 145 0 0
-0.2673 0.7650 -0.6929 0.379 -0.608 0.698 184 167 145 0 0
-0.2272 0.8240 -0.7122 0.610 -0.084 0.788 185 165 144 0 0
-0.2247 0.8241 -0.7121 0.798 -0.025 0.602 182 162 142 0 0
-0.2199 0.8398 -0.7177 0.570 -0.315 0.759 179 156 134 0 0
-0.2174 0.8413 -0.7181 0.561 -0.311 0.767 150 124 104 0 0
-0.2149 0.8388 -0.7169 -0.328 -0.641 0.694 147 121 99 0 0
-0.1973 0.8746 -0.7292 0.853 -0.365 0.373 165 141 119 0 0
-0.1289 0.8514 -0.7159 0.613 -0.553 0.564 175 155 135 0 0
-0.1080 0.8807 -0.7254 -0.057 -0.952 -0.300 169 148 128 0 0
-0.1009 0.8792 -0.7244 0.172 -0.964 -0.204 163 142 121 0 0
-0.0984 0.8795 -0.7243 0.297 -0.934 0.199 171 153 131 0 0
-0.0938 0.8772 -0.7232 0.887 -0.299 0.351 173 153 132 0 0
-0.0910 0.8831 -0.7252 0.863 -0.302 0.405 169 150 130 0 0
-0.0882 0.8886 -0.7271 0.863 -0.302 0.405 169 149 131 0 0
-0.0626 0.9073 -0.7323 0.475 -0.189 0.860 174 156 138 0 0
-0.0600 0.9091 -0.7328 0.602 -0.131 0.788 177 161 143 0 0
-0.0573 0.9121 -0.7338 0.587 -0.063 0.807 181 165 148 0 0
-0.0267 0.9298 -0.7384 0.622 -0.133 0.772 182 164 150 0 0
-1.1812 0.2414 -0.5608 -0.369 -0.827 0.424 182 157 127 0 0
-1.1546 0.2489 -0.5618 0.826 -0.158 0.541 173 146 118 0 0
-1.1535 0.2507 -0.5624 0.631 -0.167 0.758 168 141 115 0 0
-1.1531 0.2650 -0.5677 -0.254 -0.763 0.595 195 176 151 0 0
-1.1244 0.2706 -0.5679 0.135 -0.333 0.933 184 160 129 0 0
-1.1230 0.2723 -0.5684 -0.002 -0.404 0.915 188 165 134 0 0
-1.1217 0.2771 -0.5701 0.106 -0.452 0.886 191 168 138 0 0
-1.1205 0.2789 -0.5707 0.335 -0.226 0.915 189 167 139 0 0
-1.1129 0.2777 -0.5698 0.744 0.192 0.640 193 175 150 0 0
-1.1128 0.2806 -0.5708 0.744 0.192 0.640 197 180 155 0 0
-1.1126 0.2834 -0.5719 0.751 0.181 0.635 200 184 158 0 0
-1.1105 0.2876 -0.5733 0.605 -0.036 0.796 193 175 149 0 0
-1.1024 0.2983 -0.5768 0.081 -0.113 0.990 168 141 117 0 0
-1.0988 0.3074 -0.5800 -0.315 -0.690 0.652 161 133 111 0 0
-1.0945 0.3062 -0.5792 -0.315 -0.690 0.652 164 137 113 0 0
-1.0251 0.3377 -0.5864 0.652 -0.754 0.082 188 163 136 0 0
-1.0231 0.3388 -0.5867 0.378 -0.925 0.046 184 159 129 0 0
-1.0206 0.3394 -0.5867 0.255 -0.964 0.076 179 153 123 0 0
-1.0183 0.3402 -0.5869 0.191 -0.977 0.089 178 152 122 0 0
-1.0161 0.3413 -0.5871 0.183 -0.955 0.233 178 151 121 0 0
-0.9922 0.3447 -0.5867 0.286 -0.286 0.915 205 188 164 0 0
-0.9847 0.3613 -0.5925 0.366 -0.388 0.846 181 154 125 0 0
-0.9795 0.3584 -0.5911 -0.084 -0.598 0.797 186 159 130 0 0
-0.9802 0.3630 -0.5928 0.216 -0.976 -0.002 193 167 139 0 0
-0.7700 0.4812 -0.6230 0.754 -0.412 0.512 180 156 131 0 0
-0.7686 0.4840 -0.6239 0.614 -0.446 0.651 176 152 127 0 0
-0.7553 0.4960 -0.6275 0.625 -0.746 0.230 197 175 153 0 0
-0.7531 0.4973 -0.6279 0.573 -0.803 0.160 195 173 150 0 0
-0.7510 0.4985 -0.6282 0.706 -0.569 0.422 194 171 149 0 0
-0.7491 0.5004 -0.6288 0.706 -0.569 0.422 186 162 137 0 0
-0.7469 0.5014 -0.6290 0.295 -0.791 0.537 180 154 130 0 0
-0.7410 0.5006 -0.6283 -0.193 -0.865 0.464 190 167 142 0 0
-0.6882 0.5289 -0.6354 0.548 -0.676 0.492 200 179 156 0 0
-0.6863 0.5309 -0.6360 0.304 -0.952 0.024 201 180 159 0 0
-0.6837 0.5312 -0.6359 0.136 -0.966 0.220 192 170 146 0 0
-0.6819 0.5332 -0.6366 0.507 -0.793 0.337 190 166 141 0 0
-0.6763 0.5328 -0.6360 0.531 -0.814 0.235 191 166 142 0 0
-0.6690 0.5347 -0.6362 0.253 -0.932 0.258 174 146 122 0 0
-0.6482 0.5502 -0.6407 0.241 -0.939 0.244 192 171 147 0 0
-0.5851 0.5821 -0.6484 0.293 -0.782 0.550 167 139 115 0 0
-0.5818 0.5801 -0.6474 0.524 -0.720 0.454 169 142 119 0 0
-0.5796 0.5815 -0.6478 0.670 -0.738 0.081 171 145 122 0 0
-0.5702 0.6111 -0.6583 0.929 -0.229 0.290 155 127 103 0 0
-0.5607 0.6240 -0.6625 0.311 -0.950 0.000 166 139 114 0 0
-0.5585 0.6255 -0.6629 -0.143 -0.982 0.125 176 150 124 0 0
-0.5558 0.6253 -0.6626 -0.118 -0.989 0.094 182 156 131 0 0
-0.5531 0.6251 -0.6624 -0.079 -0.995 0.062 187 161 136 0 0
-0.5158 0.6227 -0.6589 -0.234 -0.972 -0.030 177 152 129 0 0
-0.4687 0.6528 -0.6670 0.479 -0.864 0.154 191 167 140 0 0
-0.4663 0.6538 -0.6673 0.236 -0.962 0.136 184 158 134 0 0
-0.4417 0.6581 -0.6672 0.572 -0.787 -0.230 176 154 131 0 0
-0.4397 0.6606 -0.6680 0.276 -0.956 -0.098 176 154 131 0 0
-0.3991 0.6894 -0.6761 0.120 -0.716 0.688 193 175 153 0 0
-0.3966 0.6899 -0.6761 0.281 -0.755 0.593 203 188 169 0 0
-0.3942 0.6905 -0.6762 0.214 -0.777 0.592 209 196 179 0 0
-0.3898 0.6946 -0.6774 0.542 -0.463 0.701 205 190 171 0 0
-0.3875 0.6965 -0.6779 0.542 -0.463 0.701 199 183 160 0 0
-0.3830 0.6997 -0.6789 0.919 -0.347 0.189 186 167 144 0 0
-0.3765 0.7079 -0.6815 0.940 -0.150 0.307 175 151 127 0 0
-0.3553 0.7190 -0.6842 0.745 -0.562 0.360 166 139 117 0 0
-0.3357 0.7473 -0.6936 0.097 -0.981 -0.170 148 121 100 0 0
-0.3332 0.7481 -0.6937 0.207 -0.978 0.039 145 119 97 0 0
-0.3264 0.7556 -0.6960 -0.056 -0.953 -0.297 165 138 117 0 0
-0.3243 0.7601 -0.6976 0.139 -0.988 -0.065 165 139 116 0 0
-0.3129 0.7439 -0.6907 0.721 -0.444 0.532 169 145 122 0 0
-0.2918 0.7609 -0.6957 0.633 -0.770 0.085 176 154 131 0 0
-0.2893 0.7606 -0.6954 0.235 -0.971 -0.047 179 157 133 0 0
-0.2869 0.7612 -0.6955 -0.072 -0.997 -0.040 182 161 137 0 0
-0.2844 0.7613 -0.6953 0.008 -0.997 -0.078 181 161 137 0 0
-0.2722 0.7623 -0.6949 0.649 -0.609 0.455 183 163 142 0 0
-0.2673 0.7626 -0.6946 0.079 -0.610 0.789 181 163 141 0 0
-0.2648 0.7626 -0.6945 -0.018 -0.572 0.820 181 163 142 0 0
-0.2364 0.7873 -0.7018 0.480 0.005 0.877 180 159 138 0 0
-0.2340 0.7905 -0.7029 0.632 0.007 0.775 181 161 139 0 0
-0.2247 0.8165 -0.7120 0.849 -0.037 0.528 182 163 142 0 0
-0.2224 0.8291 -0.7166 0.846 -0.174 0.504 183 162 141 0 0
-0.2175 0.8379 -0.7196 0.460 -0.560 0.689 176 156 135 0 0
-0.2150 0.8369 -0.7190 -0.272 -0.724 0.634 163 140 120 0 0
-0.1975 0.8705 -0.7305 0.722 -0.231 0.652 172 150 127 0 0
-0.1728 0.8504 -0.7212 0.157 -0.007 0.988 174 153 131 0 0
-0.1174 0.8464 -0.7160 -0.070 -0.592 0.803 176 158 138 0 0
-0.1056 0.8825 -0.7287 -0.413 -0.841 -0.350 178 160 140 0 0
-0.1033 0.8802 -0.7277 -0.118 -0.938 -0.326 174 155 134 0 0
-0.1009 0.8798 -0.7274 0.138 -0.953 -0.271 167 147 126 0 0
-0.0985 0.8806 -0.7276 -0.194 -0.908 -0.371 166 146 125 0 0
-0.0941 0.8743 -0.7249 0.887 -0.299 0.351 174 156 134 0 0
-0.0913 0.8801 -0.7269 0.857 -0.298 0.420 171 151 131 0 0
-0.0885 0.8855 -0.7287 0.863 -0.302 0.405 166 144 124 0 0
-0.0729 0.8997 -0.7330 0.623 -0.782 0.004 178 161 142 0 0
-0.0705 0.9007 -0.7332 0.409 -0.904 -0.127 171 154 137 0 0
-0.0608 0.9016 -0.7329 0.322 -0.151 0.935 178 162 143 0 0
-0.0301 0.9216 -0.7383 0.601 -0.125 0.789 170 152 135 0 0
-0.0044 0.9194 -0.7357 0.303 -0.703 0.643 188 174 163 0 0
0.0038 0.9280 -0.7384 0.701 -0.713 -0.015 171 154 136 0 0
0.0065 0.9306 -0.7392 0.819 -0.492 0.296 170 153 135 0 0
-1.1754 0.2416 -0.5629 0.497 -0.868 -0.022 189 165 135 0 0
