ply
format ascii 1.0
element vertex 824
property float x
property float y
property float z
property float nx
property float ny
property float nz
property uchar diffuse_red
property uchar diffuse_green
property uchar diffuse_blue
property uchar class
property uchar detection
end_header
-1.6797 1.7046 0.1290 0.774 0.256 0.579 187 169 155 0 0
-1.6768 1.7218 0.1341 0.654 -0.324 0.684 189 173 160 0 0
-1.6726 1.7243 0.1351 0.552 -0.461 0.694 188 171 157 0 0
-1.8876 -0.2261 -0.4337 0.365 -0.650 0.667 190 173 155 0 0
-1.8756 -0.2141 -0.4294 0.315 -0.687 0.654 189 171 153 0 0
-1.8597 -0.1809 -0.4188 0.252 -0.190 0.949 192 175 157 0 0
-1.8475 -0.1690 -0.4145 0.227 -0.276 0.934 189 172 154 0 0
-1.8473 -0.1650 -0.4134 0.227 -0.276 0.934 188 170 152 0 0
-1.8487 -0.1575 -0.4114 0.389 -0.523 0.759 188 170 151 0 0
-1.8711 -0.1324 -0.4061 0.273 0.148 0.950 179 158 136 0 0
-1.8660 -0.1268 -0.4041 0.682 -0.551 0.481 183 163 141 0 0
-1.8601 -0.1210 -0.4020 0.463 -0.628 0.625 191 174 153 0 0
-1.8529 -0.1149 -0.3998 0.381 -0.628 0.679 195 178 158 0 0
-1.8481 -0.1094 -0.3979 0.398 -0.719 0.569 197 181 161 0 0
-1.8419 -0.0956 -0.3935 0.266 -0.496 0.827 193 176 156 0 0
-1.8409 -0.0913 -0.3922 0.217 -0.198 0.956 192 174 154 0 0
-1.8617 -0.0529 -0.3831 0.528 -0.849 0.008 198 181 164 0 0
-1.8334 -0.0412 -0.3776 0.449 -0.634 0.630 198 181 163 0 0
-1.8257 -0.0352 -0.3753 0.449 -0.850 0.276 198 182 163 0 0
-1.8128 -0.0278 -0.3722 0.433 -0.855 0.286 200 185 166 0 0
-1.8106 0.0167 -0.3595 0.536 -0.529 0.657 192 174 153 0 0
-1.8569 0.0379 -0.3572 0.811 -0.559 0.174 180 159 139 0 0
-1.8534 0.0469 -0.3544 0.897 -0.123 0.424 180 161 140 0 0
-1.8371 0.0954 -0.3395 0.518 0.216 0.828 174 155 133 0 0
-1.8259 0.1426 -0.3254 0.656 0.016 0.755 191 174 155 0 0
-1.8274 0.1546 -0.3221 0.591 -0.221 0.776 189 172 153 0 0
-1.8731 0.1796 -0.3187 0.640 -0.065 0.766 185 166 147 0 0
-1.8377 0.2230 -0.3038 0.476 -0.215 0.853 196 180 163 0 0
-1.8375 0.2271 -0.3026 0.467 -0.609 0.641 195 180 164 0 0
-1.8475 0.2506 -0.2968 0.784 -0.332 0.524 199 185 168 0 0
-1.8478 0.2548 -0.2957 0.860 -0.395 0.324 201 187 170 0 0
-1.8459 0.2592 -0.2943 0.821 -0.247 0.515 203 189 174 0 0
-1.8248 0.3205 -0.2754 0.332 0.212 0.919 206 192 178 0 0
-1.8288 0.3242 -0.2747 0.391 0.195 0.900 205 190 176 0 0
-1.8475 0.3347 -0.2732 0.513 -0.086 0.854 202 186 171 0 0
-1.8328 0.3616 -0.2645 0.503 -0.794 0.341 186 165 145 0 0
-1.8249 0.3666 -0.2625 0.483 -0.838 0.255 190 171 153 0 0
-1.8210 0.3712 -0.2609 0.478 -0.764 0.433 192 174 154 0 0
-1.8169 0.3757 -0.2593 0.518 -0.640 0.568 190 171 151 0 0
-1.7791 0.4331 -0.2402 0.757 -0.478 0.445 179 157 134 0 0
-1.7702 0.4545 -0.2335 0.795 -0.172 0.581 177 156 135 0 0
-1.7726 0.5211 -0.2150 0.868 0.333 0.369 191 173 152 0 0
-0.8235 0.6527 -0.1033 0.441 -0.825 0.354 183 152 72 0 0
-0.8205 0.6551 -0.1024 0.538 -0.379 0.753 195 165 78 0 0
-0.8311 0.6915 -0.0930 0.822 0.112 -0.558 172 141 67 0 0
-0.8275 0.6938 -0.0921 0.927 -0.071 0.367 174 145 67 0 0
-0.8254 0.6988 -0.0905 0.890 0.090 0.447 178 152 68 0 0
-0.8522 0.7190 -0.0869 0.493 -0.408 0.768 200 175 81 0 0
-0.8043 0.7869 -0.0641 0.207 -0.802 -0.560 197 185 104 0 0
-1.7254 1.0484 -0.0633 0.700 -0.583 0.413 196 174 146 0 0
-1.7228 1.0611 -0.0596 0.887 0.285 0.364 189 166 140 0 0
-1.7224 1.0654 -0.0584 0.921 0.096 0.378 194 174 149 0 0
-1.7229 1.0699 -0.0571 0.844 -0.122 0.523 201 183 164 0 0
-1.7230 1.0743 -0.0559 0.844 -0.122 0.523 205 187 170 0 0
-1.7227 1.0786 -0.0547 0.811 -0.363 0.460 205 189 173 0 0
-1.7225 1.0830 -0.0534 0.746 -0.390 0.540 204 188 172 0 0
-1.7047 1.2067 -0.0173 0.348 -0.544 0.764 188 170 153 0 0
-1.7067 1.2161 -0.0148 0.439 -0.196 0.877 190 172 155 0 0
-1.7092 1.2257 -0.0124 0.527 0.093 0.845 189 171 156 0 0
-1.7095 1.2302 -0.0111 0.484 -0.051 0.874 196 179 165 0 0
-1.7108 1.2350 -0.0099 0.406 -0.394 0.825 204 187 174 0 0
-1.7099 1.2392 -0.0086 0.453 -0.307 0.837 203 188 175 0 0
-1.6903 1.2470 -0.0049 0.990 -0.133 -0.043 196 178 164 0 0
-1.6883 1.2509 -0.0036 0.917 0.357 0.176 197 180 165 0 0
-1.7059 1.2738 0.0014 0.775 -0.086 0.626 204 190 180 0 0
-1.7105 1.2796 0.0027 0.480 -0.650 0.589 208 194 185 0 0
-1.7121 1.2846 0.0039 0.980 -0.165 0.111 209 198 186 0 0
-1.7125 1.2892 0.0052 0.956 -0.010 -0.294 208 195 184 0 0
-1.7080 1.2923 0.0064 0.796 -0.603 -0.051 205 191 182 0 0
-1.7031 1.2953 0.0077 0.468 -0.876 0.117 206 192 182 0 0
-1.6619 1.3845 0.0359 0.649 -0.081 0.756 198 182 169 0 0
-1.6804 1.4179 0.0439 0.861 0.319 0.396 193 177 163 0 0
-1.6725 1.4196 0.0449 0.767 0.002 -0.642 193 177 162 0 0
-1.6715 1.4237 0.0462 0.767 0.002 -0.642 191 175 160 0 0
-1.6701 1.4277 0.0474 0.466 -0.874 0.142 188 171 155 0 0
-1.6663 1.4983 0.0675 0.554 -0.391 0.735 187 171 158 0 0
-1.6544 1.5160 0.0734 0.582 -0.167 0.796 191 175 164 0 0
-1.6482 1.5586 0.0859 0.566 0.177 0.805 187 171 157 0 0
-1.6579 1.5718 0.0888 0.633 0.084 0.770 186 168 155 0 0
-1.6604 1.5775 0.0902 0.833 0.373 0.408 185 167 153 0 0
-1.6452 1.5799 0.0921 0.550 -0.228 0.803 184 167 153 0 0
-1.6474 1.5990 0.0973 0.680 0.025 0.733 187 170 158 0 0
-1.6471 1.6034 0.0985 0.589 -0.026 0.808 188 174 160 0 0
-1.6519 1.6193 0.1026 0.468 -0.154 0.870 189 172 160 0 0
-1.6546 1.6251 0.1040 0.487 -0.159 0.859 192 176 163 0 0
-1.6699 1.6921 0.1216 0.832 0.182 0.524 187 169 155 0 0
-1.6725 1.6980 0.1231 0.787 0.202 0.583 185 167 153 0 0
-1.6752 1.7040 0.1245 0.712 0.164 0.683 185 166 152 0 0
-1.6769 1.7095 0.1259 0.752 -0.010 0.659 187 169 156 0 0
-1.6732 1.7170 0.1283 0.654 -0.324 0.684 195 180 169 0 0
-1.6383 1.7965 0.1534 0.710 -0.681 -0.176 184 166 152 0 0
-1.6138 2.0301 0.2208 0.461 -0.411 0.786 185 168 153 0 0
-1.6080 2.0973 0.2401 0.248 -0.550 0.797 178 161 145 0 0
-1.9050 -0.3277 -0.4681 0.570 -0.786 -0.241 184 165 144 0 0
-1.8591 -0.2079 -0.4308 0.315 -0.687 0.654 186 168 149 0 0
-1.8528 -0.2018 -0.4286 0.444 -0.411 0.796 186 168 148 0 0
-1.8496 -0.1968 -0.4270 0.470 -0.535 0.702 184 165 146 0 0
-1.8416 -0.1902 -0.4245 0.355 -0.354 0.865 183 165 146 0 0
-1.8370 -0.1808 -0.4215 0.389 -0.504 0.771 195 179 161 0 0
-1.8415 -0.1624 -0.4167 0.299 0.079 0.951 190 173 154 0 0
-1.8385 -0.1575 -0.4151 0.506 -0.761 0.407 189 172 154 0 0
-1.8387 -0.1537 -0.4140 0.635 -0.766 -0.103 189 172 153 0 0
-1.8377 -0.1494 -0.4127 0.582 0.033 0.813 192 175 158 0 0
-1.8626 -0.1250 -0.4079 0.529 -0.574 0.625 186 167 145 0 0
-1.8484 -0.1168 -0.4045 0.412 -0.604 0.682 189 171 151 0 0
-1.8428 -0.1111 -0.4024 0.407 -0.639 0.653 194 177 157 0 0
-1.8372 -0.1055 -0.4004 0.407 -0.639 0.653 195 178 159 0 0
-1.8320 -0.0881 -0.3951 0.338 -0.305 0.890 188 170 149 0 0
-1.8326 -0.0842 -0.3940 0.305 0.011 0.952 189 171 151 0 0
-1.8509 -0.0492 -0.3857 0.374 -0.894 0.247 192 175 156 0 0
-1.7980 0.0325 -0.3586 0.586 -0.113 0.802 185 166 145 0 0
-1.7997 0.0361 -0.3577 0.649 0.185 0.738 185 164 143 0 0
-1.8466 0.0534 -0.3566 0.467 -0.528 0.709 185 165 146 0 0
-1.8331 0.0971 -0.3433 0.567 0.092 0.819 177 159 139 0 0
-1.8362 0.1005 -0.3426 0.775 0.535 0.336 173 152 131 0 0
-1.8200 0.1446 -0.3289 0.696 -0.293 0.655 190 173 154 0 0
-1.8186 0.1490 -0.3276 0.644 -0.025 0.765 189 172 154 0 0
-1.8166 0.2933 -0.2869 0.542 -0.342 0.768 189 172 155 0 0
-1.8117 0.3105 -0.2817 0.941 0.106 0.321 190 172 155 0 0
-0.8249 0.6483 -0.1074 0.448 -0.810 0.378 177 145 72 0 0
-0.8235 0.6508 -0.1065 0.493 -0.743 0.452 178 148 71 0 0
-0.8206 0.6532 -0.1056 0.441 -0.825 0.354 180 150 71 0 0
-0.8181 0.6557 -0.1047 0.509 -0.493 0.706 194 167 77 0 0
-0.8175 0.6607 -0.1033 0.534 -0.008 0.845 206 182 83 0 0
-0.8590 0.7335 -0.0862 0.978 -0.116 -0.171 161 134 59 0 0
-0.8588 0.7362 -0.0855 0.913 -0.182 -0.365 165 140 61 0 0
-0.8806 0.7733 -0.0768 0.124 -0.982 0.145 199 188 113 0 0
-1.7497 1.0367 -0.0732 0.365 0.114 -0.924 199 177 135 0 0
-1.7215 1.0446 -0.0687 0.285 -0.456 0.843 187 162 131 0 0
-1.7253 1.0541 -0.0664 0.834 -0.411 0.367 184 159 132 0 0
-1.7208 1.0620 -0.0638 0.801 0.263 0.537 188 164 137 0 0
-1.7202 1.0662 -0.0625 0.941 0.306 0.142 192 170 146 0 0
-1.7224 1.0711 -0.0614 0.930 -0.343 0.131 196 176 153 0 0
-1.7211 1.0752 -0.0601 0.930 -0.343 0.131 197 177 155 0 0
-1.7194 1.0792 -0.0588 0.839 -0.532 0.116 194 176 156 0 0
-1.7195 1.0836 -0.0576 0.924 -0.258 0.282 197 179 161 0 0
-1.7167 1.0874 -0.0563 0.868 -0.130 0.479 202 185 168 0 0
-1.7117 1.1083 -0.0501 0.225 -0.343 0.912 207 191 176 0 0
-1.6987 1.2153 -0.0190 0.439 -0.196 0.877 199 182 166 0 0
-1.6999 1.2245 -0.0165 0.477 0.033 0.878 194 177 162 0 0
-1.7027 1.2386 -0.0128 0.414 -0.255 0.874 198 182 167 0 0
-1.7026 1.2430 -0.0116 0.436 -0.225 0.871 196 179 165 0 0
-1.6830 1.2419 -0.0103 0.879 0.179 0.442 194 176 162 0 0
-1.6799 1.2455 -0.0091 0.420 -0.900 0.115 197 179 165 0 0
-1.6801 1.2499 -0.0078 0.505 -0.693 0.514 200 184 169 0 0
-1.6678 1.3346 0.0169 0.836 0.050 0.547 197 181 167 0 0
-1.6506 1.3997 0.0365 0.354 0.494 0.794 187 169 155 0 0
-1.6676 1.4282 0.0432 0.353 -0.069 0.933 190 174 159 0 0
-1.6403 1.5477 0.0789 0.430 -0.131 0.893 192 176 164 0 0
-1.6554 1.5678 0.0833 0.545 0.288 0.787 189 172 159 0 0
-1.6480 1.5691 0.0842 0.524 -0.163 0.836 187 170 156 0 0
-1.6483 1.5738 0.0855 0.547 0.035 0.836 189 172 160 0 0
-1.6398 1.5881 0.0902 0.889 -0.297 0.348 189 171 158 0 0
-1.6422 1.5937 0.0916 0.705 -0.281 0.651 190 174 160 0 0
-1.6434 1.6033 0.0942 0.742 0.120 0.659 196 182 171 0 0
-1.6673 1.6925 0.1172 0.832 0.182 0.524 189 174 160 0 0
-1.6717 1.7086 0.1214 0.605 -0.243 0.758 190 174 159 0 0
-1.6328 1.7952 0.1488 0.872 -0.444 0.207 190 176 160 0 0
-1.8769 -0.2331 -0.4439 0.314 -0.684 0.658 195 178 160 0 0
-1.8513 -0.2085 -0.4349 0.310 -0.667 0.677 188 171 153 0 0
-1.8337 -0.1948 -0.4296 0.549 -0.390 0.739 186 167 147 0 0
-1.8324 -0.1904 -0.4283 0.549 -0.390 0.739 182 164 142 0 0
-1.8357 -0.1599 -0.4200 0.687 -0.018 0.726 191 174 155 0 0
-1.8317 -0.1547 -0.4182 0.809 -0.551 -0.207 191 174 156 0 0
-1.8381 -0.1528 -0.4182 0.885 -0.419 -0.202 194 177 159 0 0
-1.8454 -0.1192 -0.4094 0.330 -0.478 0.814 189 172 150 0 0
-1.8245 -0.1010 -0.4026 0.418 -0.776 0.473 192 175 154 0 0
-1.8160 -0.0867 -0.3979 0.438 -0.652 0.619 185 166 144 0 0
-1.8106 -0.0812 -0.3959 0.438 -0.652 0.619 184 164 142 0 0
-1.8087 -0.0767 -0.3944 0.387 -0.583 0.714 184 165 144 0 0
-1.8340 -0.0359 -0.3851 0.372 -0.360 0.856 188 167 146 0 0
-1.8313 -0.0312 -0.3836 0.370 -0.465 0.805 187 167 148 0 0
-1.7897 0.0114 -0.3682 0.358 -0.247 0.900 185 167 146 0 0
-1.7913 0.0190 -0.3662 0.494 -0.589 0.639 186 168 146 0 0
-1.8426 0.0510 -0.3615 0.590 -0.282 0.757 184 165 145 0 0
-1.8308 0.1025 -0.3461 0.619 0.295 0.728 182 164 143 0 0
-1.8357 0.1178 -0.3422 0.308 -0.093 0.947 191 176 157 0 0
-1.8150 0.1464 -0.3325 0.872 -0.374 0.316 187 170 150 0 0
-1.8151 0.1505 -0.3314 0.794 0.170 0.584 187 170 151 0 0
-1.8050 0.1890 -0.3198 0.233 -0.180 0.956 191 174 156 0 0
-1.8164 0.2157 -0.3132 0.279 -0.113 0.954 190 173 154 0 0
-1.8145 0.3194 -0.2840 0.785 0.280 0.552 195 178 160 0 0
-1.8183 0.3231 -0.2833 0.743 0.166 0.648 198 181 165 0 0
-1.8213 0.3270 -0.2825 0.707 0.165 0.688 199 183 167 0 0
-1.8239 0.3308 -0.2816 0.704 0.236 0.670 202 187 171 0 0
-1.8210 0.3353 -0.2801 0.449 -0.301 0.841 199 183 167 0 0
-1.8124 0.3739 -0.2686 0.470 -0.713 0.520 198 181 163 0 0
-1.8082 0.3785 -0.2670 0.576 -0.690 0.438 195 178 159 0 0
-1.8039 0.3831 -0.2653 0.944 -0.272 0.186 194 176 157 0 0
-1.7634 0.4735 -0.2367 0.533 0.089 0.841 190 172 151 0 0
-1.7602 0.4861 -0.2329 0.369 -0.510 0.777 194 176 155 0 0
-1.7494 0.4990 -0.2284 0.313 -0.417 0.853 193 173 155 0 0
-0.8229 0.6489 -0.1098 0.532 -0.846 -0.038 177 145 72 0 0
-0.8164 0.6512 -0.1086 0.467 -0.271 0.842 179 147 70 0 0
-0.8162 0.6537 -0.1079 0.415 -0.622 0.664 182 151 74 0 0
-0.8130 0.7044 -0.0934 0.930 -0.321 0.181 180 154 74 0 0
-0.8437 0.7145 -0.0931 0.803 -0.090 0.588 188 162 77 0 0
-0.8593 0.7343 -0.0889 0.868 -0.090 0.488 151 123 60 0 0
-0.8591 0.7422 -0.0866 0.793 -0.472 0.386 172 151 78 0 0
-0.8562 0.7446 -0.0857 0.902 0.219 0.373 181 160 85 0 0
-0.8530 0.7469 -0.0848 0.820 -0.551 0.156 183 163 87 0 0
-0.8560 0.7765 -0.0768 0.001 -1.000 -0.022 202 192 119 0 0
-1.7220 1.0547 -0.0705 0.610 -0.626 0.486 186 160 133 0 0
-1.7185 1.0803 -0.0630 0.827 -0.388 0.406 189 168 144 0 0
-1.6914 1.2015 -0.0269 0.430 0.125 0.894 189 170 154 0 0
-1.6977 1.2076 -0.0257 0.331 -0.133 0.934 195 177 163 0 0
-1.6934 1.2374 -0.0170 0.395 -0.145 0.907 189 172 157 0 0
-1.6746 1.2409 -0.0145 0.549 0.284 0.786 190 172 157 0 0
-1.6750 1.2498 -0.0120 0.360 -0.051 0.932 198 182 167 0 0
-1.6603 1.3380 0.0139 0.529 -0.643 0.554 196 180 167 0 0
-1.6473 1.3558 0.0200 0.575 -0.120 0.809 192 174 160 0 0
-1.6481 1.3604 0.0212 0.575 -0.120 0.809 193 176 162 0 0
-1.6477 1.3647 0.0224 0.666 -0.054 0.744 194 177 164 0 0
-1.6414 1.3758 0.0260 0.718 -0.451 0.531 189 172 159 0 0
-1.6473 1.3823 0.0274 0.962 -0.012 0.271 190 173 158 0 0
-1.6380 1.5258 0.0683 0.288 -0.336 0.897 184 166 153 0 0
-1.6317 1.5321 0.0706 0.710 0.379 0.593 188 171 158 0 0
-1.6237 1.5332 0.0716 0.722 0.330 0.608 190 173 160 0 0
-1.6395 1.5489 0.0747 0.830 -0.328 0.452 198 184 172 0 0
-1.6502 1.5671 0.0789 0.432 0.302 0.850 194 178 164 0 0
-1.6359 1.5879 0.0859 0.917 -0.073 0.392 188 171 158 0 0
-1.6387 1.5982 0.0886 0.947 0.228 0.226 194 180 169 0 0
-1.6352 1.6057 0.0909 0.866 -0.421 0.271 196 183 172 0 0
-1.6381 1.6116 0.0923 0.884 -0.263 0.385 198 185 176 0 0
-1.6625 1.6964 0.1141 0.656 0.120 0.745 193 177 164 0 0
-1.6732 1.7110 0.1173 0.525 -0.817 0.241 192 176 163 0 0
-1.6331 1.7463 0.1305 0.521 0.032 0.853 192 175 164 0 0
-1.6421 1.7648 0.1349 0.809 0.227 0.542 190 173 159 0 0
-1.5890 2.0315 0.2140 0.266 -0.711 0.651 184 166 153 0 0
-1.8821 -0.2742 -0.4604 0.403 -0.614 0.679 196 180 163 0 0
-1.8767 -0.2682 -0.4582 0.466 -0.528 0.710 198 182 166 0 0
-1.8604 -0.2268 -0.4453 0.331 -0.723 0.606 202 188 171 0 0
-1.8490 -0.2190 -0.4421 0.331 -0.723 0.606 201 186 169 0 0
-1.8323 -0.1976 -0.4347 0.331 -0.661 0.673 190 173 155 0 0
-1.8309 -0.1932 -0.4334 0.649 -0.402 0.646 190 173 154 0 0
-1.8222 -0.1825 -0.4296 0.530 -0.549 0.646 188 170 150 0 0
-1.8298 -0.1495 -0.4210 0.824 -0.009 0.567 189 170 152 0 0
-1.8338 -0.1150 -0.4117 0.326 -0.405 0.854 188 170 149 0 0
-1.8348 -0.1113 -0.4108 0.401 -0.772 0.493 190 172 152 0 0
-1.8294 -0.1057 -0.4088 0.424 -0.830 0.362 189 171 151 0 0
-1.8167 -0.0981 -0.4056 0.426 -0.838 0.340 190 172 151 0 0
-1.8056 -0.0908 -0.4026 0.421 -0.844 0.332 189 172 152 0 0
-1.8029 -0.0782 -0.3988 0.559 -0.742 0.369 179 158 136 0 0
-1.7968 -0.0726 -0.3967 0.606 -0.732 0.311 179 158 135 0 0
-1.8191 -0.0710 -0.3982 0.719 -0.082 -0.690 184 165 143 0 0
-1.8303 0.0343 -0.3697 0.424 -0.292 0.857 190 171 152 0 0
-1.8256 0.0597 -0.3622 0.232 -0.418 0.878 190 173 155 0 0
-1.8314 0.1073 -0.3494 0.639 -0.108 0.762 189 173 154 0 0
-1.8285 0.1119 -0.3478 0.735 -0.328 0.593 193 177 159 0 0
-1.7772 0.1545 -0.3316 0.605 -0.350 0.715 184 167 146 0 0
-1.7738 0.1591 -0.3300 0.796 0.016 0.605 185 167 148 0 0
-1.8222 0.2033 -0.3217 0.166 -0.531 0.831 184 167 148 0 0
-1.8033 0.2147 -0.3170 0.114 0.213 0.970 179 160 139 0 0
-1.8052 0.2184 -0.3161 0.241 -0.155 0.958 182 165 144 0 0
-1.8120 0.3248 -0.2869 0.798 -0.132 0.589 184 164 145 0 0
-1.7944 0.3807 -0.2697 0.584 0.082 0.807 201 185 167 0 0
-1.7997 0.3844 -0.2692 0.800 0.235 0.552 200 184 166 0 0
-1.7962 0.3889 -0.2676 0.635 0.079 0.768 200 183 166 0 0
-1.8005 0.3927 -0.2669 0.739 0.168 0.652 197 180 160 0 0
-1.8001 0.3969 -0.2657 0.618 -0.009 0.786 194 177 158 0 0
-1.8050 0.4006 -0.2651 0.592 -0.024 0.806 194 176 159 0 0
-1.7751 0.4780 -0.2409 0.681 -0.466 0.565 189 170 150 0 0
-1.7727 0.4823 -0.2395 0.464 -0.658 0.593 190 170 149 0 0
-0.8238 0.6470 -0.1131 0.888 0.301 -0.347 178 145 74 0 0
-0.8240 0.6496 -0.1124 0.501 -0.854 -0.140 178 146 73 0 0
-0.8105 0.6517 -0.1107 0.414 -0.071 0.908 176 146 68 0 0
-0.7895 0.6808 -0.1007 0.703 0.445 0.555 135 110 42 0 0
-0.7892 0.6833 -0.1000 0.769 0.177 0.615 148 121 51 0 0
-0.7893 0.6858 -0.0993 0.752 0.040 0.658 155 126 53 0 0
-0.8139 0.7052 -0.0960 0.889 -0.432 0.153 177 151 71 0 0
-0.8416 0.7229 -0.0934 0.562 -0.421 0.712 161 133 57 0 0
-0.8479 0.7261 -0.0930 0.572 0.118 0.812 153 124 55 0 0
-0.8604 0.7484 -0.0878 0.845 -0.392 -0.364 177 157 87 0 0
-0.8504 0.7660 -0.0821 0.207 -0.954 0.215 192 176 102 0 0
-0.8458 0.7681 -0.0811 0.181 -0.963 0.199 193 181 104 0 0
-0.8439 0.7785 -0.0780 0.122 -0.977 0.174 202 192 117 0 0
-0.7067 0.8218 -0.0543 0.833 0.188 0.520 225 196 104 0 0
-1.7081 1.0576 -0.0731 0.296 -0.254 0.921 199 179 155 0 0
-1.6936 1.0982 -0.0605 0.379 -0.776 0.505 204 187 172 0 0
-1.6799 1.1125 -0.0554 0.543 -0.600 0.587 199 181 164 0 0
-1.6809 1.1171 -0.0542 0.477 -0.172 0.862 199 181 165 0 0
-1.6515 1.1534 -0.0415 0.103 -0.779 0.618 199 182 166 0 0
-1.6585 1.3035 -0.0001 0.579 -0.079 0.811 198 183 169 0 0
-1.6611 1.3087 0.0011 0.566 0.230 0.792 198 182 169 0 0
-1.6619 1.3223 0.0048 0.595 -0.325 0.735 195 180 166 0 0
-1.6360 1.3446 0.0132 0.960 0.252 0.120 192 174 160 0 0
-1.6411 1.3683 0.0194 0.880 0.355 0.315 190 172 158 0 0
-1.6417 1.4127 0.0318 0.417 0.225 0.881 187 170 155 0 0
-1.6467 1.4190 0.0332 0.383 -0.282 0.880 187 169 155 0 0
-1.6411 1.4927 0.0542 0.459 -0.570 0.682 194 178 165 0 0
-1.6360 1.5715 0.0767 0.198 -0.098 0.975 194 178 167 0 0
-1.6312 1.5784 0.0790 0.550 0.108 0.828 188 171 157 0 0
-1.6290 1.5819 0.0802 0.678 0.239 0.695 187 169 156 0 0
-1.6342 1.5888 0.0817 0.646 -0.073 0.760 187 170 157 0 0
-1.6392 1.6046 0.0857 0.893 0.179 0.413 188 173 160 0 0
-1.6384 1.6088 0.0869 0.946 -0.322 0.034 189 172 159 0 0
-1.6369 1.6126 0.0881 0.957 -0.268 0.106 191 175 163 0 0
-1.6281 1.7499 0.1273 0.670 -0.012 0.743 192 175 162 0 0
-1.6295 1.7552 0.1287 0.670 -0.012 0.743 191 174 161 0 0
-1.6330 1.7617 0.1302 0.626 0.022 0.780 190 174 161 0 0
-1.6341 1.7669 0.1315 0.550 -0.049 0.834 191 175 163 0 0
-1.5835 2.0250 0.2080 0.292 -0.277 0.915 187 170 156 0 0
-1.5792 2.0269 0.2089 0.275 -0.410 0.869 185 168 153 0 0
-1.8687 -0.2687 -0.4622 0.308 -0.339 0.889 192 175 157 0 0
-1.8538 -0.2278 -0.4495 0.351 -0.737 0.578 201 186 170 0 0
-1.8444 -0.2207 -0.4467 0.331 -0.723 0.606 202 189 172 0 0
-1.8348 -0.2135 -0.4438 0.430 -0.674 0.601 200 185 169 0 0
-1.8299 -0.2000 -0.4397 0.615 -0.102 0.782 191 174 156 0 0
-1.8270 -0.1912 -0.4369 0.714 -0.540 0.445 188 170 148 0 0
-1.8231 -0.1860 -0.4351 0.620 -0.521 0.586 188 170 148 0 0
-1.8185 -0.1806 -0.4332 0.625 -0.641 0.445 187 168 148 0 0
-1.8105 -0.1740 -0.4307 0.604 -0.434 0.668 193 176 159 0 0
-1.8215 -0.1540 -0.4261 0.464 -0.707 0.534 182 161 140 0 0
-1.8122 -0.1472 -0.4234 0.387 -0.770 0.508 183 163 143 0 0
-1.7991 -0.0882 -0.4057 0.441 -0.725 0.530 195 177 159 0 0
-1.7950 -0.0713 -0.4007 0.521 -0.512 0.683 178 158 136 0 0
-1.8225 -0.0672 -0.4019 0.706 -0.029 -0.708 179 159 136 0 0
-1.7588 0.0012 -0.3773 0.709 -0.416 0.569 176 155 131 0 0
-1.8202 0.0174 -0.3781 0.652 -0.491 0.578 187 168 147 0 0
-1.8230 0.0207 -0.3774 0.602 -0.615 0.510 189 171 152 0 0
-1.8168 0.0263 -0.3753 0.690 -0.446 0.570 194 177 158 0 0
-1.8151 0.0307 -0.3739 0.890 -0.281 0.359 195 178 159 0 0
-1.8179 0.0341 -0.3732 0.753 0.304 0.583 193 176 155 0 0
-1.8223 0.0370 -0.3728 0.614 0.073 0.786 192 175 155 0 0
-1.8256 0.0403 -0.3721 0.466 0.313 0.828 192 174 154 0 0
-1.8243 0.0487 -0.3697 0.269 -0.147 0.952 188 170 150 0 0
-1.8174 0.0543 -0.3675 0.234 -0.453 0.860 189 172 152 0 0
-1.7672 0.1532 -0.3355 0.555 -0.589 0.588 183 165 145 0 0
-1.7688 0.1569 -0.3346 0.484 -0.393 0.782 182 164 142 0 0
-1.7932 0.2212 -0.3188 0.210 -0.205 0.956 180 162 142 0 0
-1.7950 0.2250 -0.3179 0.305 0.032 0.952 186 169 149 0 0
-1.7935 0.2293 -0.3165 0.228 -0.223 0.948 192 175 157 0 0
-1.8097 0.3302 -0.2898 0.554 0.031 0.832 192 174 157 0 0
-1.7936 0.3859 -0.2728 0.619 0.128 0.775 201 185 168 0 0
-1.7678 0.4130 -0.2630 0.791 -0.073 0.608 197 180 163 0 0
-1.7682 0.4171 -0.2619 0.791 -0.073 0.608 198 181 164 0 0
-1.7673 0.4794 -0.2444 0.478 -0.552 0.684 194 176 158 0 0
-1.7569 0.4882 -0.2410 0.315 -0.647 0.694 191 171 151 0 0
-0.7868 0.6814 -0.1030 0.807 0.028 0.589 141 115 48 0 0
-0.7874 0.6839 -0.1024 0.924 -0.381 -0.044 135 111 40 0 0
-0.7838 0.6862 -0.1014 0.835 -0.440 0.331 151 124 51 0 0
-0.8294 0.7044 -0.1003 0.751 -0.073 0.656 172 144 69 0 0
-0.8142 0.7059 -0.0986 0.853 -0.373 -0.365 175 149 69 0 0
-0.8426 0.7158 -0.0982 0.893 -0.373 0.251 179 152 74 0 0
-0.8427 0.7185 -0.0975 0.541 -0.833 0.111 177 150 70 0 0
-0.8410 0.7236 -0.0959 0.797 -0.203 0.569 145 115 49 0 0
-0.8446 0.7265 -0.0954 0.683 0.186 0.706 143 113 51 0 0
-0.8316 0.7672 -0.0829 0.285 -0.791 0.541 191 180 105 0 0
-0.6970 0.8184 -0.0570 0.530 -0.440 0.725 210 178 101 0 0
-0.6911 0.8222 -0.0554 0.355 0.214 0.910 203 178 92 0 0
-1.6858 1.0934 -0.0658 0.227 -0.617 0.753 201 184 167 0 0
-1.6807 1.0967 -0.0644 0.223 -0.692 0.686 202 185 169 0 0
-1.6746 1.0997 -0.0631 0.266 -0.497 0.826 199 181 164 0 0
-1.6733 1.1080 -0.0606 0.364 -0.574 0.733 198 180 163 0 0
-1.6575 1.1519 -0.0470 0.678 -0.084 0.730 195 178 160 0 0
-1.6477 1.2971 -0.0055 0.435 -0.259 0.862 200 184 171 0 0
-1.6488 1.3019 -0.0043 0.412 -0.211 0.886 200 184 172 0 0
-1.6485 1.3062 -0.0031 0.421 -0.014 0.907 200 183 172 0 0
-1.6509 1.3113 -0.0019 0.396 -0.069 0.916 201 184 173 0 0
-1.6515 1.3159 -0.0006 0.397 -0.150 0.906 202 188 176 0 0
-1.6485 1.3193 0.0006 0.297 -0.254 0.920 203 189 178 0 0
-1.6465 1.3231 0.0018 0.274 -0.472 0.838 199 184 171 0 0
-1.6368 1.4035 0.0251 0.419 0.036 0.907 189 173 158 0 0
-1.6365 1.4123 0.0276 0.470 0.095 0.877 188 170 157 0 0
-1.6432 1.4192 0.0289 0.250 -0.508 0.824 184 166 151 0 0
-1.6503 1.4531 0.0378 0.400 -0.270 0.876 188 170 156 0 0
-1.6331 1.4821 0.0474 0.148 -0.282 0.948 196 181 169 0 0
-1.6176 1.5025 0.0544 0.412 -0.634 0.654 184 167 151 0 0
-1.6208 1.5083 0.0558 0.369 -0.209 0.906 183 166 150 0 0
-1.6106 1.5085 0.0567 0.484 -0.393 0.782 186 169 153 0 0
-1.6276 1.5738 0.0735 0.377 -0.213 0.901 190 174 161 0 0
-1.6240 1.7494 0.1229 0.501 0.029 0.865 191 175 162 0 0
-1.5745 2.0116 0.2004 0.212 -0.303 0.929 188 172 157 0 0
-1.8528 -0.3447 -0.4865 0.779 -0.021 -0.627 183 165 142 0 0
-1.8467 -0.3384 -0.4842 0.748 -0.333 -0.573 182 164 141 0 0
-1.8918 -0.3202 -0.4832 0.479 -0.654 0.585 180 160 139 0 0
-1.8851 -0.3137 -0.4807 0.438 -0.614 0.656 176 155 133 0 0
-1.8630 -0.2581 -0.4632 0.355 -0.091 0.930 189 172 152 0 0
-1.8560 -0.2517 -0.4608 0.409 0.046 0.911 191 173 153 0 0
-1.8603 -0.2492 -0.4605 0.506 -0.422 0.753 191 174 154 0 0
-1.8547 -0.2354 -0.4562 0.346 -0.719 0.603 186 167 146 0 0
-1.8443 -0.2279 -0.4532 0.346 -0.719 0.603 185 167 147 0 0
-1.8341 -0.2204 -0.4502 0.343 -0.737 0.583 187 169 149 0 0
-1.8271 -0.2141 -0.4478 0.325 -0.718 0.615 190 173 155 0 0
-1.8252 -0.1939 -0.4420 0.567 -0.616 0.547 187 169 147 0 0
-1.8146 -0.1786 -0.4368 0.590 -0.485 0.646 184 163 143 0 0
-1.8134 -0.1743 -0.4355 0.584 -0.384 0.715 183 163 145 0 0
-1.8118 -0.1503 -0.4286 0.421 -0.728 0.542 180 159 139 0 0
-1.8039 -0.1439 -0.4261 0.421 -0.728 0.542 183 162 142 0 0
-1.7961 -0.1375 -0.4237 0.421 -0.728 0.542 182 161 142 0 0
-1.7887 -0.0727 -0.4049 0.450 -0.560 0.695 188 170 150 0 0
-1.7883 -0.0687 -0.4038 0.521 -0.512 0.683 186 166 144 0 0
-1.8119 0.0282 -0.3788 0.736 -0.493 0.464 189 172 151 0 0
-1.8120 0.0322 -0.3777 0.836 -0.299 0.460 193 176 156 0 0
-1.8138 0.0358 -0.3769 0.557 0.157 0.816 196 180 160 0 0
-1.8198 0.0384 -0.3767 0.373 0.179 0.910 197 181 161 0 0
-1.8206 0.0422 -0.3757 0.466 0.313 0.828 196 179 159 0 0
-1.8078 0.0493 -0.3726 0.435 -0.602 0.669 194 177 158 0 0
-1.8037 0.0623 -0.3686 0.390 -0.487 0.782 189 171 151 0 0
-1.7984 0.0675 -0.3667 0.355 -0.260 0.898 191 173 153 0 0
-1.8028 0.0866 -0.3617 0.947 0.189 0.262 193 176 158 0 0
-1.7619 0.1591 -0.3379 0.484 -0.393 0.782 183 165 144 0 0
-1.7766 0.1804 -0.3332 0.612 -0.400 0.683 194 178 160 0 0
-1.7707 0.1854 -0.3313 0.523 -0.492 0.696 195 179 162 0 0
-1.7766 0.2005 -0.3276 0.268 -0.301 0.915 185 168 148 0 0
-1.7833 0.2644 -0.3103 0.137 -0.152 0.979 199 182 166 0 0
-1.7829 0.2808 -0.3057 0.601 -0.411 0.685 202 186 171 0 0
-1.7815 0.2851 -0.3044 0.601 -0.411 0.685 203 187 171 0 0
-1.8005 0.3321 -0.2930 0.336 -0.176 0.925 199 182 167 0 0
-1.7654 0.4101 -0.2681 0.469 -0.411 0.781 201 184 168 0 0
-1.7690 0.4139 -0.2674 0.419 -0.783 0.460 203 187 172 0 0
-1.7754 0.4424 -0.2600 0.227 -0.672 0.705 195 178 160 0 0
-1.7654 0.4556 -0.2554 0.244 -0.674 0.698 200 183 165 0 0
-0.8015 0.6652 -0.1115 0.622 -0.536 0.570 205 181 78 0 0
-0.8028 0.6678 -0.1109 0.861 -0.418 0.290 200 175 73 0 0
-0.7839 0.6843 -0.1046 0.606 -0.682 0.408 140 113 47 0 0
-0.7818 0.6867 -0.1038 0.606 -0.682 0.408 138 112 43 0 0
-0.7866 0.6920 -0.1027 0.414 -0.195 0.889 161 133 60 0 0
-0.8309 0.7052 -0.1030 0.940 -0.226 0.255 169 142 67 0 0
-0.8411 0.7269 -0.0978 0.956 0.289 -0.054 139 108 50 0 0
-0.7714 0.7936 -0.0730 -0.049 -0.980 -0.194 204 190 100 0 0
-0.6997 0.8123 -0.0614 0.388 -0.513 0.766 189 125 68 0 0
-0.6937 0.8137 -0.0605 0.421 -0.609 0.672 189 129 68 0 0
-0.6930 0.8160 -0.0598 0.394 -0.431 0.812 186 140 70 0 0
-0.6828 0.8167 -0.0587 0.972 0.125 0.197 185 152 74 0 0
-0.6830 0.8191 -0.0581 0.956 0.156 0.250 190 163 81 0 0
-0.6839 0.8217 -0.0574 0.903 0.191 0.384 191 167 86 0 0
-0.6837 0.8264 -0.0561 0.986 0.164 0.004 200 184 110 0 0
-0.6891 0.8346 -0.0543 0.681 -0.186 0.708 200 183 112 0 0
-1.6808 1.0850 -0.0722 0.199 -0.521 0.830 203 187 170 0 0
-1.6631 1.1070 -0.0645 0.175 -0.506 0.845 194 177 160 0 0
-1.6504 1.1213 -0.0594 0.285 -0.227 0.931 199 181 163 0 0
-1.6652 1.1725 -0.0464 0.943 0.285 0.174 174 151 132 0 0
-1.6604 1.1756 -0.0451 0.952 -0.168 0.258 179 156 139 0 0
-1.6560 1.2005 -0.0378 0.279 -0.061 0.958 190 172 157 0 0
-1.6576 1.2053 -0.0366 0.269 -0.238 0.933 191 173 157 0 0
-1.6638 1.2157 -0.0342 0.322 -0.300 0.898 186 168 152 0 0
-1.6490 1.2989 -0.0097 0.368 -0.171 0.914 195 179 165 0 0
-1.6440 1.3678 0.0100 0.827 -0.158 0.540 183 164 148 0 0
-1.6438 1.3721 0.0112 0.778 0.015 0.628 181 162 147 0 0
-1.6318 1.4120 0.0234 0.638 0.234 0.733 191 176 161 0 0
-1.5968 1.4297 0.0314 0.445 -0.502 0.741 190 174 159 0 0
-1.6276 1.4992 0.0481 0.503 -0.136 0.853 195 179 166 0 0
-1.6121 1.5062 0.0514 0.496 -0.669 0.554 186 169 154 0 0
-1.6053 1.5078 0.0525 0.371 -0.797 0.477 186 167 152 0 0
-1.6158 1.5568 0.0652 0.388 0.173 0.905 190 174 161 0 0
-1.6249 1.5832 0.0718 0.654 0.235 0.719 185 167 153 0 0
-1.8487 -0.2485 -0.4638 0.510 0.167 0.844 185 167 146 0 0
-1.8230 -0.1964 -0.4469 0.735 0.010 0.678 185 165 142 0 0
-1.8203 -0.1916 -0.4454 0.661 -0.676 0.326 186 166 145 0 0
-1.8182 -0.1830 -0.4428 0.522 -0.573 0.632 188 170 151 0 0
-1.8135 -0.1776 -0.4408 0.582 -0.538 0.610 184 164 144 0 0
-1.8090 -0.1722 -0.4389 0.689 0.002 0.725 177 156 135 0 0
-1.8087 -0.1682 -0.4378 0.506 0.095 0.857 174 153 132 0 0
-1.8082 -0.1602 -0.4355 0.525 -0.374 0.765 170 150 128 0 0
-1.8097 -0.1568 -0.4347 0.530 -0.420 0.737 172 151 132 0 0
-1.8091 -0.1527 -0.4335 0.488 -0.518 0.703 178 157 138 0 0
-1.8021 -0.1465 -0.4311 0.445 -0.752 0.486 181 160 140 0 0
-1.7942 -0.1401 -0.4286 0.498 -0.710 0.499 182 163 143 0 0
-1.7878 -0.1342 -0.4264 0.492 -0.718 0.492 184 164 143 0 0
-1.7935 -0.1165 -0.4220 0.307 0.027 0.951 183 162 144 0 0
-1.7972 -0.1137 -0.4215 0.418 -0.319 0.850 180 159 139 0 0
-1.7965 -0.1096 -0.4203 0.418 -0.319 0.850 177 156 135 0 0
-1.7947 -0.1012 -0.4178 0.415 -0.368 0.832 182 162 141 0 0
-1.7937 -0.0970 -0.4166 0.402 -0.465 0.789 188 169 148 0 0
-1.7838 -0.0824 -0.4116 0.432 -0.625 0.651 192 175 155 0 0
-1.7805 -0.0697 -0.4078 0.478 -0.501 0.721 191 175 154 0 0
-1.7789 -0.0653 -0.4064 0.581 -0.438 0.685 184 166 144 0 0
-1.8079 0.0420 -0.3791 0.357 -0.280 0.891 197 182 162 0 0
-1.8063 0.0464 -0.3777 0.397 -0.428 0.812 195 179 159 0 0
-1.7994 0.0520 -0.3755 0.435 -0.602 0.669 195 177 158 0 0
-1.7952 0.0570 -0.3738 0.452 -0.705 0.547 191 174 153 0 0
-1.7923 0.0616 -0.3722 0.553 -0.691 0.466 188 171 150 0 0
-1.7856 0.0672 -0.3701 0.796 -0.389 0.463 187 170 148 0 0
-1.7988 0.0842 -0.3665 0.714 0.394 0.578 179 158 137 0 0
-1.7997 0.0881 -0.3655 0.779 -0.434 0.453 185 166 145 0 0
-1.7972 0.0926 -0.3640 0.694 -0.682 0.229 192 175 156 0 0
-1.7717 0.1340 -0.3502 0.451 -0.504 0.736 186 169 148 0 0
-1.7539 0.1614 -0.3409 0.427 -0.405 0.809 186 168 148 0 0
-1.7535 0.1694 -0.3387 0.296 -0.389 0.872 192 175 158 0 0
-1.7710 0.1822 -0.3367 0.577 -0.543 0.610 196 180 163 0 0
-1.7641 0.1875 -0.3346 0.600 -0.395 0.695 201 185 169 0 0
-1.7656 0.2033 -0.3303 0.234 -0.458 0.858 192 175 157 0 0
-1.7624 0.2078 -0.3287 0.234 -0.458 0.858 192 176 157 0 0
-1.7762 0.2338 -0.3227 0.542 -0.039 0.840 192 175 158 0 0
-1.7781 0.2376 -0.3219 0.719 -0.179 0.671 190 173 154 0 0
-1.7755 0.2868 -0.3079 0.469 -0.546 0.695 194 177 161 0 0
-1.7736 0.2911 -0.3065 0.515 -0.543 0.664 191 174 156 0 0
-1.7669 0.2961 -0.3045 0.442 -0.217 0.871 191 174 156 0 0
-1.7613 0.3621 -0.2856 0.364 -0.379 0.851 207 191 178 0 0
-1.7541 0.3669 -0.2836 0.308 -0.481 0.821 208 192 179 0 0
-1.7599 0.3745 -0.2820 0.308 -0.501 0.809 202 185 169 0 0
-1.7567 0.3789 -0.2805 0.308 -0.501 0.809 200 183 166 0 0
-1.7610 0.4114 -0.2719 0.373 -0.207 0.904 206 190 176 0 0
-1.7454 0.4619 -0.2564 0.172 -0.409 0.896 202 186 170 0 0
-0.8156 0.6716 -0.1137 0.516 -0.826 -0.228 184 154 64 0 0
-0.8155 0.6741 -0.1130 0.336 -0.889 -0.311 172 143 62 0 0
-0.7796 0.6872 -0.1061 0.606 -0.682 0.408 151 122 55 0 0
-0.7764 0.6895 -0.1052 0.787 -0.597 -0.156 153 124 56 0 0
-0.7823 0.6924 -0.1049 0.433 -0.131 0.892 160 130 59 0 0
-0.8178 0.7024 -0.1053 0.546 0.117 0.830 165 137 64 0 0
-0.8521 0.7524 -0.0945 0.665 -0.684 -0.299 169 147 77 0 0
-0.8159 0.7616 -0.0887 0.958 0.235 -0.166 184 165 89 0 0
-0.6826 0.8174 -0.0610 0.967 0.256 0.011 175 139 68 0 0
-0.6814 0.8195 -0.0603 0.960 0.195 -0.199 178 148 72 0 0
-0.6818 0.8220 -0.0597 0.960 0.195 -0.199 181 155 76 0 0
-0.6817 0.8268 -0.0583 0.887 0.328 -0.325 197 180 107 0 0
-0.6861 0.8299 -0.0578 0.947 0.308 -0.088 200 183 110 0 0
-1.6407 1.1934 -0.0429 0.320 0.114 0.941 195 177 162 0 0
-1.6464 1.1993 -0.0418 0.307 0.107 0.946 195 177 163 0 0
-1.6579 1.2285 -0.0347 0.503 -0.442 0.743 199 184 169 0 0
-1.6476 1.2430 -0.0297 0.598 -0.661 0.454 194 177 162 0 0
-1.6454 1.2468 -0.0284 0.929 -0.310 0.201 194 178 163 0 0
-1.6412 1.3638 0.0046 0.835 0.160 0.526 187 168 153 0 0
-1.6364 1.3666 0.0058 0.720 0.231 0.654 184 165 149 0 0
-1.6415 1.3727 0.0070 0.781 -0.028 0.625 181 162 147 0 0
-1.6410 1.3770 0.0083 0.676 -0.321 0.664 179 161 145 0 0
-1.6389 1.3807 0.0095 0.688 -0.551 0.472 181 162 147 0 0
-1.6153 1.4030 0.0178 0.898 0.354 0.260 194 178 163 0 0
-1.6165 1.4078 0.0191 0.845 0.084 0.528 197 183 169 0 0
-1.6079 1.5060 0.0472 0.684 -0.459 0.567 189 171 157 0 0
-1.5988 1.5066 0.0482 0.881 -0.462 0.106 185 167 152 0 0
-1.5861 1.5101 0.0503 0.834 0.337 0.437 175 157 141 0 0
-1.5867 1.5148 0.0516 0.308 -0.509 0.804 176 158 143 0 0
-1.6129 1.5570 0.0610 0.494 -0.264 0.828 195 178 166 0 0
-1.5691 1.7196 0.1103 0.850 0.508 -0.140 191 175 162 0 0
-1.5794 1.7294 0.1121 0.639 -0.027 0.769 194 178 165 0 0
-1.8444 -0.2344 -0.4640 0.346 -0.757 0.554 192 175 157 0 0
-1.8318 -0.2262 -0.4605 0.346 -0.757 0.554 188 171 151 0 0
-1.8194 -0.2180 -0.4571 0.346 -0.757 0.554 184 166 143 0 0
-1.8237 -0.1920 -0.4502 0.499 -0.688 0.528 186 165 145 0 0
-1.8214 -0.1873 -0.4487 0.574 -0.709 0.409 186 168 148 0 0
-1.8114 -0.1801 -0.4458 0.758 -0.529 0.382 190 172 153 0 0
-1.8101 -0.1758 -0.4445 0.972 0.158 -0.175 186 167 147 0 0
-1.8111 -0.1722 -0.4436 0.928 0.337 0.160 181 160 139 0 0
-1.8036 -0.1659 -0.4411 0.915 0.088 0.393 171 149 127 0 0
-1.8040 -0.1621 -0.4401 0.793 -0.108 0.600 165 143 121 0 0
-1.8018 -0.1575 -0.4386 0.786 -0.602 0.140 164 142 122 0 0
-1.8017 -0.1535 -0.4375 0.643 -0.762 0.078 172 150 129 0 0
-1.7966 -0.1480 -0.4355 0.564 -0.809 0.163 179 158 139 0 0
-1.7990 -0.1448 -0.4348 0.524 -0.704 0.478 182 162 142 0 0
-1.7877 -0.1374 -0.4317 0.662 -0.691 0.291 186 167 146 0 0
-1.7759 -0.1221 -0.4263 0.992 0.035 -0.118 187 168 149 0 0
-1.7851 -0.1094 -0.4237 0.499 -0.051 0.865 180 159 138 0 0
-1.7864 -0.1058 -0.4228 0.523 -0.275 0.807 180 159 139 0 0
-1.7876 -0.1023 -0.4219 0.402 -0.521 0.754 185 166 143 0 0
-1.7844 -0.0974 -0.4203 0.402 -0.521 0.754 190 174 152 0 0
-1.7729 -0.0785 -0.4139 0.435 -0.566 0.700 191 174 154 0 0
-1.7740 -0.0710 -0.4119 0.626 -0.502 0.597 191 175 154 0 0
-1.7716 -0.0664 -0.4104 0.647 -0.574 0.502 192 175 155 0 0
-1.7701 -0.0621 -0.4091 0.731 -0.427 0.532 191 174 154 0 0
-1.8173 -0.0277 -0.4039 0.670 -0.740 0.063 183 164 142 0 0
-1.7416 0.0233 -0.3827 0.627 -0.365 0.688 189 171 152 0 0
-1.7961 0.0496 -0.3804 0.310 -0.475 0.824 189 173 152 0 0
-1.7861 0.0559 -0.3777 0.443 -0.549 0.709 188 170 150 0 0
-1.7854 0.0600 -0.3765 0.393 -0.629 0.671 189 171 152 0 0
-1.7797 0.0653 -0.3745 0.465 -0.570 0.677 192 175 156 0 0
-1.7819 0.0688 -0.3737 0.706 -0.272 0.653 191 175 154 0 0
-1.7908 0.0868 -0.3695 0.401 -0.068 0.914 180 161 139 0 0
-1.7846 0.0961 -0.3664 0.450 -0.732 0.511 192 175 154 0 0
-1.7667 0.1239 -0.3570 0.552 -0.687 0.472 190 173 154 0 0
-1.7651 0.1282 -0.3556 0.505 -0.301 0.809 186 169 150 0 0
-1.7645 0.1323 -0.3544 0.505 -0.301 0.809 186 168 150 0 0
-1.7442 0.1641 -0.3437 0.444 -0.478 0.758 189 172 154 0 0
-1.7517 0.2065 -0.3326 0.239 -0.469 0.850 200 184 168 0 0
-1.7580 0.2174 -0.3301 0.268 -0.379 0.886 197 181 163 0 0
-1.7669 0.2402 -0.3246 0.769 -0.526 0.363 190 173 155 0 0
-1.7732 0.2433 -0.3243 0.844 -0.427 0.324 190 173 154 0 0
-1.7675 0.3091 -0.3054 0.410 -0.127 0.903 204 188 174 0 0
-1.7512 0.3600 -0.2898 0.532 -0.395 0.749 202 186 170 0 0
-1.7489 0.3643 -0.2884 0.404 -0.250 0.880 205 189 173 0 0
-1.7452 0.3687 -0.2868 0.452 -0.619 0.642 206 190 175 0 0
-1.7413 0.3732 -0.2852 0.553 -0.575 0.603 205 189 174 0 0
-1.7459 0.3768 -0.2846 0.439 -0.402 0.803 199 182 166 0 0
-1.7445 0.3810 -0.2833 0.439 -0.402 0.803 198 181 163 0 0
-1.7538 0.4129 -0.2753 0.227 -0.261 0.938 205 189 174 0 0
-1.7480 0.4257 -0.2712 0.236 -0.538 0.809 200 184 168 0 0
-1.7447 0.4300 -0.2697 0.194 -0.603 0.774 204 188 172 0 0
-1.7450 0.4382 -0.2674 0.181 -0.303 0.936 203 187 172 0 0
-0.8665 0.6406 -0.1298 0.270 -0.795 0.543 183 122 71 0 0
-0.8256 0.6574 -0.1213 0.503 -0.839 0.209 204 179 79 0 0
-0.8161 0.6723 -0.1163 0.484 -0.772 -0.412 176 145 64 0 0
-0.8165 0.6749 -0.1156 0.371 -0.865 -0.337 167 137 66 0 0
-0.8181 0.7031 -0.1079 0.725 0.062 0.686 164 137 65 0 0
-0.8406 0.7126 -0.1074 0.843 -0.216 0.492 168 142 68 0 0
-0.8146 0.7621 -0.0911 0.776 -0.630 -0.028 175 151 72 0 0
-0.6911 0.8123 -0.0657 0.552 -0.757 0.350 169 111 55 0 0
-0.6801 0.8129 -0.0646 0.929 0.348 -0.128 173 123 63 0 0
-0.6794 0.8223 -0.0619 0.951 0.128 0.282 171 138 72 0 0
-0.6830 0.8277 -0.0607 0.803 0.370 -0.468 192 173 100 0 0
-1.6446 1.1569 -0.0579 0.731 0.075 0.678 190 172 154 0 0
-1.6211 1.1852 -0.0479 0.180 -0.099 0.979 196 179 163 0 0
-1.6363 1.2022 -0.0445 0.285 -0.156 0.946 196 178 164 0 0
-1.6417 1.2427 -0.0338 0.672 -0.319 0.668 185 166 151 0 0
-1.6404 1.2467 -0.0325 0.769 -0.366 0.523 188 171 155 0 0
-1.6303 1.2567 -0.0288 0.706 -0.468 0.532 199 184 169 0 0
-1.6297 1.2609 -0.0276 0.706 -0.207 0.677 200 185 171 0 0
-1.6223 1.2847 -0.0203 0.428 0.036 0.903 198 182 167 0 0
-1.6294 1.2912 -0.0191 0.425 -0.283 0.860 200 183 170 0 0
-1.6334 1.3669 0.0016 0.475 0.211 0.854 190 172 158 0 0
-1.6376 1.3728 0.0029 0.700 0.084 0.709 187 169 153 0 0
-1.6377 1.3773 0.0041 0.895 0.038 0.444 188 170 155 0 0
-1.6379 1.3817 0.0053 0.703 -0.584 0.405 190 172 156 0 0
-1.6032 1.5055 0.0430 0.815 -0.210 0.539 189 171 157 0 0
-1.5842 1.5108 0.0462 0.834 0.337 0.437 162 143 128 0 0
-1.5994 1.5571 0.0577 0.258 -0.045 0.965 197 183 172 0 0
-1.5627 1.7178 0.1059 0.790 -0.265 0.553 193 177 164 0 0
-1.8524 -0.3035 -0.4885 0.276 -0.480 0.833 194 178 158 0 0
-1.8487 -0.2983 -0.4866 0.256 -0.446 0.858 188 170 153 0 0
-1.8464 -0.2935 -0.4851 0.248 -0.365 0.898 188 170 152 0 0
-1.8116 -0.1873 -0.4523 0.396 -0.578 0.714 184 166 142 0 0
-1.8075 -0.1821 -0.4504 0.541 -0.584 0.605 184 164 143 0 0
-1.8056 -0.1775 -0.4490 0.701 -0.476 0.531 183 162 141 0 0
-1.8077 -0.1743 -0.4483 0.747 -0.209 0.631 182 161 140 0 0
-1.8059 -0.1698 -0.4469 0.718 -0.067 0.693 179 158 136 0 0
-1.8021 -0.1647 -0.4451 0.651 -0.146 0.745 172 151 129 0 0
-1.8019 -0.1607 -0.4439 0.659 -0.424 0.622 169 148 126 0 0
-1.7995 -0.1560 -0.4424 0.588 -0.733 0.342 169 147 126 0 0
-1.7966 -0.1512 -0.4408 0.550 -0.823 0.141 176 155 132 0 0
-1.7892 -0.1411 -0.4373 0.644 -0.719 0.261 184 166 147 0 0
-1.7815 -0.1348 -0.4348 0.805 -0.551 0.220 193 176 160 0 0
-1.7776 -0.1297 -0.4330 0.792 -0.539 0.286 199 184 168 0 0
-1.7757 -0.1213 -0.4305 0.967 -0.204 0.153 191 172 156 0 0
-1.7793 -0.1186 -0.4301 0.830 -0.142 0.539 189 169 151 0 0
-1.7790 -0.1146 -0.4289 0.778 -0.242 0.580 181 160 140 0 0
-1.7761 -0.1059 -0.4263 0.672 -0.385 0.632 179 158 135 0 0
-1.7809 -0.1035 -0.4260 0.476 -0.653 0.589 183 164 143 0 0
-1.7787 -0.0989 -0.4246 0.403 -0.621 0.673 189 171 152 0 0
-1.7785 -0.0950 -0.4234 0.354 -0.551 0.756 200 185 165 0 0
-1.8081 -0.0285 -0.4077 0.524 -0.832 0.184 184 166 146 0 0
-1.7431 0.0237 -0.3871 0.670 -0.461 0.582 190 173 154 0 0
-1.7377 0.0290 -0.3851 0.545 -0.635 0.547 190 172 151 0 0
-1.7325 0.0380 -0.3821 0.495 -0.479 0.724 188 170 151 0 0
-1.7851 0.0489 -0.3840 0.251 -0.316 0.915 185 167 145 0 0
-1.7843 0.0531 -0.3828 0.310 -0.475 0.824 185 167 145 0 0
-1.7795 0.0582 -0.3809 0.342 -0.406 0.848 187 169 147 0 0
-1.7783 0.0624 -0.3796 0.407 -0.657 0.634 191 173 154 0 0
-1.7768 0.0668 -0.3783 0.425 -0.395 0.814 196 179 160 0 0
-1.7531 0.1433 -0.3547 0.426 -0.566 0.706 179 158 137 0 0
-1.7442 0.1569 -0.3501 0.460 -0.613 0.643 183 165 145 0 0
-1.7457 0.2084 -0.3359 0.429 -0.653 0.624 195 179 161 0 0
-1.7606 0.2542 -0.3246 0.488 -0.106 0.866 193 177 157 0 0
-1.7581 0.2586 -0.3231 0.551 -0.568 0.611 193 177 159 0 0
-1.7562 0.3277 -0.3037 0.192 -0.114 0.975 203 187 171 0 0
-1.7599 0.3314 -0.3030 0.223 -0.422 0.879 200 184 166 0 0
-1.7574 0.3357 -0.3016 0.375 -0.813 0.445 199 182 165 0 0
-1.7491 0.3408 -0.2994 0.375 -0.813 0.445 198 182 163 0 0
-1.7409 0.3457 -0.2972 0.375 -0.813 0.445 199 182 164 0 0
-1.7336 0.3506 -0.2952 0.612 -0.632 0.475 199 182 165 0 0
-1.7396 0.3621 -0.2926 0.603 -0.460 0.652 196 179 162 0 0
-1.7379 0.3663 -0.2912 0.543 -0.428 0.722 195 178 161 0 0
-1.7356 0.3706 -0.2898 0.440 -0.418 0.795 197 179 163 0 0
-1.7326 0.3750 -0.2883 0.570 -0.810 0.141 196 179 162 0 0
-1.7347 0.3788 -0.2875 0.507 -0.284 0.814 195 178 159 0 0
-1.7275 0.3836 -0.2855 0.698 -0.140 0.703 199 182 164 0 0
-1.7335 0.3911 -0.2839 0.462 -0.371 0.806 199 182 164 0 0
-1.7308 0.3954 -0.2825 0.377 -0.696 0.611 199 182 164 0 0
-1.7179 0.4047 -0.2787 0.386 -0.813 0.436 201 185 167 0 0
-1.7344 0.4277 -0.2738 0.236 -0.538 0.809 194 177 160 0 0
-1.7305 0.4321 -0.2722 0.223 -0.580 0.783 202 185 170 0 0
-1.6721 0.6296 -0.2118 0.131 -0.519 0.844 183 157 127 0 0
-0.8749 0.6335 -0.1354 0.285 -0.536 0.795 188 155 98 0 0
-0.8305 0.6531 -0.1257 0.429 -0.903 -0.033 208 184 84 0 0
-0.8182 0.7012 -0.1112 0.810 0.296 0.507 163 135 63 0 0
-0.8400 0.7132 -0.1099 0.978 0.077 0.193 167 140 67 0 0
-0.8396 0.7158 -0.1092 0.936 -0.239 -0.258 166 138 68 0 0
-0.8363 0.7286 -0.1053 0.960 0.007 0.280 151 121 65 0 0
-0.8142 0.7628 -0.0937 0.814 -0.532 0.232 168 140 62 0 0
-0.6825 0.8092 -0.0683 0.998 0.025 -0.052 158 100 50 0 0
-0.6826 0.8116 -0.0677 0.933 -0.328 -0.152 160 106 53 0 0
-0.6808 0.8137 -0.0669 0.934 0.310 -0.176 167 120 62 0 0
-0.6810 0.8161 -0.0663 0.926 0.281 -0.252 159 118 59 0 0
-0.6792 0.8205 -0.0649 0.994 0.090 0.069 166 133 74 0 0
-0.6805 0.8255 -0.0636 0.822 -0.005 0.570 162 128 70 0 0
-0.6796 0.8277 -0.0629 0.700 -0.396 0.594 183 162 90 0 0
-0.6815 0.8353 -0.0610 0.888 0.111 0.447 199 183 107 0 0
-1.6385 1.0883 -0.0810 0.537 -0.640 0.550 205 190 173 0 0
-1.6277 1.1327 -0.0676 0.483 -0.379 0.789 197 180 163 0 0
-1.6266 1.1367 -0.0664 0.467 -0.263 0.844 196 179 162 0 0
-1.6209 1.1608 -0.0591 0.379 0.144 0.914 198 180 164 0 0
-1.6256 1.1663 -0.0580 0.497 0.043 0.867 195 176 160 0 0
-1.6258 1.1792 -0.0544 0.187 -0.507 0.842 193 176 160 0 0
-1.6223 1.1826 -0.0532 0.187 -0.507 0.842 193 177 161 0 0
-1.6383 1.2431 -0.0378 0.775 -0.350 0.526 194 176 160 0 0
-1.6374 1.2472 -0.0366 0.769 -0.366 0.523 192 175 159 0 0
-1.6255 1.2610 -0.0317 0.536 -0.458 0.709 199 182 167 0 0
-1.6139 1.2834 -0.0243 0.445 0.080 0.892 200 183 168 0 0
-1.6211 1.2900 -0.0232 0.435 -0.160 0.886 200 184 170 0 0
-1.6109 1.2954 -0.0207 0.326 -0.756 0.567 201 187 176 0 0
-1.6263 1.3571 -0.0050 0.364 0.227 0.903 193 175 162 0 0
-1.6335 1.3728 -0.0013 0.569 -0.389 0.725 188 171 155 0 0
-1.6117 1.4002 0.0084 0.719 -0.022 0.695 187 170 155 0 0
-1.5926 1.4063 0.0119 0.724 -0.278 0.631 192 175 160 0 0
-1.5923 1.4105 0.0131 0.704 -0.527 0.476 193 178 163 0 0
-1.5917 1.4146 0.0143 0.770 -0.547 0.329 195 179 166 0 0
-1.5882 1.4395 0.0215 0.534 -0.211 0.819 195 180 166 0 0
-1.6004 1.5058 0.0389 0.815 -0.210 0.539 185 168 152 0 0
-1.5821 1.5114 0.0421 0.764 0.378 0.523 160 141 126 0 0
-1.8336 -0.2842 -0.4857 0.250 -0.280 0.927 189 172 153 0 0
-1.8282 -0.2783 -0.4836 0.215 -0.386 0.897 193 177 159 0 0
-1.8284 -0.2745 -0.4826 0.233 -0.394 0.889 196 180 163 0 0
-1.7914 -0.2032 -0.4592 0.364 -0.776 0.516 189 173 152 0 0
-1.7791 -0.1952 -0.4558 0.364 -0.776 0.516 190 172 152 0 0
-1.7841 -0.1930 -0.4556 0.316 -0.642 0.699 187 169 148 0 0
-1.7986 -0.1784 -0.4530 0.521 -0.317 0.793 177 157 134 0 0
-1.8005 -0.1752 -0.4523 0.748 -0.349 0.565 176 156 133 0 0
-1.7995 -0.1710 -0.4510 0.748 -0.349 0.565 177 157 134 0 0
-1.8002 -0.1673 -0.4500 0.757 -0.255 0.601 178 158 136 0 0
-1.7985 -0.1629 -0.4486 0.679 -0.354 0.643 180 159 136 0 0
-1.7894 -0.1521 -0.4448 0.630 -0.722 0.286 182 161 139 0 0
-1.7837 -0.1425 -0.4416 0.517 -0.825 0.228 186 167 147 0 0
-1.7841 -0.1388 -0.4406 0.718 -0.671 0.187 190 173 154 0 0
-1.7805 -0.1338 -0.4388 0.818 -0.571 0.066 196 180 162 0 0
-1.7753 -0.1283 -0.4368 0.792 -0.539 0.286 199 183 167 0 0
-1.7710 -0.1231 -0.4349 0.844 -0.480 0.239 194 177 160 0 0
-1.7719 -0.1195 -0.4340 0.832 -0.488 0.265 187 167 148 0 0
-1.7712 -0.1154 -0.4328 0.954 0.130 0.269 184 162 143 0 0
-1.7713 -0.1115 -0.4318 0.927 -0.050 0.372 177 155 136 0 0
-1.7712 -0.1076 -0.4307 0.847 -0.027 0.531 172 150 130 0 0
-1.7712 -0.1037 -0.4296 0.626 -0.226 0.747 177 155 132 0 0
-1.7740 -0.1007 -0.4290 0.403 -0.621 0.673 182 163 140 0 0
-1.7690 -0.0954 -0.4270 0.403 -0.621 0.673 186 168 147 0 0
-1.7676 -0.0910 -0.4257 0.354 -0.551 0.756 194 177 159 0 0
-1.7761 -0.0663 -0.4196 0.932 0.152 -0.328 189 172 151 0 0
-1.7749 -0.0620 -0.4183 0.886 -0.308 -0.347 186 168 147 0 0
-1.7661 -0.0478 -0.4135 0.937 -0.293 -0.188 188 170 150 0 0
-1.8031 -0.0264 -0.4112 0.539 -0.812 0.224 188 170 150 0 0
-1.7716 0.0608 -0.3839 0.425 -0.395 0.814 189 171 150 0 0
-1.7704 0.0650 -0.3826 0.505 -0.493 0.709 194 177 159 0 0
-1.7748 0.0879 -0.3766 0.256 0.210 0.944 197 181 163 0 0
-1.7417 0.1464 -0.3572 0.458 -0.581 0.672 184 166 146 0 0
-1.7381 0.3227 -0.3078 0.517 0.326 0.791 206 190 176 0 0
-1.7458 0.3339 -0.3055 0.644 -0.535 0.547 203 188 173 0 0
-1.7430 0.3383 -0.3040 0.665 -0.739 0.104 202 186 168 0 0
-1.7405 0.3426 -0.3025 0.772 -0.584 0.251 199 183 166 0 0
-1.7355 0.3472 -0.3008 0.630 -0.599 0.495 199 182 165 0 0
-1.7325 0.3516 -0.2993 0.630 -0.599 0.495 198 181 161 0 0
-1.7310 0.3761 -0.2923 0.467 -0.366 0.805 190 172 152 0 0
-1.7297 0.3802 -0.2910 0.492 -0.400 0.774 191 173 152 0 0
-1.7256 0.3928 -0.2871 0.593 -0.311 0.742 196 178 161 0 0
-1.7234 0.3970 -0.2858 0.502 -0.598 0.624 200 183 166 0 0
-1.7134 0.4020 -0.2834 0.427 -0.874 0.231 203 186 170 0 0
-1.7109 0.4062 -0.2820 0.386 -0.813 0.436 203 187 170 0 0
-1.7046 0.4108 -0.2801 0.406 -0.813 0.418 200 183 166 0 0
-1.7046 0.4148 -0.2790 0.417 -0.326 0.849 197 180 162 0 0
-1.7234 0.4254 -0.2779 0.209 -0.390 0.897 197 180 164 0 0
-1.7209 0.4297 -0.2764 0.236 -0.538 0.809 201 184 168 0 0
-1.7182 0.4339 -0.2750 0.298 -0.651 0.698 203 188 173 0 0
-1.7248 0.4375 -0.2746 0.241 -0.032 0.970 205 190 177 0 0
-1.7260 0.4415 -0.2736 0.418 -0.801 0.429 205 189 175 0 0
-1.7173 0.4462 -0.2715 0.309 -0.629 0.713 205 189 174 0 0
-1.7139 0.4505 -0.2700 0.299 -0.677 0.673 206 190 176 0 0
-1.6621 0.6021 -0.2228 0.263 -0.240 0.934 197 179 156 0 0
-0.8394 0.7139 -0.1125 0.991 -0.064 0.116 165 136 67 0 0
-0.8395 0.7165 -0.1118 0.977 0.010 -0.214 163 135 70 0 0
-0.8388 0.7190 -0.1110 0.951 -0.078 0.301 158 129 67 0 0
-0.8375 0.7425 -0.1043 0.852 0.112 0.512 161 134 68 0 0
-0.6810 0.8096 -0.0706 0.980 0.086 -0.178 153 99 47 0 0
-0.6828 0.8123 -0.0700 0.933 -0.328 -0.152 151 100 45 0 0
-0.6814 0.8145 -0.0693 0.906 0.305 -0.293 151 107 49 0 0
-0.6819 0.8169 -0.0686 0.926 0.281 -0.252 128 93 37 0 0
-0.6833 0.8219 -0.0674 0.900 0.363 -0.241 138 108 54 0 0
-0.6770 0.8256 -0.0658 0.556 -0.274 0.785 165 134 74 0 0
-0.6768 0.8279 -0.0651 0.556 -0.274 0.785 186 164 90 0 0
-0.6895 0.8326 -0.0650 0.653 0.696 0.299 192 175 101 0 0
-1.6407 1.0815 -0.0875 0.539 -0.559 0.630 193 172 153 0 0
-1.6297 1.0918 -0.0836 0.524 -0.801 0.290 194 177 160 0 0
-1.6104 1.2021 -0.0511 0.282 -0.177 0.943 202 185 173 0 0
-1.6353 1.2436 -0.0419 0.775 -0.350 0.526 201 184 170 0 0
-1.6338 1.2475 -0.0407 0.746 -0.430 0.509 200 182 168 0 0
-1.6164 1.2596 -0.0356 0.376 -0.764 0.524 199 183 168 0 0
-1.6006 1.2678 -0.0319 0.111 -0.411 0.905 201 185 170 0 0
-1.5992 1.2759 -0.0295 0.507 0.184 0.842 199 184 169 0 0
-1.6100 1.2836 -0.0284 0.842 0.044 0.537 197 181 168 0 0
-1.6112 1.2883 -0.0272 0.745 0.001 0.667 195 179 166 0 0
-1.6116 1.2927 -0.0260 0.632 -0.267 0.727 199 183 170 0 0
-1.5899 1.4067 0.0078 0.355 -0.509 0.784 185 167 150 0 0
-1.5937 1.5045 0.0346 0.944 0.258 0.203 187 170 154 0 0
-1.5812 1.5125 0.0380 0.767 0.585 0.263 176 158 142 0 0
-1.5801 1.6048 0.0638 0.378 -0.574 0.726 189 173 157 0 0
-1.5829 1.6105 0.0651 0.604 -0.577 0.549 190 172 158 0 0
-1.5621 1.6495 0.0780 0.728 -0.374 0.575 197 181 167 0 0
-1.5618 1.6537 0.0792 0.842 0.084 0.533 197 181 168 0 0
-1.8127 -0.2565 -0.4805 0.440 -0.689 0.576 191 173 154 0 0
-1.8055 -0.2500 -0.4780 0.407 -0.298 0.864 189 172 153 0 0
-1.8051 -0.2460 -0.4768 0.372 -0.294 0.881 187 169 149 0 0
-1.8091 -0.2397 -0.4754 0.221 -0.180 0.959 189 173 153 0 0
-1.8005 -0.2173 -0.4684 0.380 -0.656 0.652 188 170 151 0 0
-1.7952 -0.2116 -0.4663 0.382 -0.774 0.505 185 167 147 0 0
-1.7878 -0.2052 -0.4638 0.373 -0.754 0.541 182 163 141 0 0
-1.7761 -0.1973 -0.4604 0.389 -0.733 0.557 181 163 140 0 0
-1.7688 -0.1910 -0.4580 0.408 -0.671 0.619 185 167 145 0 0
-1.7828 -0.1919 -0.4596 0.335 -0.441 0.833 185 166 143 0 0
-1.7967 -0.1733 -0.4558 0.666 -0.292 0.687 174 154 131 0 0
-1.7963 -0.1693 -0.4546 0.602 -0.219 0.768 176 156 132 0 0
-1.7959 -0.1652 -0.4535 0.608 -0.105 0.787 182 161 139 0 0
-1.7942 -0.1608 -0.4521 0.679 -0.354 0.643 184 163 143 0 0
-1.7786 -0.1402 -0.4448 0.517 -0.825 0.228 187 168 149 0 0
-1.7797 -0.1367 -0.4440 0.785 -0.598 0.165 190 172 153 0 0
-1.7795 -0.1328 -0.4428 0.818 -0.571 0.066 192 175 157 0 0
-1.7731 -0.1269 -0.4406 0.784 -0.535 0.314 188 171 152 0 0
-1.7692 -0.1218 -0.4388 0.844 -0.480 0.239 180 161 141 0 0
-1.7685 -0.1177 -0.4376 0.830 -0.555 -0.050 177 155 137 0 0
-1.7702 -0.1144 -0.4368 0.954 0.130 0.269 179 156 137 0 0
-1.7690 -0.1102 -0.4355 0.856 0.066 0.512 180 158 140 0 0
-1.7680 -0.1060 -0.4343 0.748 -0.133 0.650 181 160 141 0 0
-1.7664 -0.1016 -0.4329 0.626 -0.226 0.747 186 168 146 0 0
-1.7657 -0.0975 -0.4317 0.428 -0.663 0.614 187 169 148 0 0
-1.7601 -0.0920 -0.4296 0.428 -0.663 0.614 184 165 143 0 0
-1.7694 -0.0831 -0.4281 0.352 -0.874 0.335 188 172 149 0 0
-1.7665 -0.0472 -0.4178 0.877 -0.465 -0.122 191 174 154 0 0
-1.7621 -0.0421 -0.4160 0.932 0.040 0.361 193 178 157 0 0
-1.7281 0.0251 -0.3940 0.790 -0.506 -0.346 177 156 134 0 0
-1.7616 0.0876 -0.3799 0.227 0.201 0.953 195 179 160 0 0
-1.7603 0.0919 -0.3786 0.320 -0.231 0.919 196 181 162 0 0
-1.7528 0.1530 -0.3609 0.442 -0.644 0.624 190 173 153 0 0
-1.7482 0.1578 -0.3591 0.442 -0.644 0.624 192 176 157 0 0
-1.7436 0.2584 -0.3307 0.244 -0.589 0.771 188 170 152 0 0
-1.7203 0.3942 -0.2907 0.631 -0.144 0.763 193 175 157 0 0
-1.7162 0.3986 -0.2891 0.617 -0.693 0.373 200 183 165 0 0
-1.7077 0.4034 -0.2869 0.433 -0.856 0.282 203 188 172 0 0
-1.7028 0.4078 -0.2852 0.512 -0.848 0.136 205 191 176 0 0
-1.7075 0.4236 -0.2813 0.132 -0.219 0.967 202 185 170 0 0
-1.7043 0.4359 -0.2775 0.234 -0.482 0.844 209 194 181 0 0
