ply
format ascii 1.0
element vertex 825
property float x
property float y
property float z
property float nx
property float ny
property float nz
property uchar diffuse_red
property uchar diffuse_green
property uchar diffuse_blue
property uchar class
property uchar detection
end_header
-1.0402 0.6581 -0.1242 -0.287 -0.898 -0.334 195 168 131 0 0
-0.9660 0.6810 -0.1405 0.546 -0.710 -0.446 157 105 22 0 0
-0.8946 0.6689 -0.1523 -0.869 -0.455 -0.195 144 102 42 0 0
-0.8805 0.6797 -0.1561 0.316 -0.764 0.563 137 98 41 0 0
-0.8754 0.6820 -0.1573 -0.563 -0.779 0.277 131 94 38 0 0
-0.8695 0.7219 -0.1629 0.606 -0.628 0.488 131 91 35 0 0
-0.8663 0.7210 -0.1634 0.168 -0.718 0.675 142 101 42 0 0
-0.8633 0.7210 -0.1640 -0.123 -0.617 0.777 151 111 51 0 0
-0.8583 0.7243 -0.1653 0.366 -0.295 0.883 147 111 48 0 0
-0.8259 0.7132 -0.1700 0.568 -0.627 0.533 155 117 37 0 0
-0.8234 0.7148 -0.1706 -0.183 -0.729 0.660 155 115 36 0 0
-0.8194 0.7107 -0.1709 -0.003 -0.597 0.803 163 124 44 0 0
-0.8110 0.7121 -0.1726 0.180 -0.451 0.874 200 171 70 0 0
-0.8028 0.7263 -0.1757 0.080 -0.877 -0.474 202 175 76 0 0
-0.7687 0.7579 -0.1856 0.866 -0.456 -0.205 160 122 75 0 0
-0.7930 1.5497 -0.2710 -0.101 -0.308 0.946 201 180 155 0 0
-0.3941 1.7126 -0.3631 0.418 -0.551 0.722 201 187 174 0 0
-0.3896 1.7146 -0.3641 0.182 -0.389 0.903 200 186 175 0 0
-0.3667 1.7340 -0.3705 0.332 -0.344 0.878 194 179 165 0 0
-0.3621 1.7355 -0.3716 0.298 -0.332 0.895 191 174 160 0 0
-0.2107 1.7467 -0.4007 0.695 -0.719 -0.015 190 175 161 0 0
0.0012 1.8197 -0.4481 0.390 -0.320 0.863 181 170 167 0 0
0.0060 1.8223 -0.4493 0.474 -0.334 0.814 184 172 170 0 0
0.0261 1.8360 -0.4545 0.475 -0.216 0.853 185 174 170 0 0
0.0315 1.8414 -0.4561 0.590 -0.246 0.769 185 172 169 0 0
0.0372 1.8480 -0.4579 0.604 -0.256 0.755 182 170 166 0 0
0.0456 1.8687 -0.4618 0.770 -0.274 0.576 181 169 164 0 0
0.0736 1.8757 -0.4678 0.690 -0.724 -0.007 177 164 157 0 0
0.1846 1.9162 -0.4928 0.622 -0.359 0.696 184 178 179 0 0
0.1910 1.9243 -0.4949 0.654 -0.338 0.677 183 177 178 0 0
0.2399 1.9593 -0.5079 0.431 -0.435 0.791 183 174 175 0 0
0.2447 1.9605 -0.5090 0.567 -0.437 0.698 184 176 177 0 0
0.2505 1.9654 -0.5106 0.567 -0.437 0.698 184 178 177 0 0
0.2555 1.9674 -0.5117 0.294 -0.346 0.891 182 175 174 0 0
0.4775 2.0906 -0.5667 0.515 -0.304 0.801 187 185 189 0 0
0.4846 2.0983 -0.5688 0.595 -0.327 0.734 186 183 188 0 0
0.4918 2.1061 -0.5710 0.536 -0.263 0.802 190 186 191 0 0
0.4969 2.1077 -0.5722 0.188 -0.113 0.976 191 189 193 0 0
0.5585 2.1011 -0.5828 0.209 -0.046 0.977 187 185 189 0 0
-2.0200 0.9919 0.0146 0.276 -0.250 0.928 192 172 145 0 0
-2.0169 0.9933 0.0138 0.325 -0.211 0.922 193 173 147 0 0
-2.0011 1.0047 0.0096 0.043 -0.260 0.965 191 171 143 0 0
-1.9795 1.0050 0.0056 -0.247 -0.608 0.754 193 176 148 0 0
-1.9515 1.0076 0.0001 0.947 -0.059 0.315 181 156 127 0 0
-1.9321 1.0203 -0.0049 0.055 -0.987 -0.148 176 150 123 0 0
-1.9283 1.0209 -0.0057 -0.392 -0.856 0.338 169 143 114 0 0
-1.8908 1.0278 -0.0134 -0.249 -0.626 0.739 186 162 135 0 0
-1.8960 1.0502 -0.0150 0.231 -0.385 0.894 185 164 135 0 0
-1.8895 1.0475 -0.0159 0.122 -0.408 0.905 187 166 137 0 0
-1.8856 1.0480 -0.0167 0.148 -0.503 0.852 188 167 140 0 0
-1.8798 1.0463 -0.0175 0.349 -0.371 0.861 189 166 138 0 0
-1.8763 1.0472 -0.0183 0.274 -0.350 0.896 187 163 135 0 0
-1.8449 1.0680 -0.0264 -0.050 -0.773 0.632 186 164 134 0 0
-1.8419 1.0697 -0.0272 -0.471 -0.785 0.402 185 164 134 0 0
-1.7540 1.0913 -0.0459 0.183 -0.756 0.628 193 174 145 0 0
-1.7469 1.0874 -0.0467 -0.125 -0.992 0.000 192 173 144 0 0
-1.7440 1.0894 -0.0475 0.837 -0.508 0.201 193 172 143 0 0
-1.6860 1.1506 -0.0652 0.286 -0.850 0.442 181 158 130 0 0
-1.6777 1.1513 -0.0668 -0.079 -0.966 0.245 192 171 140 0 0
-1.6712 1.1480 -0.0676 -0.102 -0.988 -0.115 186 163 133 0 0
-1.6442 1.1534 -0.0732 -0.249 -0.967 -0.054 195 175 148 0 0
-1.5625 1.2291 -0.0970 -0.139 -0.645 0.752 191 169 143 0 0
-1.5491 1.2366 -0.1003 0.751 -0.358 0.555 192 167 139 0 0
-1.3547 1.2771 -0.1408 0.297 -0.256 0.920 196 172 144 0 0
-1.3451 1.3048 -0.1457 0.561 -0.128 0.818 192 165 133 0 0
-1.3437 1.3117 -0.1468 0.890 -0.096 0.446 193 167 135 0 0
-1.3439 1.3224 -0.1480 0.710 -0.357 0.607 193 167 134 0 0
-0.9957 0.6637 -0.1360 0.538 -0.835 0.120 133 77 28 0 0
-0.9876 0.6656 -0.1377 0.099 -0.947 0.305 146 94 38 0 0
-0.9835 0.6626 -0.1381 -0.193 -0.905 0.379 142 90 33 0 0
-0.9715 0.6860 -0.1430 -0.127 -0.914 -0.386 148 99 26 0 0
-0.9675 0.6832 -0.1434 0.272 -0.839 -0.471 157 105 23 0 0
-0.9639 0.6815 -0.1439 -0.061 -0.969 -0.238 166 114 21 0 0
-0.9327 0.6512 -0.1461 -0.557 -0.825 0.095 197 154 42 0 0
-0.9269 0.6512 -0.1472 -0.219 -0.887 -0.406 195 153 39 0 0
-0.9172 0.7010 -0.1547 -0.797 -0.503 0.335 123 82 24 0 0
-0.9107 0.6901 -0.1547 -0.775 -0.624 0.096 120 79 22 0 0
-0.9065 0.6861 -0.1550 -0.785 -0.619 0.017 122 81 26 0 0
-0.9015 0.6795 -0.1551 -0.791 -0.583 -0.186 128 86 28 0 0
-0.8853 0.6741 -0.1575 -0.093 -0.974 0.209 133 93 33 0 0
-0.8833 0.6772 -0.1582 0.032 -0.798 0.602 132 92 32 0 0
-0.8806 0.6777 -0.1588 -0.111 -0.758 0.643 130 91 32 0 0
-0.8785 0.6805 -0.1595 0.363 -0.694 0.622 130 91 33 0 0
-0.8773 0.7158 -0.1638 0.899 -0.438 -0.014 132 95 42 0 0
-0.8755 0.7198 -0.1646 0.775 -0.430 -0.463 131 93 37 0 0
-0.8728 0.7207 -0.1652 0.837 -0.544 -0.056 134 94 35 0 0
-0.8687 0.7168 -0.1655 0.810 -0.421 0.408 139 98 36 0 0
-0.8661 0.7182 -0.1661 0.290 -0.659 0.694 153 112 49 0 0
-0.8630 0.7176 -0.1666 -0.123 -0.617 0.777 161 126 58 0 0
-0.8591 0.7144 -0.1670 -0.196 -0.814 0.547 163 128 59 0 0
-0.8134 0.6736 -0.1707 0.660 -0.644 0.388 168 130 49 0 0
-0.8111 0.6756 -0.1713 0.543 -0.685 0.486 178 142 52 0 0
-0.8008 0.7154 -0.1778 0.565 -0.627 0.536 200 171 71 0 0
-0.7976 0.7142 -0.1783 0.772 -0.612 -0.172 199 167 68 0 0
-0.7766 0.7504 -0.1863 0.273 -0.962 0.017 158 106 64 0 0
-0.7731 0.7478 -0.1867 -0.208 -0.823 0.529 155 104 66 0 0
-0.8043 1.5312 -0.2714 0.403 -0.457 0.793 202 184 161 0 0
-0.4310 1.6666 -0.3557 0.538 -0.334 0.774 195 179 164 0 0
-0.4220 1.6824 -0.3592 0.900 -0.237 0.365 197 181 166 0 0
-0.3995 1.7040 -0.3658 0.551 -0.563 0.616 198 184 169 0 0
-0.3949 1.7072 -0.3670 0.457 -0.567 0.685 201 187 173 0 0
-0.3905 1.7052 -0.3676 0.012 -0.533 0.846 200 186 173 0 0
-0.3859 1.7122 -0.3692 -0.002 -0.620 0.785 197 183 171 0 0
-0.3815 1.7125 -0.3701 0.471 -0.462 0.751 194 178 164 0 0
-0.3723 1.7202 -0.3727 0.569 -0.377 0.731 192 175 162 0 0
-0.3678 1.7234 -0.3739 0.290 -0.350 0.891 192 175 163 0 0
-0.3396 1.7551 -0.3827 0.414 -0.425 0.805 190 173 160 0 0
-0.3058 1.7212 -0.3850 -0.183 -0.786 0.591 187 169 155 0 0
-0.3015 1.7189 -0.3856 -0.382 -0.740 0.553 187 171 157 0 0
-0.2915 1.7378 -0.3896 0.303 -0.273 0.913 188 172 159 0 0
-0.2589 1.7587 -0.3980 0.264 -0.308 0.914 184 166 150 0 0
-0.2335 1.7444 -0.4010 0.084 -0.959 0.269 180 164 148 0 0
-0.2295 1.7403 -0.4013 -0.083 -0.913 0.399 188 173 157 0 0
-0.2248 1.7441 -0.4026 0.528 -0.818 -0.226 191 176 163 0 0
-0.2200 1.7476 -0.4038 0.140 -0.974 0.176 191 178 166 0 0
-0.0270 1.7866 -0.4439 0.737 -0.389 0.552 187 176 174 0 0
0.0231 1.8229 -0.4573 0.439 -0.236 0.867 187 177 172 0 0
0.0284 1.8280 -0.4589 0.427 -0.206 0.881 189 179 175 0 0
0.0334 1.8314 -0.4602 0.485 -0.225 0.845 187 176 173 0 0
0.0477 1.8372 -0.4635 0.131 -0.593 0.795 183 171 165 0 0
0.0523 1.8384 -0.4644 0.289 -0.644 0.708 185 172 167 0 0
0.0589 1.8493 -0.4669 0.506 -0.754 0.418 185 174 168 0 0
0.0656 1.8609 -0.4695 0.796 -0.605 -0.024 184 172 166 0 0
0.0797 1.8867 -0.4751 0.567 -0.823 -0.025 175 162 155 0 0
0.0872 1.8587 -0.4732 0.194 -0.947 -0.255 174 162 157 0 0
0.1050 1.8599 -0.4766 -0.272 -0.960 -0.061 188 179 177 0 0
0.1096 1.8610 -0.4776 -0.148 -0.969 0.197 190 183 181 0 0
0.1180 1.8593 -0.4789 0.401 -0.902 0.159 192 185 185 0 0
0.1230 1.8618 -0.4801 0.520 -0.848 -0.099 189 182 183 0 0
0.1754 1.8986 -0.4940 0.580 -0.368 0.727 191 186 185 0 0
0.1813 1.9047 -0.4958 0.622 -0.359 0.696 190 184 184 0 0
0.2418 1.9513 -0.5123 0.567 -0.437 0.698 190 184 186 0 0
0.2463 1.9516 -0.5132 0.401 -0.329 0.855 190 186 186 0 0
0.2514 1.9537 -0.5144 0.338 -0.371 0.865 188 183 185 0 0
0.2792 1.9744 -0.5219 0.444 -0.808 0.388 181 175 175 0 0
0.2955 1.9683 -0.5242 -0.008 -0.794 0.607 191 187 188 0 0
0.3785 2.0228 -0.5457 0.319 -0.182 0.930 185 179 182 0 0
0.4160 2.0420 -0.5549 0.881 -0.436 0.186 185 179 183 0 0
0.4441 2.0453 -0.5604 0.818 -0.562 0.118 184 179 185 0 0
0.4853 2.0880 -0.5729 0.260 -0.087 0.962 183 181 185 0 0
0.4906 2.0903 -0.5742 0.260 -0.087 0.962 188 186 191 0 0
0.5136 2.0909 -0.5785 0.415 -0.195 0.888 192 188 193 0 0
0.5210 2.0993 -0.5808 0.493 -0.239 0.836 191 188 193 0 0
0.5617 2.0989 -0.5882 0.550 -0.162 0.819 190 186 190 0 0
-1.9773 0.9960 0.0023 0.075 -0.395 0.915 190 170 140 0 0
-1.9662 0.9932 0.0006 -0.236 -0.668 0.706 195 177 150 0 0
-1.9487 0.9979 -0.0032 0.763 0.055 0.643 177 150 120 0 0
-1.9479 1.0019 -0.0038 0.816 -0.031 0.577 174 148 118 0 0
-1.9228 1.0129 -0.0097 0.187 -0.710 0.679 170 145 115 0 0
-1.8947 1.0416 -0.0182 0.835 -0.157 0.527 182 158 129 0 0
-1.8911 1.0425 -0.0190 0.172 -0.416 0.893 184 162 134 0 0
-1.8875 1.0434 -0.0198 -0.034 -0.537 0.843 185 164 136 0 0
-1.8818 1.0417 -0.0206 -0.154 -0.598 0.787 185 164 136 0 0
-1.8723 1.0353 -0.0216 0.512 -0.071 0.856 186 164 136 0 0
-1.8708 1.0388 -0.0223 0.329 -0.169 0.929 184 161 132 0 0
-1.8496 1.0669 -0.0295 0.490 -0.559 0.668 188 166 138 0 0
-1.8466 1.0686 -0.0302 0.490 -0.559 0.668 185 164 136 0 0
-1.7494 1.0892 -0.0505 0.416 -0.681 0.603 184 162 132 0 0
-1.7260 1.1303 -0.0596 0.104 -0.586 0.803 185 161 133 0 0
-1.5473 1.2235 -0.1034 0.523 -0.620 0.585 190 166 138 0 0
-1.5415 1.2209 -0.1041 0.358 -0.776 0.520 188 162 134 0 0
-1.3422 1.3057 -0.1507 0.698 -0.053 0.715 197 173 142 0 0
-0.9880 0.6650 -0.1405 0.299 -0.927 -0.228 143 91 32 0 0
-0.9855 0.6662 -0.1411 -0.263 -0.873 -0.411 141 90 32 0 0
-0.9747 0.6767 -0.1443 0.613 -0.723 -0.317 151 102 32 0 0
-0.9726 0.6871 -0.1459 -0.158 -0.987 -0.030 150 101 27 0 0
-0.9676 0.6816 -0.1462 0.517 -0.831 -0.207 154 104 23 0 0
-0.9649 0.6825 -0.1468 0.089 -0.959 -0.270 162 111 20 0 0
-0.9301 0.6503 -0.1494 0.299 -0.950 -0.088 196 154 41 0 0
-0.9184 0.6584 -0.1525 0.065 -0.352 -0.934 172 118 36 0 0
-0.9236 0.7097 -0.1575 -0.844 -0.479 0.244 141 95 33 0 0
-0.9173 0.6994 -0.1575 -0.797 -0.503 0.335 129 87 30 0 0
-0.9034 0.6836 -0.1582 -0.734 -0.552 0.395 119 79 23 0 0
-0.8860 0.6745 -0.1603 0.290 -0.947 0.141 127 86 29 0 0
-0.8627 0.7142 -0.1693 -0.006 -0.604 0.797 163 128 58 0 0
-0.8593 0.7129 -0.1697 -0.143 -0.700 0.700 169 135 66 0 0
-0.8199 0.6853 -0.1737 0.071 -0.936 0.344 178 143 55 0 0
-0.8038 0.7131 -0.1799 0.901 -0.403 0.158 200 169 68 0 0
-0.7831 0.7505 -0.1881 -0.286 -0.734 0.616 169 117 61 0 0
-0.7799 0.7491 -0.1886 0.288 -0.957 -0.023 159 105 62 0 0
-0.8370 1.5104 -0.2675 0.346 -0.270 0.899 203 183 157 0 0
-0.8150 1.5103 -0.2715 0.400 -0.264 0.877 206 188 163 0 0
-0.3916 1.6924 -0.3706 0.230 -0.339 0.912 197 182 167 0 0
-0.3153 1.7211 -0.3880 -0.369 -0.806 0.463 182 165 149 0 0
-0.3110 1.7195 -0.3886 -0.119 -0.761 0.637 183 165 150 0 0
-0.3066 1.7184 -0.3893 -0.255 -0.792 0.555 183 166 151 0 0
-0.3023 1.7165 -0.3898 -0.361 -0.703 0.612 185 168 153 0 0
-0.2342 1.7442 -0.4056 0.103 -0.968 0.227 180 163 145 0 0
-0.2124 1.7426 -0.4094 -0.447 -0.759 0.472 200 187 177 0 0
-0.0524 1.7670 -0.4416 0.403 -0.857 0.321 180 168 165 0 0
-0.0388 1.7712 -0.4446 0.317 -0.872 0.373 184 172 172 0 0
-0.0240 1.7817 -0.4486 0.823 -0.356 0.442 183 174 169 0 0
-0.0177 1.7932 -0.4511 0.823 -0.356 0.442 182 170 168 0 0
0.0439 1.8207 -0.4656 0.535 -0.449 0.715 186 174 170 0 0
0.0503 1.8311 -0.4680 0.561 -0.409 0.720 185 174 169 0 0
0.0558 1.8368 -0.4697 0.643 -0.408 0.648 185 173 168 0 0
0.0626 1.8489 -0.4724 0.800 -0.404 0.443 185 174 168 0 0
0.0693 1.8601 -0.4749 0.847 -0.383 0.369 184 172 166 0 0
0.1132 1.8598 -0.4830 -0.240 -0.957 0.163 187 178 176 0 0
0.1658 1.8790 -0.4949 0.646 -0.456 0.612 193 187 187 0 0
0.1714 1.8842 -0.4965 0.617 -0.453 0.644 194 189 188 0 0
0.1838 1.8992 -0.5005 0.654 -0.338 0.677 191 185 186 0 0
0.1902 1.9073 -0.5027 0.654 -0.338 0.677 188 182 183 0 0
0.2280 1.9344 -0.5128 0.161 -0.539 0.827 189 183 185 0 0
0.2326 1.9350 -0.5137 0.211 -0.597 0.774 191 186 186 0 0
0.2382 1.9394 -0.5152 0.509 -0.512 0.692 192 188 189 0 0
0.2431 1.9412 -0.5164 0.607 -0.449 0.656 193 189 190 0 0
0.2482 1.9437 -0.5176 0.418 -0.531 0.738 193 189 191 0 0
0.2948 1.9677 -0.5290 0.422 -0.710 0.564 191 187 188 0 0
0.3001 1.9709 -0.5303 0.355 -0.853 0.382 190 186 187 0 0
0.3050 1.9724 -0.5314 0.355 -0.853 0.382 187 182 182 0 0
0.3087 1.9697 -0.5317 -0.043 -0.812 0.582 186 180 180 0 0
0.3129 1.9688 -0.5324 0.064 -0.731 0.679 183 177 178 0 0
0.3999 2.0207 -0.5545 0.476 -0.381 0.793 175 169 170 0 0
0.4039 2.0191 -0.5550 0.746 -0.486 0.456 176 170 173 0 0
0.4096 2.0232 -0.5566 0.838 -0.464 0.287 180 174 176 0 0
0.4162 2.0299 -0.5586 0.590 -0.527 0.612 181 176 179 0 0
0.4226 2.0358 -0.5604 0.815 -0.571 0.097 183 178 181 0 0
0.4305 2.0466 -0.5631 0.824 -0.562 0.074 184 179 183 0 0
0.4382 2.0566 -0.5657 0.791 -0.589 0.164 184 180 182 0 0
0.4658 2.0578 -0.5709 0.296 -0.084 0.952 187 182 188 0 0
0.4710 2.0600 -0.5722 0.265 -0.079 0.961 183 179 184 0 0
0.5225 2.0276 -0.5778 0.303 -0.157 0.940 190 188 192 0 0
0.5405 2.0533 -0.5841 0.350 -0.120 0.929 190 188 193 0 0
0.5519 2.0728 -0.5885 0.508 -0.173 0.844 191 188 193 0 0
-1.9628 0.9879 -0.0033 -0.236 -0.668 0.706 192 175 146 0 0
-1.9117 1.0084 -0.0151 0.026 -0.576 0.817 182 157 127 0 0
-1.9103 1.0118 -0.0158 -0.280 -0.810 0.516 183 158 127 0 0
-1.9080 1.0142 -0.0165 0.270 -0.559 0.784 176 151 120 0 0
-1.8905 1.0402 -0.0228 0.136 -0.392 0.910 182 159 132 0 0
-1.8772 1.0292 -0.0239 -0.164 -0.419 0.893 181 160 133 0 0
-1.8686 1.0238 -0.0249 -0.164 -0.419 0.893 181 157 131 0 0
-1.8597 1.0181 -0.0258 -0.158 -0.376 0.913 183 161 134 0 0
-1.8289 1.0441 -0.0346 -0.138 -0.494 0.858 188 166 137 0 0
-1.6081 1.2049 -0.0942 0.301 -0.220 0.928 180 157 126 0 0
-1.4814 1.2542 -0.1233 0.888 0.154 0.433 193 170 144 0 0
-1.3610 1.2578 -0.1458 0.333 -0.174 0.927 198 174 147 0 0
-1.3433 1.2761 -0.1512 0.817 0.047 0.574 197 173 143 0 0
-1.3389 1.2959 -0.1544 0.537 -0.127 0.834 197 173 144 0 0
-1.3366 1.3005 -0.1554 0.371 -0.165 0.914 197 173 142 0 0
-0.9720 0.6837 -0.1486 0.246 -0.875 0.417 150 101 27 0 0
-0.9679 0.6806 -0.1489 0.550 -0.813 0.191 150 102 25 0 0
-0.9652 0.6813 -0.1495 0.354 -0.927 0.122 154 104 21 0 0
-0.9407 0.6620 -0.1517 -0.408 -0.897 -0.170 192 150 35 0 0
-0.9368 0.6592 -0.1521 -0.590 -0.776 0.222 194 152 37 0 0
-0.9175 0.6978 -0.1602 -0.811 -0.508 0.289 129 88 27 0 0
-0.8888 0.6720 -0.1624 0.313 -0.860 -0.403 125 85 25 0 0
-0.8832 0.6727 -0.1635 0.094 -0.939 -0.331 131 89 29 0 0
-0.8788 0.6676 -0.1637 -0.271 -0.708 0.652 133 92 32 0 0
-0.8703 0.6586 -0.1642 -0.059 -0.955 0.290 135 94 34 0 0
-0.8620 0.6693 -0.1670 0.098 -0.206 0.974 143 100 36 0 0
-0.8477 0.7005 -0.1733 -0.653 -0.475 0.589 166 134 62 0 0
-0.8440 0.6975 -0.1737 -0.320 -0.382 0.867 164 130 56 0 0
-0.8327 0.6880 -0.1746 0.533 -0.541 0.650 168 135 53 0 0
-0.7830 0.7472 -0.1908 -0.153 -0.853 0.499 163 110 63 0 0
-0.7808 0.7506 -0.1916 0.523 -0.637 -0.566 154 101 60 0 0
-0.7783 0.7525 -0.1923 0.523 -0.713 -0.467 153 99 62 0 0
-0.8324 1.5044 -0.2721 -0.273 -0.509 0.816 202 182 155 0 0
-0.8280 1.5044 -0.2729 0.109 -0.388 0.915 203 183 157 0 0
-0.8235 1.5036 -0.2736 0.218 -0.348 0.912 202 181 154 0 0
-0.8187 1.5006 -0.2742 0.340 -0.397 0.853 200 179 151 0 0
-0.8144 1.5014 -0.2750 0.442 -0.319 0.839 200 180 153 0 0
-0.3655 1.7016 -0.3812 0.109 -0.433 0.895 195 181 167 0 0
-0.3288 1.7299 -0.3913 -0.599 -0.697 0.395 179 162 146 0 0
-0.3246 1.7261 -0.3916 -0.599 -0.697 0.395 177 160 144 0 0
-0.3206 1.7181 -0.3914 -0.254 -0.955 0.152 178 161 145 0 0
-0.2989 1.7118 -0.3946 -0.002 -0.444 0.896 186 168 154 0 0
-0.2352 1.7407 -0.4097 0.415 -0.485 0.769 185 167 152 0 0
-0.0654 1.7713 -0.4445 0.506 -0.581 0.637 170 155 148 0 0
-0.0059 1.7895 -0.4576 -0.055 -0.532 0.845 186 175 170 0 0
0.0289 1.7907 -0.4641 0.286 -0.421 0.861 190 179 175 0 0
0.0319 1.7837 -0.4638 0.258 -0.463 0.848 191 182 177 0 0
0.0929 1.8704 -0.4853 0.531 -0.616 0.582 177 164 157 0 0
0.1386 1.8583 -0.4923 0.779 -0.603 0.169 184 177 176 0 0
0.1446 1.8657 -0.4943 0.758 -0.592 0.273 185 178 177 0 0
0.1545 1.8706 -0.4967 0.320 -0.390 0.864 187 179 179 0 0
0.1593 1.8724 -0.4977 0.331 -0.430 0.840 189 184 184 0 0
0.1719 1.8701 -0.4998 0.338 -0.367 0.866 192 187 187 0 0
0.1781 1.8776 -0.5018 0.481 -0.373 0.794 191 186 185 0 0
0.2012 1.9180 -0.5109 0.794 -0.301 0.528 191 186 188 0 0
0.2308 1.9302 -0.5178 0.366 -0.419 0.831 187 181 183 0 0
0.2356 1.9316 -0.5188 0.447 -0.371 0.814 189 183 184 0 0
0.2454 1.9348 -0.5210 0.442 -0.434 0.785 190 186 187 0 0
0.2704 1.9455 -0.5268 0.380 -0.288 0.879 188 183 184 0 0
0.2760 1.9498 -0.5284 0.500 -0.335 0.798 189 185 185 0 0
0.2986 1.9671 -0.5346 0.372 -0.841 0.393 188 183 183 0 0
0.3035 1.9688 -0.5357 0.372 -0.841 0.393 183 177 175 0 0
0.3192 1.9613 -0.5376 0.318 -0.232 0.919 179 173 173 0 0
0.3405 1.9738 -0.5431 0.603 -0.308 0.736 185 179 179 0 0
0.3434 1.9684 -0.5429 0.305 -0.217 0.927 187 181 183 0 0
0.3484 1.9704 -0.5441 0.305 -0.217 0.927 187 182 184 0 0
0.3832 1.9973 -0.5537 0.389 -0.439 0.810 177 171 172 0 0
0.3896 2.0035 -0.5556 0.561 -0.471 0.681 176 170 172 0 0
0.4007 2.0104 -0.5585 0.787 -0.432 0.440 176 171 173 0 0
0.4088 2.0222 -0.5613 0.758 -0.373 0.536 177 171 173 0 0
0.4561 2.0435 -0.5725 -0.010 -0.029 1.000 187 184 187 0 0
0.5145 2.0063 -0.5788 0.224 -0.139 0.965 191 187 192 0 0
-2.0070 0.9638 0.0038 0.449 0.017 0.893 192 172 145 0 0
-2.0008 0.9617 0.0029 0.474 0.040 0.879 195 177 150 0 0
-1.9597 0.9780 -0.0066 -0.212 -0.675 0.706 187 167 137 0 0
-1.9601 0.9833 -0.0071 -0.355 -0.828 0.434 187 166 137 0 0
-1.9447 0.9755 -0.0090 0.452 -0.374 0.810 183 160 132 0 0
-1.9417 0.9769 -0.0097 0.364 -0.419 0.832 175 150 121 0 0
-1.9387 0.9883 -0.0117 0.524 -0.053 0.850 165 140 107 0 0
-1.8821 1.0126 -0.0250 0.167 -0.524 0.835 182 160 131 0 0
-1.8390 1.0389 -0.0361 0.234 -0.236 0.943 187 164 137 0 0
-1.8358 1.0404 -0.0368 0.050 -0.324 0.945 187 165 137 0 0
-1.8245 1.0369 -0.0384 0.070 -0.274 0.959 188 167 138 0 0
-1.6116 1.1234 -0.0879 0.360 -0.883 0.301 187 166 137 0 0
-1.6071 1.1866 -0.0964 -0.121 -0.397 0.910 183 160 128 0 0
-1.6007 1.1831 -0.0971 -0.036 -0.401 0.915 183 161 130 0 0
-1.6034 1.1950 -0.0981 0.301 -0.220 0.928 187 165 136 0 0
-1.5917 1.2050 -0.1014 0.139 -0.324 0.936 193 172 143 0 0
-1.3350 1.2846 -0.1580 0.488 -0.274 0.829 200 176 149 0 0
-1.3344 1.2932 -0.1592 0.462 -0.156 0.873 200 175 147 0 0
-1.0012 0.6649 -0.1439 0.108 -0.680 -0.725 151 103 37 0 0
-0.9733 0.6854 -0.1515 0.016 -0.823 -0.568 149 100 28 0 0
-0.9698 0.6839 -0.1519 -0.045 -0.999 -0.025 140 93 23 0 0
-0.9669 0.6843 -0.1525 0.080 -0.985 0.151 140 93 22 0 0
-0.9639 0.6840 -0.1530 -0.007 -0.986 -0.169 148 100 22 0 0
-0.9374 0.6590 -0.1548 -0.693 -0.654 -0.302 193 151 37 0 0
-0.8878 0.6670 -0.1649 0.137 -0.428 0.894 137 98 29 0 0
-0.8780 0.6629 -0.1662 -0.375 -0.815 0.442 143 98 33 0 0
-0.8740 0.6595 -0.1665 -0.486 -0.840 -0.240 144 100 37 0 0
-0.8521 0.7036 -0.1758 -0.715 -0.476 0.512 165 130 59 0 0
-0.8473 0.6968 -0.1759 -0.653 -0.475 0.589 166 132 61 0 0
-0.8427 0.6907 -0.1760 -0.619 -0.475 0.626 168 134 62 0 0
-0.8336 0.6889 -0.1774 0.749 -0.649 -0.131 174 138 57 0 0
-0.8117 0.6933 -0.1820 0.515 -0.606 -0.606 198 165 61 0 0
-0.8005 0.7068 -0.1857 0.918 -0.396 0.009 194 157 55 0 0
-0.7861 0.7453 -0.1930 0.011 -0.901 0.433 168 114 62 0 0
-0.7737 0.8745 -0.2109 -0.397 -0.889 0.229 194 169 120 0 0
-0.8276 1.4967 -0.2765 -0.250 -0.563 0.787 198 176 148 0 0
-0.8182 1.4927 -0.2778 0.295 -0.475 0.829 196 175 146 0 0
-0.8138 1.4924 -0.2785 0.652 -0.394 0.648 193 172 143 0 0
-0.4155 1.6692 -0.3728 0.455 -0.400 0.796 200 184 170 0 0
-0.3664 1.6951 -0.3849 0.063 -0.689 0.722 202 188 176 0 0
-0.2090 1.7456 -0.4199 -0.006 -0.494 0.869 193 177 163 0 0
-0.1736 1.7106 -0.4221 0.401 -0.833 0.381 194 180 171 0 0
-0.1690 1.7129 -0.4232 -0.023 -0.891 0.454 197 184 175 0 0
-0.1650 1.7101 -0.4236 -0.015 -0.996 0.084 202 190 182 0 0
-0.1609 1.7086 -0.4242 -0.459 -0.817 0.348 205 195 187 0 0
-0.1495 1.6967 -0.4248 0.876 -0.454 -0.161 191 178 170 0 0
-0.0715 1.7636 -0.4472 0.440 -0.541 0.717 173 156 151 0 0
-0.0668 1.7659 -0.4483 0.506 -0.581 0.637 169 152 145 0 0
-0.0541 1.7642 -0.4505 0.318 -0.939 0.129 171 156 150 0 0
0.0001 1.7782 -0.4621 -0.285 -0.953 0.104 188 178 172 0 0
0.1197 1.8745 -0.4956 0.641 -0.490 0.590 182 174 171 0 0
0.1227 1.8680 -0.4954 0.769 -0.431 0.472 187 179 177 0 0
0.1426 1.8591 -0.4979 0.572 -0.497 0.653 188 181 179 0 0
0.1563 1.8618 -0.5008 0.143 -0.332 0.933 192 186 187 0 0
0.2663 1.9321 -0.5294 0.409 -0.293 0.864 193 189 190 0 0
0.3240 1.9489 -0.5420 0.339 -0.291 0.895 182 176 177 0 0
0.3302 1.9553 -0.5439 0.638 -0.367 0.677 185 179 180 0 0
0.3356 1.9588 -0.5453 0.603 -0.308 0.736 187 182 183 0 0
0.3626 1.9751 -0.5522 0.516 -0.399 0.758 186 180 182 0 0
0.3684 1.9795 -0.5538 0.516 -0.399 0.758 187 181 183 0 0
0.3746 1.9851 -0.5556 0.574 -0.434 0.694 185 179 181 0 0
0.3806 1.9904 -0.5574 0.570 -0.431 0.699 182 175 177 0 0
0.3866 1.9953 -0.5591 0.566 -0.516 0.643 181 173 176 0 0
0.3929 2.0013 -0.5609 0.577 -0.415 0.703 180 174 176 0 0
0.3964 1.9981 -0.5612 0.660 -0.339 0.670 179 173 175 0 0
0.3979 1.9889 -0.5604 0.300 -0.307 0.903 181 175 176 0 0
0.4193 2.0143 -0.5674 0.393 -0.207 0.896 181 175 178 0 0
0.4320 2.0260 -0.5711 0.391 -0.191 0.900 178 173 176 0 0
0.4944 2.0388 -0.5841 0.639 -0.364 0.677 185 180 184 0 0
0.4965 2.0319 -0.5836 0.152 -0.144 0.978 185 180 184 0 0
0.5058 1.9951 -0.5808 0.068 -0.152 0.986 185 182 187 0 0
0.5107 1.9967 -0.5819 0.028 -0.148 0.989 185 180 186 0 0
-1.9901 0.9533 -0.0019 0.725 -0.065 0.686 196 179 152 0 0
-1.9553 0.9666 -0.0099 0.357 -0.208 0.911 182 158 129 0 0
-1.9586 0.9753 -0.0103 -0.265 -0.685 0.679 181 158 128 0 0
-1.9577 0.9790 -0.0110 -0.205 -0.720 0.663 180 156 126 0 0
-1.9412 0.9700 -0.0129 0.258 -0.401 0.879 171 147 116 0 0
-1.9385 0.9717 -0.0136 0.180 -0.417 0.891 171 146 116 0 0
-1.9371 0.9750 -0.0142 0.451 -0.115 0.885 174 147 118 0 0
-1.9337 0.9760 -0.0150 0.458 -0.078 0.886 174 148 119 0 0
-1.9236 0.9742 -0.0166 0.195 -0.212 0.958 181 156 127 0 0
-1.8954 1.0063 -0.0257 0.476 -0.336 0.813 165 138 110 0 0
-1.8865 1.0216 -0.0292 0.741 -0.373 0.558 187 164 136 0 0
-1.8739 1.0166 -0.0309 -0.002 -0.830 0.558 182 158 132 0 0
-1.8598 1.0046 -0.0320 -0.129 -0.801 0.584 182 158 131 0 0
-1.8552 1.0041 -0.0328 0.139 -0.731 0.668 180 156 128 0 0
-1.8510 1.0042 -0.0335 0.139 -0.731 0.668 179 155 128 0 0
-1.8479 1.0056 -0.0343 0.303 -0.646 0.700 181 158 127 0 0
-1.8377 1.0358 -0.0398 0.136 -0.277 0.951 187 163 135 0 0
-1.8331 1.0354 -0.0406 0.136 -0.277 0.951 184 161 131 0 0
-1.8073 1.0407 -0.0460 -0.443 -0.788 0.427 186 162 135 0 0
-1.7981 1.0342 -0.0469 -0.200 -0.873 0.445 185 164 134 0 0
-1.6861 1.1046 -0.0760 0.098 -0.460 0.883 183 160 130 0 0
-1.6066 1.1766 -0.0994 -0.023 -0.360 0.933 179 156 124 0 0
-1.6032 1.1781 -0.1002 -0.116 -0.367 0.923 184 161 131 0 0
-1.5955 1.1726 -0.1009 -0.210 -0.454 0.866 191 171 142 0 0
-1.5961 1.1809 -0.1018 0.354 -0.301 0.886 196 176 148 0 0
-1.5954 1.1870 -0.1027 0.674 -0.083 0.734 202 183 158 0 0
-1.5845 1.1908 -0.1052 0.113 -0.468 0.877 191 170 142 0 0
-1.5846 1.1983 -0.1061 -0.268 -0.530 0.805 190 168 141 0 0
-1.5701 1.1961 -0.1084 0.545 -0.463 0.699 206 187 163 0 0
-1.5444 1.2201 -0.1161 0.145 -0.851 0.505 178 152 124 0 0
-1.3327 1.2769 -0.1617 0.554 -0.377 0.743 201 179 152 0 0
-1.3137 1.2631 -0.1635 -0.478 -0.535 0.697 202 179 151 0 0
-0.9708 0.6850 -0.1548 -0.178 -0.956 -0.232 142 94 25 0 0
-0.9679 0.6850 -0.1554 -0.563 -0.822 -0.083 131 86 18 0 0
-0.9639 0.6823 -0.1558 -0.563 -0.822 -0.083 133 91 20 0 0
-0.9470 0.6762 -0.1581 0.187 -0.662 -0.726 188 142 27 0 0
-0.9256 0.7097 -0.1661 -0.863 -0.488 0.127 187 143 35 0 0
-0.8813 0.6624 -0.1684 -0.157 -0.676 0.720 161 120 38 0 0
-0.8773 0.6587 -0.1687 -0.278 -0.813 -0.512 165 120 41 0 0
-0.8410 0.6928 -0.1795 -0.487 -0.766 0.419 166 129 54 0 0
-0.8372 0.6894 -0.1798 -0.279 -0.776 0.565 168 132 51 0 0
-0.8347 0.6909 -0.1804 0.757 -0.546 -0.358 176 139 51 0 0
-0.8276 0.6967 -0.1824 0.665 -0.306 -0.681 193 155 53 0 0
-0.8040 0.6833 -0.1851 0.138 -0.921 -0.364 194 157 56 0 0
-0.8011 0.7065 -0.1885 0.779 -0.519 0.352 192 153 52 0 0
-0.7896 0.7446 -0.1953 -0.143 -0.771 0.620 170 117 56 0 0
-0.8266 1.4859 -0.2799 -0.267 -0.346 0.900 197 177 147 0 0
-0.4164 1.6616 -0.3764 0.422 -0.559 0.714 198 181 167 0 0
-0.1747 1.7067 -0.4261 0.297 -0.648 0.701 195 181 171 0 0
-0.1703 1.7077 -0.4270 0.300 -0.742 0.599 198 185 176 0 0
-0.1658 1.7089 -0.4280 0.081 -0.964 0.254 201 188 180 0 0
-0.1072 1.7302 -0.4413 -0.294 -0.776 0.558 190 176 168 0 0
-0.0732 1.7559 -0.4506 0.107 -0.399 0.911 171 155 149 0 0
0.0237 1.7695 -0.4700 -0.169 -0.520 0.837 187 177 173 0 0
0.0274 1.7662 -0.4703 -0.191 -0.552 0.812 192 182 179 0 0
0.1192 1.8546 -0.4979 0.793 -0.363 0.489 185 177 175 0 0
0.1528 1.8490 -0.5034 0.148 -0.228 0.962 193 189 188 0 0
0.1936 1.8917 -0.5161 0.802 -0.357 0.479 188 182 183 0 0
0.2978 1.9521 -0.5425 0.385 -0.589 0.710 183 177 177 0 0
0.3276 1.9481 -0.5475 0.618 -0.440 0.651 186 180 181 0 0
0.3318 1.9472 -0.5481 0.676 -0.377 0.633 188 183 185 0 0
0.3523 1.9569 -0.5531 0.647 -0.470 0.600 189 183 185 0 0
0.3586 1.9631 -0.5550 0.647 -0.470 0.600 188 182 184 0 0
0.3647 1.9689 -0.5568 0.718 -0.494 0.491 190 184 186 0 0
0.3715 1.9766 -0.5590 0.718 -0.494 0.491 189 184 185 0 0
0.3771 1.9804 -0.5605 0.563 -0.412 0.716 188 182 183 0 0
0.3831 1.9857 -0.5623 0.340 -0.286 0.896 186 180 182 0 0
0.3918 1.9850 -0.5638 0.411 -0.277 0.869 188 183 185 0 0
0.3960 1.9843 -0.5644 0.254 -0.235 0.938 190 185 186 0 0
0.4008 1.9854 -0.5655 0.254 -0.235 0.938 192 187 189 0 0
0.4082 1.9949 -0.5680 0.384 -0.240 0.892 191 185 188 0 0
0.4138 1.9984 -0.5694 0.384 -0.240 0.892 188 182 185 0 0
0.4178 1.9972 -0.5700 0.713 -0.452 0.537 185 179 183 0 0
0.4522 1.9941 -0.5759 0.077 -0.100 0.992 184 179 183 0 0
0.4599 2.0038 -0.5785 0.750 -0.444 0.490 186 181 185 0 0
0.4929 2.0227 -0.5869 0.472 -0.607 0.639 185 181 183 0 0
0.5022 1.9861 -0.5840 -0.356 -0.934 0.035 180 174 176 0 0
0.5082 1.9909 -0.5857 -0.531 -0.645 0.550 180 173 177 0 0
0.5228 1.9949 -0.5889 0.290 -0.156 0.944 178 172 178 0 0
-1.9916 0.9442 -0.0043 0.238 -0.413 0.879 195 176 147 0 0
-1.9883 0.9452 -0.0050 0.089 -0.513 0.854 196 178 151 0 0
-1.9845 0.9458 -0.0058 0.203 -0.564 0.800 196 179 150 0 0
-1.9814 0.9469 -0.0065 0.177 -0.975 0.135 194 175 148 0 0
-1.9782 0.9481 -0.0072 -0.146 -0.989 -0.000 191 171 144 0 0
-1.9510 0.9603 -0.0137 0.424 -0.662 0.618 180 156 128 0 0
-1.9534 0.9679 -0.0142 -0.178 -0.683 0.708 181 157 128 0 0
-1.9539 0.9733 -0.0148 -0.227 -0.683 0.694 178 154 125 0 0
-1.9342 0.9654 -0.0174 0.180 -0.417 0.891 177 153 122 0 0
-1.9288 0.9690 -0.0188 0.506 -0.069 0.860 185 160 132 0 0
-1.8569 0.9994 -0.0358 0.245 -0.555 0.795 181 158 130 0 0
-1.8539 1.0010 -0.0365 0.139 -0.731 0.668 181 158 131 0 0
-1.8497 1.0010 -0.0373 0.139 -0.731 0.668 183 158 129 0 0
-1.8483 1.0045 -0.0380 0.264 -0.540 0.799 182 158 129 0 0
-1.8310 1.0257 -0.0438 0.136 -0.277 0.951 186 164 135 0 0
-1.6097 1.1168 -0.0955 -0.022 -0.810 0.586 195 176 148 0 0
-1.6020 1.1670 -0.1032 0.028 -0.344 0.939 178 154 123 0 0
-1.5975 1.1669 -0.1040 -0.116 -0.367 0.923 181 158 127 0 0
-1.5911 1.1633 -0.1047 -0.210 -0.454 0.866 190 168 139 0 0
-1.4689 1.2238 -0.1345 -0.225 -0.927 0.299 198 176 151 0 0
-1.3377 1.2469 -0.1613 0.924 -0.118 0.364 191 166 136 0 0
-1.3364 1.2536 -0.1624 0.924 -0.118 0.364 199 176 148 0 0
-1.0435 0.6844 -0.1445 -0.375 -0.905 0.202 170 126 67 0 0
-1.0057 0.6577 -0.1480 0.292 -0.903 -0.316 153 105 42 0 0
-0.8771 0.6654 -0.1724 -0.212 -0.489 -0.846 180 139 36 0 0
-0.8440 0.6907 -0.1816 -0.088 -0.982 0.164 170 132 47 0 0
-0.8404 0.6881 -0.1819 -0.197 -0.980 0.013 173 136 47 0 0
-0.8379 0.6896 -0.1826 0.130 -0.973 -0.189 180 142 48 0 0
-0.8298 0.6917 -0.1843 0.886 -0.226 -0.406 193 153 49 0 0
-0.8223 0.6854 -0.1849 -0.545 -0.776 -0.318 194 157 53 0 0
-0.8214 0.6928 -0.1860 0.321 -0.610 -0.725 195 159 54 0 0
-0.8189 0.6943 -0.1866 0.514 -0.553 -0.656 195 159 55 0 0
-0.7892 0.7403 -0.1978 -0.158 -0.624 0.765 168 111 59 0 0
-0.7802 0.8385 -0.2117 0.946 0.122 0.301 162 143 85 0 0
-0.6131 1.5355 -0.3294 -0.307 -0.911 0.275 189 168 148 0 0
-0.5082 1.5909 -0.3555 0.747 -0.333 0.576 193 176 160 0 0
-0.5039 1.5944 -0.3567 0.631 -0.412 0.657 189 172 154 0 0
-0.4172 1.6565 -0.3803 0.311 -0.544 0.780 195 179 164 0 0
-0.4128 1.6560 -0.3810 0.232 -0.448 0.863 199 182 167 0 0
-0.4084 1.6563 -0.3818 0.293 -0.642 0.708 201 187 173 0 0
-0.3998 1.6506 -0.3827 -0.255 -0.539 0.803 200 185 171 0 0
-0.3956 1.6460 -0.3829 -0.335 -0.698 0.632 201 186 173 0 0
-0.2824 1.6647 -0.4058 0.240 -0.636 0.734 191 176 161 0 0
-0.1595 1.6948 -0.4320 0.008 -0.768 0.641 198 184 177 0 0
-0.1115 1.7342 -0.4457 -0.532 -0.785 0.317 190 177 168 0 0
-0.1086 1.7245 -0.4450 0.127 -0.976 0.178 188 174 165 0 0
-0.0636 1.7390 -0.4550 0.238 -0.443 0.864 173 159 154 0 0
0.0048 1.7629 -0.4705 0.709 -0.375 0.597 174 162 156 0 0
0.0225 1.7659 -0.4740 0.084 -0.444 0.892 188 178 174 0 0
0.0266 1.7652 -0.4747 0.001 -0.429 0.903 192 182 180 0 0
0.1489 1.8346 -0.5057 0.364 -0.244 0.899 192 188 186 0 0
0.2549 1.9102 -0.5345 0.353 -0.300 0.886 180 172 173 0 0
0.3112 1.9387 -0.5483 0.123 -0.825 0.552 182 173 176 0 0
0.3150 1.9366 -0.5487 0.516 -0.736 0.438 182 173 176 0 0
0.3249 1.9404 -0.5510 0.380 -0.520 0.765 183 177 179 0 0
0.3348 1.9441 -0.5532 0.624 -0.397 0.673 187 181 183 0 0
0.3495 1.9492 -0.5566 0.638 -0.364 0.678 185 179 181 0 0
0.3555 1.9547 -0.5584 0.647 -0.470 0.600 183 177 180 0 0
0.3601 1.9553 -0.5593 0.742 -0.660 0.114 183 177 179 0 0
0.3663 1.9610 -0.5611 0.787 -0.582 0.203 187 180 182 0 0
0.3791 1.9740 -0.5651 0.360 -0.285 0.888 189 183 185 0 0
0.3840 1.9755 -0.5661 0.240 -0.181 0.954 189 185 186 0 0
0.3873 1.9722 -0.5663 0.308 -0.229 0.923 192 187 190 0 0
0.3904 1.9677 -0.5663 0.240 -0.347 0.906 196 191 192 0 0
0.3952 1.9689 -0.5674 0.105 -0.308 0.946 197 193 196 0 0
0.4008 1.9730 -0.5689 0.377 -0.403 0.834 195 190 193 0 0
0.4082 1.9823 -0.5714 0.482 -0.374 0.792 190 185 187 0 0
0.4144 1.9880 -0.5732 0.713 -0.452 0.537 188 183 185 0 0
0.4570 1.9966 -0.5821 -0.495 -0.540 0.681 180 174 176 0 0
0.4958 2.0069 -0.5904 -0.098 -0.738 0.668 179 175 175 0 0
0.5165 1.9907 -0.5922 -0.595 -0.429 0.679 170 164 163 0 0
-1.9893 0.9403 -0.0081 -0.064 -0.909 0.413 191 171 142 0 0
-1.9845 0.9396 -0.0089 -0.240 -0.929 0.281 191 172 142 0 0
-1.9818 0.9414 -0.0096 0.433 -0.656 0.618 190 170 139 0 0
-1.9780 0.9418 -0.0103 0.111 -0.975 -0.194 189 168 139 0 0
-1.9768 0.9452 -0.0110 -0.151 -0.890 -0.431 187 166 136 0 0
-1.9491 0.9616 -0.0181 -0.027 -0.514 0.857 180 157 128 0 0
-1.8689 1.0022 -0.0378 -0.301 -0.895 0.329 185 164 137 0 0
-1.8599 0.9964 -0.0387 -0.182 -0.976 0.116 184 161 134 0 0
-1.8560 0.9968 -0.0395 -0.274 -0.865 0.421 181 159 131 0 0
-1.8498 0.9944 -0.0403 0.320 -0.540 0.778 183 161 133 0 0
-1.8340 0.9957 -0.0434 0.394 -0.427 0.814 188 166 137 0 0
-1.8147 1.0033 -0.0478 -0.115 -0.939 -0.323 186 165 137 0 0
-1.7954 1.0220 -0.0537 0.052 -0.465 0.884 188 167 138 0 0
-1.7875 1.0227 -0.0552 0.148 -0.548 0.823 180 157 125 0 0
-1.7840 1.0236 -0.0560 0.606 -0.426 0.671 179 155 124 0 0
-1.7713 1.0463 -0.0612 0.718 -0.634 -0.287 186 165 134 0 0
-1.7558 1.0778 -0.0680 0.790 -0.611 -0.039 180 155 124 0 0
-1.7500 1.0816 -0.0696 0.658 -0.605 0.447 179 155 125 0 0
-1.6745 1.0965 -0.0852 0.353 -0.453 0.818 188 167 138 0 0
-1.6343 1.1268 -0.0963 0.103 -0.668 0.737 190 169 139 0 0
-1.6096 1.1147 -0.0993 -0.095 -0.795 0.599 199 181 154 0 0
-1.3375 1.2346 -0.1640 0.867 -0.103 0.488 196 174 145 0 0
-1.3363 1.2414 -0.1651 0.853 -0.121 0.509 189 165 134 0 0
-1.3347 1.2475 -0.1661 0.867 -0.103 0.488 197 173 143 0 0
-1.3334 1.2541 -0.1672 0.876 -0.090 0.474 206 187 161 0 0
-1.3305 1.2574 -0.1681 0.461 -0.303 0.834 207 189 163 0 0
-1.0654 0.6911 -0.1443 0.460 -0.601 -0.654 198 174 144 0 0
-1.0039 0.6590 -0.1514 0.091 -0.980 -0.179 153 105 44 0 0
-1.0016 0.6606 -0.1520 0.058 -0.990 -0.130 150 104 41 0 0
-0.9985 0.6603 -0.1526 0.092 -0.988 -0.121 147 102 39 0 0
-0.9957 0.6606 -0.1531 0.092 -0.988 -0.121 142 99 38 0 0
-0.9786 0.6623 -0.1564 0.152 -0.983 0.103 131 87 32 0 0
-0.9711 0.6658 -0.1583 0.235 -0.925 -0.299 162 113 45 0 0
-0.9636 0.6695 -0.1601 0.442 -0.814 -0.376 139 95 26 0 0
-0.9007 0.6472 -0.1687 -0.688 -0.344 0.640 195 153 36 0 0
-0.8663 0.6096 -0.1702 0.591 -0.389 0.706 188 145 36 0 0
-0.8472 0.6896 -0.1838 -0.303 -0.890 0.340 186 144 41 0 0
-0.8032 0.6750 -0.1899 -0.372 -0.856 0.360 191 149 46 0 0
-0.8037 0.6888 -0.1916 -0.598 -0.773 -0.211 190 147 46 0 0
-0.8026 0.6958 -0.1927 -0.302 -0.746 0.594 188 146 46 0 0
-0.8067 1.4332 -0.2857 -0.402 -0.216 0.890 210 193 170 0 0
-0.4268 1.6442 -0.3816 0.795 -0.247 0.555 196 179 163 0 0
-0.4224 1.6424 -0.3822 0.744 -0.274 0.609 198 182 166 0 0
-0.4180 1.6480 -0.3837 0.437 -0.438 0.786 195 179 164 0 0
-0.4135 1.6540 -0.3853 0.072 -0.779 0.623 194 177 162 0 0
-0.4092 1.6531 -0.3859 0.035 -0.798 0.602 192 176 161 0 0
-0.4049 1.6490 -0.3862 -0.465 -0.692 0.552 194 178 163 0 0
-0.4006 1.6459 -0.3866 -0.465 -0.692 0.552 195 178 163 0 0
-0.3964 1.6429 -0.3870 -0.532 -0.759 0.376 193 176 160 0 0
-0.3521 1.6666 -0.3980 0.084 -0.987 0.134 194 179 166 0 0
-0.3479 1.6633 -0.3984 0.554 -0.371 0.745 197 182 169 0 0
-0.3438 1.6587 -0.3985 0.812 -0.268 0.518 196 182 169 0 0
-0.3393 1.6622 -0.3998 0.263 -0.143 0.954 196 182 169 0 0
-0.2838 1.6543 -0.4089 -0.007 -0.961 -0.278 195 181 168 0 0
-0.2696 1.6715 -0.4136 0.750 -0.566 0.343 191 177 161 0 0
-0.1939 1.6997 -0.4310 0.105 -0.376 0.921 177 159 144 0 0
-0.1813 1.6969 -0.4329 0.411 -0.573 0.709 177 159 145 0 0
-0.1135 1.7243 -0.4487 -0.485 -0.724 0.491 188 174 165 0 0
-0.1096 1.7213 -0.4491 -0.484 -0.387 0.785 185 171 162 0 0
-0.0690 1.7350 -0.4582 0.570 -0.244 0.785 193 184 180 0 0
0.0085 1.7628 -0.4758 0.501 -0.482 0.719 175 162 156 0 0
0.0207 1.7595 -0.4776 -0.064 -0.551 0.832 189 179 175 0 0
0.1168 1.8097 -0.5015 0.416 -0.347 0.841 184 176 174 0 0
0.1217 1.8125 -0.5027 0.416 -0.347 0.841 184 179 176 0 0
0.1646 1.8303 -0.5128 0.607 -0.536 0.586 185 179 179 0 0
0.3068 1.9251 -0.5507 0.325 -0.476 0.817 180 172 172 0 0
0.3113 1.9253 -0.5515 0.557 -0.516 0.651 178 169 170 0 0
0.3160 1.9265 -0.5525 0.453 -0.534 0.714 177 171 172 0 0
0.3322 1.9371 -0.5568 0.353 -0.751 0.557 186 180 182 0 0
0.3364 1.9365 -0.5575 0.029 -0.851 0.524 188 182 184 0 0
0.3401 1.9340 -0.5579 0.331 -0.943 0.012 187 182 184 0 0
0.3462 1.9399 -0.5597 0.734 -0.627 0.261 187 181 183 0 0
0.3519 1.9441 -0.5613 0.728 -0.599 0.334 182 176 178 0 0
0.3584 1.9513 -0.5634 0.753 -0.630 0.191 181 174 175 0 0
0.3647 1.9574 -0.5653 0.787 -0.582 0.203 183 175 176 0 0
0.3695 1.9587 -0.5663 0.528 -0.366 0.766 186 181 182 0 0
0.3745 1.9606 -0.5675 0.360 -0.285 0.888 190 186 187 0 0
0.3871 1.9588 -0.5696 0.182 -0.407 0.895 197 191 194 0 0
0.3930 1.9634 -0.5712 0.105 -0.576 0.811 197 193 196 0 0
0.3974 1.9637 -0.5721 0.166 -0.498 0.851 194 189 191 0 0
0.4041 1.9710 -0.5742 0.461 -0.451 0.764 189 184 185 0 0
0.4551 1.9923 -0.5862 -0.403 -0.343 0.848 176 167 168 0 0
0.5172 1.9819 -0.5962 0.222 -0.427 0.876 168 161 159 0 0
-1.9835 0.9325 -0.0120 -0.376 -0.754 0.538 183 160 129 0 0
-1.9745 0.9273 -0.0129 -0.396 -0.733 0.552 185 161 130 0 0
-1.9810 0.9390 -0.0133 0.434 -0.801 0.411 181 157 128 0 0
-1.9722 0.9340 -0.0142 0.849 -0.371 -0.377 179 156 126 0 0
-1.9727 0.9439 -0.0154 0.160 -0.569 -0.806 172 148 115 0 0
-1.9712 0.9469 -0.0160 -0.114 -0.751 -0.651 165 137 106 0 0
-1.9670 0.9469 -0.0168 -0.114 -0.751 -0.651 159 131 102 0 0
-1.9591 0.9476 -0.0183 -0.183 -0.869 -0.459 165 138 107 0 0
-1.9470 0.9577 -0.0218 0.035 -0.534 0.845 183 160 133 0 0
-1.9446 0.9599 -0.0225 -0.213 -0.480 0.851 182 160 130 0 0
-1.9354 0.9542 -0.0235 -0.217 -0.494 0.842 184 163 133 0 0
-1.8796 0.9627 -0.0347 0.560 0.027 0.828 187 166 138 0 0
-1.7861 0.9973 -0.0561 0.438 -0.895 0.081 194 174 147 0 0
-1.7834 0.9993 -0.0569 0.803 -0.209 0.559 192 172 144 0 0
-1.7725 1.0348 -0.0634 0.523 -0.534 0.664 188 166 138 0 0
-1.7545 1.0803 -0.0726 0.571 -0.767 0.294 178 154 123 0 0
-1.7232 1.0786 -0.0780 -0.097 -0.938 0.332 177 152 121 0 0
-1.6738 1.0938 -0.0889 0.366 -0.667 0.649 189 168 140 0 0
-1.6664 1.0954 -0.0905 0.097 -0.598 0.796 190 171 144 0 0
-1.6091 1.1122 -0.1031 0.412 -0.768 0.490 197 178 151 0 0
-1.5513 1.1954 -0.1243 0.676 -0.249 0.693 175 148 121 0 0
-1.4695 1.2124 -0.1413 -0.669 -0.598 0.441 200 179 154 0 0
-1.3428 1.2159 -0.1648 0.147 -0.509 0.848 198 174 146 0 0
-1.3354 1.2277 -0.1676 0.922 -0.025 0.387 190 163 137 0 0
-1.3345 1.2353 -0.1688 0.914 -0.045 0.404 183 158 128 0 0
-1.3336 1.2426 -0.1699 0.887 -0.103 0.451 187 162 131 0 0
-1.3323 1.2493 -0.1710 0.888 -0.110 0.446 200 177 147 0 0
-1.0383 0.6758 -0.1503 -0.614 -0.712 0.339 169 124 65 0 0
-0.9818 0.6612 -0.1586 0.328 -0.933 0.151 107 70 27 0 0
-0.9791 0.6619 -0.1592 0.222 -0.974 -0.039 116 77 30 0 0
-0.9763 0.6622 -0.1598 0.103 -0.993 0.049 137 92 34 0 0
-0.8781 0.6740 -0.1791 0.979 -0.119 0.164 192 150 38 0 0
-0.8474 0.6880 -0.1865 -0.244 -0.883 0.401 190 148 41 0 0
-0.8389 0.6782 -0.1868 0.310 -0.389 0.867 192 151 45 0 0
-0.8358 0.6774 -0.1872 0.465 -0.257 0.847 191 151 46 0 0
-0.8068 0.6873 -0.1937 -0.319 -0.906 0.277 190 148 45 0 0
-0.7869 0.7380 -0.2039 0.889 -0.410 -0.206 154 96 59 0 0
-0.7799 0.7872 -0.2115 -0.641 -0.627 0.443 185 167 95 0 0
-0.7760 0.7831 -0.2117 -0.641 -0.627 0.443 171 153 85 0 0
-0.7784 0.8695 -0.2224 0.980 0.029 0.199 165 148 92 0 0
-0.7766 0.8763 -0.2236 -0.479 -0.843 -0.244 188 169 111 0 0
-0.4276 1.6343 -0.3848 0.313 -0.172 0.934 195 178 162 0 0
-0.4232 1.6361 -0.3858 0.252 -0.164 0.954 199 182 167 0 0
-0.4015 1.6396 -0.3902 -0.280 -0.805 0.523 195 178 162 0 0
-0.3972 1.6378 -0.3908 -0.280 -0.805 0.523 194 177 163 0 0
-0.3529 1.6651 -0.4023 -0.283 -0.901 0.328 190 176 161 0 0
-0.3487 1.6605 -0.4025 0.478 -0.506 0.718 193 177 164 0 0
-0.1823 1.6935 -0.4370 0.348 -0.836 0.424 176 158 144 0 0
-0.1779 1.6951 -0.4380 0.391 -0.782 0.485 181 164 150 0 0
-0.1734 1.6968 -0.4390 0.391 -0.782 0.485 183 166 153 0 0
-0.1690 1.6972 -0.4398 0.255 -0.737 0.626 184 168 153 0 0
-0.1654 1.6917 -0.4398 -0.301 -0.667 0.682 187 170 157 0 0
-0.0779 1.7092 -0.4579 0.633 -0.197 0.749 196 185 181 0 0
-0.0450 1.7290 -0.4665 0.827 -0.509 0.241 186 173 165 0 0
-0.0398 1.7343 -0.4681 0.485 -0.753 0.444 187 174 166 0 0
-0.0354 1.7351 -0.4690 0.332 -0.847 0.416 184 170 163 0 0
-0.0307 1.7377 -0.4702 0.161 -0.948 0.276 181 168 163 0 0
-0.0199 1.7508 -0.4738 0.424 -0.518 0.743 181 169 163 0 0
-0.0084 1.7436 -0.4750 0.629 -0.425 0.651 184 171 167 0 0
0.0016 1.7519 -0.4779 0.732 -0.466 0.497 178 167 163 0 0
0.0078 1.7619 -0.4803 0.653 -0.504 0.566 179 167 163 0 0
0.0193 1.7553 -0.4815 0.284 -0.838 0.466 189 179 175 0 0
0.2052 1.8401 -0.5262 0.473 -0.150 0.868 188 183 183 0 0
0.3038 1.9161 -0.5539 0.221 -0.289 0.932 181 172 172 0 0
0.3086 1.9177 -0.5550 0.510 -0.403 0.760 177 168 169 0 0
0.3133 1.9187 -0.5559 0.181 -0.329 0.927 174 167 168 0 0
0.3177 1.9189 -0.5568 0.269 -0.372 0.889 177 171 172 0 0
0.3311 1.9200 -0.5593 0.484 -0.585 0.651 184 177 178 0 0
0.3352 1.9192 -0.5600 0.700 -0.602 0.385 186 180 182 0 0
0.3437 1.9330 -0.5633 0.728 -0.599 0.334 187 179 181 0 0
0.3501 1.9396 -0.5653 0.728 -0.599 0.334 186 179 181 0 0
0.3567 1.9472 -0.5675 0.754 -0.595 0.278 184 178 180 0 0
0.3633 1.9544 -0.5696 0.793 -0.588 0.160 184 178 179 0 0
0.3670 1.9521 -0.5700 0.577 -0.471 0.668 187 181 182 0 0
0.3696 1.9463 -0.5697 0.192 -0.255 0.948 190 184 186 0 0
0.3786 1.9470 -0.5714 0.147 -0.263 0.954 191 186 188 0 0
0.3834 1.9485 -0.5725 0.209 -0.397 0.894 189 184 185 0 0
0.3906 1.9574 -0.5750 -0.003 -0.716 0.698 188 183 185 0 0
0.3944 1.9555 -0.5754 -0.214 -0.910 0.355 188 182 183 0 0
0.3989 1.9560 -0.5763 0.277 -0.925 0.258 186 180 182 0 0
0.4120 1.9693 -0.5804 0.655 -0.482 0.582 187 181 183 0 0
0.4182 1.9750 -0.5822 0.363 -0.410 0.837 186 181 181 0 0
0.4215 1.9717 -0.5824 0.489 -0.377 0.787 187 181 182 0 0
0.4246 1.9677 -0.5825 0.873 -0.457 0.173 187 181 183 0 0
0.4336 1.9817 -0.5859 0.817 -0.506 0.277 183 178 178 0 0
0.4360 1.9758 -0.5856 0.407 -0.384 0.829 181 174 174 0 0
0.4485 1.9477 -0.5842 0.863 -0.412 0.293 172 164 165 0 0
0.5098 1.9622 -0.5972 0.282 -0.250 0.926 181 174 173 0 0
-1.9697 0.9252 -0.0173 0.202 -0.420 0.885 175 150 118 0 0
-1.9753 0.9500 -0.0195 -0.157 -0.867 -0.472 158 130 100 0 0
-1.9710 0.9500 -0.0203 -0.256 -0.890 -0.376 155 126 96 0 0
-1.9575 0.9443 -0.0220 -0.406 -0.895 -0.184 160 133 103 0 0
-1.9370 0.9498 -0.0264 -0.082 -0.557 0.826 185 161 133 0 0
-1.9308 0.9475 -0.0273 -0.081 -0.509 0.857 183 159 131 0 0
-1.9244 0.9451 -0.0281 -0.081 -0.509 0.857 183 160 130 0 0
-1.8504 0.9921 -0.0477 -0.183 -0.708 0.682 180 155 127 0 0
-1.8443 0.9898 -0.0485 -0.183 -0.708 0.682 179 155 127 0 0
-1.8382 0.9874 -0.0493 -0.183 -0.708 0.682 180 157 127 0 0
-1.8164 1.0024 -0.0552 -0.338 -0.925 0.172 180 157 127 0 0
-1.7913 0.9917 -0.0583 -0.055 -0.973 0.222 195 175 151 0 0
-1.7875 0.9922 -0.0591 0.087 -0.982 0.169 198 178 153 0 0
-1.7820 1.0067 -0.0620 0.508 -0.166 0.845 187 166 139 0 0
-1.7770 1.0113 -0.0635 0.279 -0.157 0.947 188 165 134 0 0
-1.7703 1.0360 -0.0679 0.134 -0.435 0.890 191 173 146 0 0
-1.7440 1.0347 -0.0725 0.022 -0.208 0.978 190 171 140 0 0
-1.7322 1.0594 -0.0779 -0.102 -0.346 0.933 183 160 128 0 0
-1.7328 1.0662 -0.0787 0.131 -0.399 0.908 182 158 127 0 0
-1.6759 1.0887 -0.0919 0.357 -0.680 0.641 182 159 129 0 0
-1.6655 1.0922 -0.0943 0.176 -0.635 0.752 190 170 143 0 0
-1.6607 1.0914 -0.0950 0.001 -0.732 0.681 188 168 140 0 0
-1.5832 1.1375 -0.1151 0.301 -0.402 0.865 188 165 135 0 0
-1.5768 1.1411 -0.1167 0.143 -0.646 0.750 190 168 139 0 0
-1.5711 1.1387 -0.1175 -0.065 -0.632 0.772 191 168 139 0 0
-1.5662 1.1593 -0.1210 -0.226 -0.382 0.896 199 178 151 0 0
-1.5601 1.1563 -0.1218 -0.086 -0.305 0.949 194 172 146 0 0
-1.5546 1.1541 -0.1225 0.086 -0.250 0.964 182 156 131 0 0
-1.5498 1.1533 -0.1232 0.086 -0.248 0.965 178 152 126 0 0
-1.3338 1.2219 -0.1713 0.908 0.001 0.420 178 151 122 0 0
-1.3329 1.2293 -0.1725 0.874 -0.052 0.483 177 150 121 0 0
-1.3321 1.2369 -0.1736 0.869 -0.068 0.490 180 154 124 0 0
-1.3310 1.2442 -0.1748 0.878 -0.103 0.467 191 166 135 0 0
-0.9938 0.6599 -0.1592 0.165 -0.947 0.274 109 74 31 0 0
-0.9564 0.6785 -0.1684 0.721 -0.689 0.073 139 95 23 0 0
-0.8649 0.6663 -0.1834 -0.102 -0.896 0.431 194 152 41 0 0
-0.8618 0.6656 -0.1839 -0.371 -0.819 0.438 195 152 41 0 0
-0.8437 0.6830 -0.1894 -0.207 -0.674 0.710 191 151 42 0 0
-0.8404 0.6816 -0.1898 -0.207 -0.674 0.710 192 150 43 0 0
-0.8371 0.6800 -0.1902 0.023 -0.832 0.554 193 152 45 0 0
-0.8187 0.6863 -0.1944 0.188 -0.545 0.817 192 151 48 0 0
-0.8080 0.6894 -0.1967 -0.416 -0.909 0.036 190 146 46 0 0
-0.7916 0.7301 -0.2050 0.820 -0.471 -0.325 159 102 63 0 0
-0.7896 0.7343 -0.2059 0.857 -0.456 -0.240 158 102 64 0 0
-0.7822 0.7273 -0.2064 0.610 -0.650 -0.453 157 102 67 0 0
-0.7826 0.7968 -0.2154 -0.130 -0.915 -0.383 210 202 135 0 0
-0.8374 1.4053 -0.2852 0.266 -0.514 0.815 187 163 126 0 0
-0.5014 1.5731 -0.3681 0.663 -0.309 0.682 178 158 140 0 0
-0.4415 1.5986 -0.3822 0.676 -0.461 0.575 185 165 149 0 0
-0.4112 1.6228 -0.3909 0.564 -0.306 0.767 190 173 157 0 0
-0.3586 1.6481 -0.4037 0.846 -0.301 0.440 197 182 169 0 0
-0.3544 1.6455 -0.4042 -0.019 -0.929 0.371 196 182 168 0 0
-0.3498 1.6524 -0.4059 -0.326 -0.626 0.708 197 182 169 0 0
-0.2851 1.6537 -0.4178 0.549 -0.758 0.353 182 165 149 0 0
-0.1159 1.6852 -0.4525 -0.514 -0.279 0.811 193 179 170 0 0
-0.1128 1.6772 -0.4520 0.100 -0.313 0.945 196 183 174 0 0
-0.1090 1.6741 -0.4523 -0.065 -0.431 0.900 196 186 178 0 0
-0.0319 1.7342 -0.4742 0.076 -0.590 0.804 183 169 165 0 0
-0.0094 1.7409 -0.4791 0.761 -0.553 0.339 191 182 176 0 0
-0.0041 1.7471 -0.4809 0.770 -0.576 0.275 190 181 174 0 0
0.0011 1.7518 -0.4824 0.580 -0.489 0.651 189 178 173 0 0
0.0889 1.7657 -0.5002 0.645 -0.454 0.615 189 180 178 0 0
0.1348 1.7814 -0.5105 0.830 -0.466 0.306 187 181 180 0 0
0.1420 1.7938 -0.5135 0.780 -0.484 0.396 186 180 179 0 0
0.1484 1.8027 -0.5158 0.581 -0.442 0.683 185 180 177 0 0
0.1533 1.8058 -0.5171 0.474 -0.459 0.751 186 181 181 0 0
0.1590 1.8117 -0.5189 0.562 -0.425 0.710 186 182 182 0 0
0.1644 1.8164 -0.5205 0.672 -0.366 0.643 189 183 183 0 0
0.1742 1.8215 -0.5229 0.319 -0.485 0.814 188 182 182 0 0
0.1920 1.8409 -0.5287 0.340 -0.198 0.919 184 178 178 0 0
0.2205 1.8514 -0.5352 0.794 -0.342 0.503 189 184 184 0 0
0.2241 1.8488 -0.5355 0.822 -0.357 0.443 192 187 189 0 0
0.2476 1.8722 -0.5428 0.211 -0.260 0.942 183 174 175 0 0
0.2516 1.8712 -0.5435 0.187 -0.255 0.949 181 172 173 0 0
0.2821 1.8875 -0.5511 0.437 -0.338 0.833 185 177 177 0 0
0.2958 1.9052 -0.5559 0.206 -0.349 0.914 186 178 179 0 0
0.3004 1.9061 -0.5569 0.255 -0.360 0.898 184 176 176 0 0
0.3050 1.9069 -0.5578 0.562 -0.376 0.737 181 173 176 0 0
0.3084 1.9036 -0.5580 0.315 -0.235 0.920 177 170 173 0 0
0.3241 1.8981 -0.5601 0.707 -0.389 0.590 177 170 172 0 0
0.3315 1.9082 -0.5628 0.739 -0.433 0.516 177 172 173 0 0
0.3385 1.9173 -0.5652 0.739 -0.433 0.516 181 175 177 0 0
0.3494 1.9246 -0.5681 0.302 -0.210 0.930 185 179 181 0 0
0.3543 1.9264 -0.5693 0.279 -0.216 0.936 187 182 183 0 0
0.3603 1.9317 -0.5711 0.464 -0.296 0.835 188 182 184 0 0
0.3654 1.9343 -0.5723 0.387 -0.326 0.863 189 184 185 0 0
0.4263 1.9344 -0.5834 -0.714 -0.683 0.151 185 179 179 0 0
0.4337 1.9437 -0.5859 0.126 -0.962 -0.240 183 176 177 0 0
0.4788 1.9742 -0.5981 0.090 -0.058 0.994 183 177 177 0 0
0.4823 1.9716 -0.5984 -0.013 -0.110 0.994 180 174 176 0 0
-1.9787 0.9245 -0.0194 -0.365 -0.743 0.561 179 155 122 0 0
-1.9699 0.9195 -0.0203 -0.365 -0.743 0.561 178 153 121 0 0
-1.9664 0.9481 -0.0248 -0.312 -0.949 0.034 161 133 102 0 0
-1.9604 0.9461 -0.0256 -0.312 -0.949 0.034 165 138 108 0 0
-1.9415 0.9439 -0.0287 -0.218 -0.976 -0.001 185 162 132 0 0
-1.9407 0.9477 -0.0294 -0.191 -0.650 0.736 183 159 131 0 0
-1.9328 0.9436 -0.0302 -0.113 -0.646 0.755 178 152 124 0 0
-1.9269 0.9416 -0.0310 -0.113 -0.646 0.755 174 148 119 0 0
-1.9209 0.9396 -0.0318 -0.113 -0.646 0.755 173 148 118 0 0
-1.9150 0.9377 -0.0326 -0.113 -0.646 0.755 172 147 116 0 0
-1.8721 0.9459 -0.0415 -0.064 -0.714 0.697 165 140 113 0 0
-1.8488 0.9886 -0.0514 -0.243 -0.724 0.645 186 162 133 0 0
-1.8420 0.9854 -0.0522 -0.052 -0.685 0.726 179 156 126 0 0
-1.8368 0.9842 -0.0530 -0.052 -0.685 0.726 178 155 124 0 0
-1.7152 1.0637 -0.0855 0.470 -0.378 0.798 182 158 127 0 0
-1.6640 1.0883 -0.0980 -0.014 -0.700 0.714 185 163 136 0 0
-1.6076 1.1062 -0.1106 0.339 -0.573 0.746 194 175 147 0 0
-1.5488 1.1423 -0.1260 0.086 -0.250 0.964 184 160 133 0 0
-1.5444 1.1421 -0.1268 0.084 -0.269 0.959 182 157 130 0 0
-1.3317 1.2244 -0.1762 0.909 -0.003 0.417 183 157 128 0 0
-1.3310 1.2323 -0.1774 0.879 -0.101 0.465 192 167 137 0 0
-1.3297 1.2389 -0.1785 0.878 -0.103 0.467 197 174 145 0 0
-0.9998 0.6583 -0.1608 -0.086 -0.978 0.191 107 73 28 0 0
-0.9469 0.6921 -0.1749 0.645 -0.534 0.546 188 142 28 0 0
-0.9364 0.6702 -0.1739 0.674 -0.738 -0.022 191 146 29 0 0
-0.9416 0.7116 -0.1784 -0.425 -0.386 -0.819 192 148 34 0 0
-0.8652 0.6655 -0.1861 0.472 -0.516 -0.714 194 152 41 0 0
-0.8667 0.6803 -0.1878 -0.298 -0.476 -0.827 194 152 42 0 0
-0.8417 0.6838 -0.1928 -0.799 -0.596 -0.081 192 150 43 0 0
-0.8052 0.6874 -0.1999 -0.245 -0.936 0.252 187 143 40 0 0
-0.7831 0.7286 -0.2093 0.610 -0.650 -0.453 169 123 78 0 0
-0.7837 0.7991 -0.2186 0.037 -0.804 -0.594 221 216 159 0 0
-0.8372 1.3998 -0.2889 0.497 -0.352 0.793 203 182 151 0 0
-0.8330 1.3998 -0.2896 0.482 -0.488 0.728 202 183 155 0 0
-0.5019 1.5646 -0.3714 0.663 -0.309 0.682 189 172 156 0 0
-0.4465 1.6149 -0.3881 0.038 -0.973 0.227 185 164 145 0 0
-0.4422 1.6145 -0.3888 0.347 -0.929 0.126 183 162 145 0 0
-0.3597 1.6373 -0.4067 0.929 -0.321 0.186 199 185 172 0 0
-0.3505 1.6517 -0.4103 -0.490 -0.354 0.797 199 185 172 0 0
-0.3345 1.6263 -0.4098 -0.430 -0.418 0.800 191 174 161 0 0
-0.3051 1.6202 -0.4143 0.759 -0.369 0.536 196 181 168 0 0
-0.2361 1.6370 -0.4290 0.101 -0.230 0.968 198 184 174 0 0
-0.1969 1.6893 -0.4430 0.013 -0.263 0.965 195 181 169 0 0
-0.1449 1.6621 -0.4488 0.779 -0.335 0.530 187 173 163 0 0
-0.1144 1.6699 -0.4554 -0.118 -0.406 0.906 199 188 179 0 0
