ply
format ascii 1.0
element vertex 824
property float x
property float y
property float z
property float nx
property float ny
property float nz
property uchar diffuse_red
property uchar diffuse_green
property uchar diffuse_blue
property uchar class
property uchar detection
end_header
-1.2559 1.2525 -0.1933 0.029 -0.741 0.670 203 180 156 0 0
-0.9925 0.6441 -0.1495 0.255 -0.948 -0.191 147 102 37 0 0
-0.9900 0.6445 -0.1503 0.071 -0.989 -0.131 144 99 35 0 0
-0.9563 0.6573 -0.1619 -0.134 -0.948 0.287 112 70 12 0 0
-0.9450 0.6543 -0.1644 -0.252 -0.965 -0.074 173 122 26 0 0
-0.9331 0.6484 -0.1665 -0.471 -0.815 -0.337 189 144 31 0 0
-0.7598 0.8419 -0.2507 -0.487 -0.869 -0.090 198 172 114 0 0
-0.1135 1.4581 -0.5444 0.555 -0.510 0.657 188 172 164 0 0
-0.1097 1.4574 -0.5453 0.271 -0.533 0.802 188 174 165 0 0
-0.1055 1.4586 -0.5467 0.563 -0.780 0.273 187 172 164 0 0
-0.0917 1.4668 -0.5520 0.672 -0.740 0.037 184 167 160 0 0
-0.0831 1.4701 -0.5550 0.707 -0.588 0.392 182 167 158 0 0
-0.0752 1.4701 -0.5572 0.166 -0.327 0.930 178 161 154 0 0
0.0129 1.5037 -0.5876 0.259 -0.923 0.286 185 169 163 0 0
0.0291 1.5048 -0.5923 -0.064 -0.822 0.566 179 163 155 0 0
0.0410 1.5047 -0.5955 -0.120 -0.980 0.158 183 168 161 0 0
0.0451 1.5055 -0.5968 0.086 -0.954 0.287 185 170 162 0 0
0.0898 1.5212 -0.6119 0.510 -0.422 0.749 186 175 172 0 0
0.1159 1.5398 -0.6226 0.320 -0.345 0.882 187 175 173 0 0
0.1673 1.5051 -0.6301 0.584 -0.462 0.668 187 176 175 0 0
-1.8517 1.0757 -0.0008 0.544 -0.175 0.821 180 160 134 0 0
-1.8066 1.1317 -0.0239 0.396 -0.915 0.077 174 148 125 0 0
-1.8041 1.1337 -0.0250 0.451 -0.816 0.362 173 147 124 0 0
-1.7787 1.1116 -0.0276 0.128 -0.412 0.902 184 162 139 0 0
-1.7838 1.1621 -0.0359 -0.259 -0.945 0.197 186 164 138 0 0
-1.7582 1.1514 -0.0409 -0.409 -0.861 0.302 192 172 149 0 0
-1.7533 1.1560 -0.0431 0.478 -0.794 0.376 179 155 130 0 0
-1.7479 1.1533 -0.0441 0.434 -0.497 0.751 174 150 125 0 0
-1.6814 1.1566 -0.0629 0.042 -0.979 -0.199 191 171 147 0 0
-1.6675 1.1522 -0.0658 -0.168 -0.978 0.123 183 162 137 0 0
-1.6554 1.1508 -0.0688 0.066 -0.936 0.347 178 155 130 0 0
-1.6437 1.1571 -0.0732 0.414 -0.407 0.814 194 175 151 0 0
-1.6405 1.1581 -0.0743 0.414 -0.407 0.814 192 171 147 0 0
-1.5920 1.1234 -0.0809 0.327 -0.283 0.902 183 161 137 0 0
-1.4416 1.1672 -0.1303 -0.551 -0.457 0.698 193 173 149 0 0
-1.3195 1.1699 -0.1642 0.893 -0.344 0.291 194 171 150 0 0
-1.2408 1.2370 -0.1986 0.473 -0.615 0.631 199 176 149 0 0
-0.9985 0.6437 -0.1506 0.049 -0.968 -0.245 153 107 43 0 0
-0.9376 0.6648 -0.1713 -0.530 -0.376 0.760 187 140 29 0 0
-0.8719 0.6825 -0.1926 -0.333 -0.736 0.590 194 152 48 0 0
-0.8692 0.6822 -0.1933 -0.027 -0.735 0.678 194 151 47 0 0
-0.2344 1.3843 -0.5016 0.452 -0.506 0.735 204 192 184 0 0
-0.1070 1.4556 -0.5501 0.398 -0.792 0.464 188 174 165 0 0
-0.0988 1.4574 -0.5527 0.387 -0.708 0.591 187 171 162 0 0
-0.0893 1.4641 -0.5566 0.698 -0.642 0.318 185 169 161 0 0
-0.0842 1.4685 -0.5588 0.698 -0.642 0.318 187 171 163 0 0
-0.0804 1.4683 -0.5598 0.601 -0.630 0.492 185 170 162 0 0
-0.0776 1.4638 -0.5597 0.271 -0.391 0.879 185 169 161 0 0
-0.0572 1.4523 -0.5631 0.469 -0.659 0.588 176 162 153 0 0
-0.0525 1.4553 -0.5649 0.452 -0.637 0.624 178 164 155 0 0
-0.0505 1.4482 -0.5641 0.753 -0.571 0.328 180 165 158 0 0
-0.0431 1.4610 -0.5686 0.363 -0.542 0.758 184 169 162 0 0
0.0049 1.4922 -0.5877 -0.217 -0.933 0.288 185 171 163 0 0
0.0114 1.5010 -0.5911 0.363 -0.782 0.506 185 170 163 0 0
0.0214 1.4948 -0.5927 0.585 -0.561 0.585 179 165 156 0 0
0.0277 1.5026 -0.5959 0.180 -0.723 0.667 179 164 155 0 0
0.0361 1.5042 -0.5985 -0.671 -0.690 0.271 177 162 154 0 0
0.0399 1.5035 -0.5994 0.166 -0.970 0.179 177 163 154 0 0
0.0440 1.5039 -0.6006 0.166 -0.970 0.179 178 162 154 0 0
-1.8264 1.0797 -0.0123 0.406 -0.153 0.901 198 182 160 0 0
-1.8109 1.1300 -0.0264 0.215 -0.946 0.243 179 155 132 0 0
-1.8069 1.1297 -0.0274 0.119 -0.842 0.526 175 150 126 0 0
-1.8033 1.1300 -0.0284 0.057 -0.796 0.602 172 146 123 0 0
-1.7897 1.1146 -0.0291 -0.571 -0.707 0.417 176 151 129 0 0
-1.7710 1.1574 -0.0426 -0.580 -0.806 0.118 198 181 159 0 0
-1.7640 1.1522 -0.0435 -0.580 -0.806 0.118 200 183 160 0 0
-1.7567 1.1527 -0.0455 -0.484 -0.868 0.110 186 164 139 0 0
-1.7529 1.1528 -0.0466 0.231 -0.952 0.203 179 156 131 0 0
-1.7469 1.1491 -0.0475 0.416 -0.530 0.739 185 163 139 0 0
-1.6418 1.1509 -0.0765 0.182 -0.771 0.611 194 175 151 0 0
-1.6381 1.1510 -0.0776 0.182 -0.771 0.611 198 179 156 0 0
-1.6238 1.1455 -0.0804 -0.236 -0.617 0.750 190 168 144 0 0
-1.6198 1.1451 -0.0814 0.002 -0.621 0.784 186 164 140 0 0
-1.6141 1.1414 -0.0822 -0.216 -0.843 0.492 184 161 137 0 0
-1.5810 1.1281 -0.0887 0.486 -0.773 0.408 180 156 132 0 0
-1.5624 1.1427 -0.0966 0.520 -0.574 0.632 191 171 148 0 0
-1.5483 1.2064 -0.1128 0.161 -0.735 0.659 178 151 125 0 0
-1.4015 1.1576 -0.1434 -0.048 -0.895 0.443 189 165 142 0 0
-1.3410 1.1546 -0.1593 -0.269 -0.484 0.833 203 184 163 0 0
-1.3033 1.1938 -0.1772 -0.242 -0.574 0.782 201 181 157 0 0
-1.0096 0.6425 -0.1502 -0.106 -0.977 0.186 154 110 43 0 0
-1.0068 0.6420 -0.1509 -0.106 -0.977 0.186 153 109 42 0 0
-1.0020 0.6435 -0.1525 0.325 -0.945 0.026 153 108 42 0 0
-0.9948 0.6463 -0.1550 0.233 -0.959 -0.164 137 96 35 0 0
-0.9793 0.6474 -0.1594 -0.212 -0.967 0.139 85 56 22 0 0
-0.9604 0.6563 -0.1663 0.450 -0.885 0.124 145 96 28 0 0
-0.9579 0.6569 -0.1671 0.461 -0.871 0.172 143 94 29 0 0
-0.9498 0.6562 -0.1692 -0.279 -0.959 -0.048 125 79 22 0 0
-0.2402 1.4198 -0.5112 0.387 -0.705 0.594 194 177 167 0 0
-0.2346 1.3879 -0.5065 0.011 -0.996 -0.085 201 187 178 0 0
-0.2314 1.3845 -0.5067 0.169 -0.958 0.233 202 187 179 0 0
-0.2275 1.3851 -0.5079 -0.130 -0.966 0.222 199 185 177 0 0
-0.2238 1.3844 -0.5088 -0.130 -0.966 0.222 195 181 170 0 0
-0.1633 1.4170 -0.5316 0.518 -0.588 0.621 189 175 165 0 0
-0.1584 1.4221 -0.5339 0.376 -0.540 0.753 188 173 163 0 0
-0.1133 1.4491 -0.5515 0.408 -0.348 0.844 185 168 160 0 0
-0.0848 1.4540 -0.5602 0.590 -0.377 0.714 191 178 169 0 0
-0.0580 1.4520 -0.5671 0.417 -0.902 -0.111 178 164 155 0 0
-0.0533 1.4551 -0.5690 0.380 -0.922 -0.072 179 165 156 0 0
-0.0453 1.4557 -0.5713 0.363 -0.542 0.758 180 165 157 0 0
-0.0429 1.4503 -0.5709 0.242 -0.622 0.745 184 169 162 0 0
-0.0384 1.4525 -0.5726 0.225 -0.639 0.736 186 171 164 0 0
0.0351 1.5033 -0.6025 -0.311 -0.799 0.515 174 159 150 0 0
0.0377 1.4989 -0.6024 0.586 -0.794 0.164 169 154 144 0 0
0.0428 1.5026 -0.6045 0.277 -0.930 0.242 169 152 144 0 0
-1.7902 1.1130 -0.0326 -0.571 -0.707 0.417 181 157 134 0 0
-1.7756 1.1018 -0.0344 -0.140 -0.744 0.653 186 166 144 0 0
-1.7719 1.1018 -0.0354 0.639 -0.339 0.691 201 183 163 0 0
-1.7536 1.1514 -0.0501 0.363 -0.931 0.045 179 155 131 0 0
-1.6357 1.1439 -0.0808 -0.039 -0.987 0.155 199 180 157 0 0
-1.5865 1.1216 -0.0899 0.026 -0.646 0.763 178 154 128 0 0
-1.5819 1.1200 -0.0908 -0.352 -0.633 0.689 179 155 130 0 0
-1.5693 1.1388 -0.0979 -0.327 -0.703 0.631 190 168 144 0 0
-1.5518 1.2027 -0.1152 0.274 -0.615 0.740 154 128 104 0 0
-1.5481 1.2031 -0.1163 0.147 -0.731 0.666 162 135 111 0 0
-1.5451 1.2048 -0.1175 0.247 -0.553 0.796 166 139 116 0 0
-1.4017 1.1548 -0.1467 0.074 -0.863 0.499 191 169 145 0 0
-1.3242 1.1457 -0.1661 0.287 -0.206 0.936 186 161 138 0 0
-1.2899 1.1839 -0.1829 0.035 -0.503 0.863 206 187 166 0 0
-1.2615 1.2459 -0.2029 -0.537 -0.406 0.739 181 152 122 0 0
-1.2575 1.2454 -0.2039 -0.699 -0.581 0.417 183 155 125 0 0
-1.0711 0.7278 -0.1530 -0.924 -0.359 0.134 196 168 136 0 0
-1.0078 0.6424 -0.1535 -0.120 -0.993 -0.011 153 109 43 0 0
-0.9801 0.6472 -0.1620 -0.212 -0.967 0.139 110 75 33 0 0
-0.9687 0.6545 -0.1665 0.369 -0.928 0.061 91 55 14 0 0
-0.9662 0.6551 -0.1673 0.181 -0.859 0.479 138 92 29 0 0
-0.9638 0.6560 -0.1682 0.365 -0.867 0.338 159 111 40 0 0
-0.9534 0.6567 -0.1711 -0.440 -0.887 0.137 128 83 27 0 0
-0.9507 0.6566 -0.1719 -0.279 -0.959 -0.048 124 80 23 0 0
-0.8350 0.6568 -0.2034 0.151 -0.858 -0.492 193 143 40 0 0
-0.3124 1.3359 -0.4793 0.117 -0.940 0.321 174 155 144 0 0
-0.1839 1.3965 -0.5263 0.682 -0.553 0.479 201 188 179 0 0
-0.1166 1.4387 -0.5529 0.450 -0.440 0.777 174 158 147 0 0
-0.0724 1.4445 -0.5661 -0.011 -0.905 0.425 192 177 170 0 0
0.0423 1.5034 -0.6089 0.264 -0.856 0.444 170 153 144 0 0
0.1155 1.5092 -0.6300 0.738 -0.289 0.610 187 174 171 0 0
0.3139 1.4961 -0.6816 0.498 -0.849 0.176 177 165 162 0 0
-1.8253 1.0573 -0.0159 0.395 -0.236 0.888 198 181 160 0 0
-1.8112 1.0689 -0.0221 0.431 -0.247 0.868 185 166 140 0 0
-1.8083 1.0701 -0.0231 0.300 -0.292 0.908 188 168 144 0 0
-1.8049 1.0705 -0.0241 0.365 -0.197 0.910 188 168 144 0 0
-1.7755 1.0993 -0.0378 -0.089 -0.658 0.748 187 166 145 0 0
-1.7708 1.0977 -0.0388 0.519 -0.439 0.733 192 171 152 0 0
-1.6093 1.1409 -0.0914 0.095 -0.842 0.530 169 143 118 0 0
-1.5513 1.1988 -0.1187 0.274 -0.615 0.740 166 140 116 0 0
-1.5473 1.1983 -0.1197 0.083 -0.612 0.786 177 153 128 0 0
-1.5441 1.1996 -0.1208 0.217 -0.511 0.832 187 165 141 0 0
-1.5398 1.1988 -0.1218 0.104 -0.479 0.871 186 163 140 0 0
-1.5354 1.1976 -0.1228 0.210 -0.484 0.849 186 164 140 0 0
-1.3880 1.1544 -0.1544 0.180 -0.607 0.774 189 166 142 0 0
-1.2834 1.1830 -0.1885 -0.031 -0.858 0.513 194 170 145 0 0
-1.0060 0.6423 -0.1568 -0.008 -1.000 0.007 149 104 41 0 0
-1.0037 0.6436 -0.1577 0.187 -0.981 0.046 131 88 28 0 0
-1.0018 0.6464 -0.1587 0.238 -0.969 0.074 124 84 29 0 0
-0.9992 0.6462 -0.1595 0.182 -0.970 0.159 113 76 31 0 0
-0.9863 0.6474 -0.1632 -0.166 -0.946 0.280 91 61 29 0 0
-0.9809 0.6471 -0.1646 -0.157 -0.982 0.107 130 93 47 0 0
-0.9736 0.6496 -0.1671 0.419 -0.904 -0.085 87 57 20 0 0
-0.9714 0.6513 -0.1680 0.221 -0.925 0.309 91 58 20 0 0
-0.9667 0.6538 -0.1698 0.370 -0.837 0.403 147 101 39 0 0
-0.9644 0.6548 -0.1706 0.365 -0.867 0.338 158 109 40 0 0
-0.9457 0.6545 -0.1756 0.211 -0.960 0.186 123 79 20 0 0
-0.8765 0.6794 -0.1995 -0.670 -0.552 0.496 189 143 33 0 0
-0.8205 0.6787 -0.2146 0.603 -0.796 -0.051 179 122 44 0 0
-0.7952 0.7354 -0.2327 0.685 -0.213 -0.696 218 198 97 0 0
-0.3011 1.3417 -0.4877 0.495 -0.850 0.182 197 183 172 0 0
-0.2232 1.3761 -0.5158 0.800 -0.538 0.265 196 181 171 0 0
-0.1894 1.3927 -0.5283 0.636 -0.765 -0.103 193 178 168 0 0
-0.1853 1.3939 -0.5296 0.701 -0.688 -0.186 192 177 167 0 0
-0.1804 1.3986 -0.5319 0.598 -0.797 -0.085 194 179 169 0 0
-0.1475 1.4089 -0.5429 0.553 -0.384 0.740 194 180 171 0 0
-0.1272 1.4298 -0.5526 0.704 -0.710 -0.002 186 170 160 0 0
-0.0702 1.4410 -0.5704 -0.518 -0.696 0.497 185 169 162 0 0
-0.0668 1.4389 -0.5709 0.336 -0.905 0.261 180 163 156 0 0
-0.0618 1.4432 -0.5731 0.530 -0.646 0.550 177 160 152 0 0
-0.0574 1.4454 -0.5747 0.530 -0.646 0.550 178 162 154 0 0
0.0301 1.4785 -0.6051 0.753 -0.330 0.569 175 161 152 0 0
0.0432 1.4955 -0.6121 -0.248 -0.889 0.384 177 161 153 0 0
0.0542 1.4556 -0.6071 0.674 -0.549 0.494 186 174 171 0 0
0.0594 1.4600 -0.6094 0.736 -0.446 0.509 191 180 177 0 0
0.0676 1.4734 -0.6143 0.753 -0.475 0.456 192 181 179 0 0
0.0730 1.4779 -0.6167 0.686 -0.569 0.454 190 179 177 0 0
0.0783 1.4822 -0.6190 0.625 -0.568 0.536 188 177 176 0 0
0.0825 1.4831 -0.6203 0.712 -0.520 0.472 186 175 174 0 0
0.1592 1.4166 -0.6280 0.463 -0.433 0.773 188 179 178 0 0
0.1686 1.4218 -0.6316 0.470 -0.544 0.695 192 184 182 0 0
0.1740 1.4259 -0.6339 0.604 -0.746 0.281 193 184 182 0 0
0.1780 1.4267 -0.6351 0.581 -0.704 0.408 188 178 176 0 0
0.1824 1.4282 -0.6366 0.325 -0.643 0.693 187 177 175 0 0
0.1871 1.4305 -0.6384 0.308 -0.743 0.595 187 177 176 0 0
0.3070 1.4902 -0.6829 0.334 -0.445 0.831 183 172 170 0 0
-1.8038 1.0610 -0.0263 0.049 -0.369 0.928 186 164 140 0 0
-1.8004 1.0614 -0.0274 0.325 -0.233 0.917 187 166 142 0 0
-1.7531 1.1087 -0.0497 0.291 -0.538 0.791 187 165 140 0 0
-1.7191 1.1267 -0.0626 0.003 -0.489 0.872 179 157 130 0 0
-1.5742 1.1210 -0.1009 0.218 -0.230 0.949 172 148 124 0 0
-1.5466 1.1941 -0.1231 0.083 -0.612 0.786 182 159 133 0 0
-1.5427 1.1939 -0.1241 0.127 -0.464 0.877 190 168 144 0 0
-1.4590 1.1353 -0.1352 0.536 -0.500 0.680 190 168 144 0 0
-1.4555 1.1442 -0.1379 0.225 -0.410 0.884 198 177 155 0 0
-1.3962 1.1352 -0.1522 0.626 -0.180 0.759 186 161 137 0 0
-1.3222 1.1334 -0.1720 0.220 -0.444 0.868 195 173 149 0 0
-1.3186 1.1335 -0.1730 0.428 -0.230 0.874 192 168 146 0 0
-1.2922 1.1725 -0.1880 0.419 -0.314 0.852 190 166 141 0 0
-1.2608 1.1675 -0.1956 -0.246 -0.251 0.936 194 167 141 0 0
-1.0048 0.6446 -0.1604 0.112 -0.984 0.136 118 80 28 0 0
-1.0026 0.6460 -0.1613 0.238 -0.969 0.074 99 63 23 0 0
-1.0001 0.6467 -0.1621 0.107 -0.992 0.069 87 55 22 0 0
-0.9922 0.6465 -0.1643 -0.112 -0.866 0.487 89 58 27 0 0
-0.9771 0.6496 -0.1690 0.454 -0.870 0.193 85 56 20 0 0
-0.9748 0.6510 -0.1699 0.114 -0.969 0.217 95 62 22 0 0
-0.9722 0.6511 -0.1706 -0.059 -0.928 0.368 119 82 37 0 0
-0.9696 0.6511 -0.1713 0.057 -0.959 0.278 144 100 46 0 0
-0.9652 0.6547 -0.1732 0.349 -0.929 0.119 158 112 40 0 0
-0.9464 0.6535 -0.1781 0.131 -0.934 0.333 118 75 16 0 0
-0.9447 0.6578 -0.1795 0.552 -0.831 -0.061 122 77 17 0 0
-0.9304 0.6772 -0.1872 0.603 -0.461 0.651 188 137 24 0 0
-0.9005 0.6886 -0.1977 -0.490 -0.613 0.620 191 141 27 0 0
-0.8977 0.6880 -0.1983 -0.455 -0.503 0.735 192 144 32 0 0
-0.8779 0.6828 -0.2027 -0.395 -0.871 0.294 191 145 36 0 0
-0.8717 0.6629 -0.2003 0.085 -0.744 -0.663 190 144 37 0 0
-0.8354 0.6671 -0.2111 -0.417 -0.660 -0.625 188 96 30 0 0
-0.3029 1.3358 -0.4902 0.616 -0.541 0.573 192 176 165 0 0
-0.2985 1.3399 -0.4922 0.348 -0.869 0.353 198 181 171 0 0
-0.2661 1.3322 -0.4995 0.791 -0.351 0.502 189 171 159 0 0
-0.2257 1.3676 -0.5176 0.528 -0.277 0.803 200 186 177 0 0
-0.1902 1.3926 -0.5323 0.649 -0.741 -0.173 189 173 162 0 0
-0.1860 1.3943 -0.5338 0.701 -0.688 -0.186 190 173 162 0 0
-0.1808 1.4009 -0.5365 0.566 -0.822 -0.064 191 174 164 0 0
-0.1763 1.4036 -0.5383 0.220 -0.975 0.017 194 178 168 0 0
-0.1422 1.4185 -0.5506 0.641 -0.547 0.538 195 181 172 0 0
-0.1376 1.4220 -0.5525 0.615 -0.566 0.550 195 181 172 0 0
-0.1330 1.4248 -0.5543 0.761 -0.586 0.279 194 180 171 0 0
-0.1292 1.4248 -0.5554 0.695 -0.538 0.477 191 177 168 0 0
-0.0738 1.4298 -0.5715 0.560 -0.485 0.672 186 171 162 0 0
-0.0691 1.4331 -0.5734 0.715 -0.652 0.253 181 164 157 0 0
-0.0650 1.4343 -0.5748 0.313 -0.866 0.390 175 158 150 0 0
-0.0591 1.4417 -0.5779 0.442 -0.847 0.294 175 157 149 0 0
-0.0511 1.4285 -0.5774 0.485 -0.663 0.570 176 159 150 0 0
-0.0336 1.4221 -0.5809 0.752 -0.463 0.470 186 172 164 0 0
-0.0211 1.4390 -0.5877 0.870 -0.300 0.391 186 173 164 0 0
0.0314 1.4724 -0.6087 0.688 -0.211 0.695 175 161 152 0 0
0.0526 1.4527 -0.6105 0.724 -0.641 0.255 187 176 173 0 0
0.0585 1.4594 -0.6134 0.765 -0.621 0.170 191 181 178 0 0
0.0655 1.4689 -0.6172 0.182 -0.958 -0.221 190 180 177 0 0
0.0814 1.4819 -0.6242 0.638 -0.639 0.430 187 176 174 0 0
0.0985 1.4745 -0.6273 0.584 -0.701 0.409 184 172 170 0 0
0.1538 1.4141 -0.6303 -0.049 -0.362 0.931 189 180 178 0 0
0.1559 1.4096 -0.6300 0.544 -0.480 0.688 189 179 178 0 0
0.1759 1.4227 -0.6380 0.544 -0.836 -0.075 182 172 169 0 0
0.1801 1.4238 -0.6394 0.446 -0.833 0.327 184 173 169 0 0
0.1817 1.4180 -0.6387 0.064 -0.510 0.858 184 173 171 0 0
0.3121 1.4855 -0.6877 0.349 -0.446 0.824 182 171 169 0 0
0.3192 1.4754 -0.6876 0.166 -0.531 0.831 178 165 162 0 0
-1.8793 1.0412 -0.0056 0.203 -0.161 0.966 180 158 133 0 0
-1.8294 1.0480 -0.0206 -0.165 -0.857 0.489 184 163 136 0 0
-1.8267 1.0494 -0.0216 0.252 -0.571 0.781 188 166 142 0 0
-1.8109 1.0529 -0.0266 0.244 -0.306 0.920 174 150 121 0 0
-1.7432 1.1023 -0.0550 0.133 -0.547 0.827 180 157 132 0 0
-1.7149 1.1171 -0.0657 -0.077 -0.436 0.897 177 155 129 0 0
-1.6782 1.1119 -0.0747 0.427 -0.592 0.684 179 157 132 0 0
-1.6768 1.1158 -0.0758 0.920 -0.389 0.046 178 155 128 0 0
-1.5462 1.1902 -0.1265 0.209 -0.444 0.871 163 137 112 0 0
-1.5423 1.1900 -0.1275 0.209 -0.444 0.871 167 141 116 0 0
-1.5372 1.1874 -0.1283 0.104 -0.479 0.871 170 144 119 0 0
-1.4789 1.1354 -0.1337 -0.237 -0.893 0.383 198 178 157 0 0
-1.3898 1.1432 -0.1595 0.227 -0.461 0.858 188 163 140 0 0
-1.3112 1.1398 -0.1802 0.765 -0.202 0.611 193 171 146 0 0
-1.3045 1.1518 -0.1845 0.159 -0.201 0.967 195 174 151 0 0
-1.2980 1.1644 -0.1888 0.042 -0.222 0.974 197 175 151 0 0
-1.2584 1.1567 -0.1980 -0.209 -0.258 0.943 194 168 141 0 0
-1.2315 1.1995 -0.2140 -0.701 -0.598 0.388 195 168 139 0 0
-1.0537 0.6980 -0.1608 -0.822 -0.568 -0.054 175 129 69 0 0
-1.0076 0.6420 -0.1620 0.051 -0.944 0.325 126 86 29 0 0
-1.0054 0.6434 -0.1629 0.245 -0.930 0.275 93 58 20 0 0
-1.0032 0.6449 -0.1638 0.409 -0.865 0.290 92 58 23 0 0
-1.0005 0.6449 -0.1645 0.293 -0.884 0.365 90 56 23 0 0
-0.9980 0.6454 -0.1653 0.293 -0.884 0.365 99 65 28 0 0
-0.9930 0.6462 -0.1668 -0.049 -0.991 0.125 130 94 49 0 0
-0.9779 0.6493 -0.1715 0.379 -0.879 0.289 109 76 35 0 0
-0.9755 0.6502 -0.1724 -0.087 -0.903 0.422 127 90 44 0 0
-0.9728 0.6502 -0.1731 -0.059 -0.928 0.368 128 91 45 0 0
-0.8979 0.6852 -0.2006 -0.502 -0.521 0.690 194 146 38 0 0
-0.7871 0.8294 -0.2600 0.672 -0.190 -0.716 217 204 122 0 0
-0.7674 0.8378 -0.2671 -0.628 -0.766 0.136 203 182 114 0 0
-0.2538 1.3429 -0.5092 0.670 -0.589 0.453 191 174 161 0 0
-0.2312 1.3625 -0.5193 0.129 -0.312 0.941 188 170 159 0 0
-0.2274 1.3630 -0.5205 0.459 -0.228 0.859 191 174 164 0 0
-0.1786 1.3969 -0.5406 0.213 -0.624 0.752 191 174 164 0 0
-0.1399 1.4153 -0.5549 0.626 -0.496 0.601 190 175 167 0 0
-0.1352 1.4188 -0.5568 0.626 -0.496 0.601 189 173 165 0 0
-0.1315 1.4182 -0.5577 0.524 -0.312 0.793 190 175 165 0 0
-0.0603 1.4402 -0.5816 0.546 -0.827 0.134 183 167 158 0 0
-0.0382 1.4084 -0.5811 0.654 -0.751 0.084 185 171 162 0 0
0.0643 1.4675 -0.6210 0.092 -0.981 0.168 183 171 165 0 0
0.1720 1.4240 -0.6415 0.456 -0.888 -0.058 183 170 169 0 0
0.1988 1.4248 -0.6490 0.705 -0.434 0.561 190 180 178 0 0
0.3127 1.4705 -0.6893 0.462 -0.882 0.094 184 173 169 0 0
-1.8634 1.0269 -0.0108 -0.029 -0.275 0.961 183 161 137 0 0
-1.7987 1.0488 -0.0329 -0.009 -0.505 0.863 182 161 135 0 0
-1.7269 1.0974 -0.0624 0.091 -0.500 0.861 187 165 141 0 0
-1.7231 1.0973 -0.0634 0.094 -0.552 0.829 187 164 139 0 0
-1.6842 1.1068 -0.0759 0.044 -0.596 0.802 178 155 129 0 0
-1.6798 1.1055 -0.0769 -0.045 -0.616 0.787 173 149 123 0 0
-1.6756 1.1048 -0.0778 0.069 -0.592 0.803 172 148 123 0 0
-1.6721 1.1051 -0.0789 0.330 -0.506 0.797 175 151 126 0 0
-1.5539 1.1121 -0.1124 -0.105 -0.500 0.860 189 168 143 0 0
-1.4556 1.1220 -0.1412 -0.304 -0.736 0.605 184 160 133 0 0
-1.4488 1.1232 -0.1433 0.227 -0.520 0.824 189 166 142 0 0
-1.4459 1.1249 -0.1444 0.284 -0.347 0.894 190 167 143 0 0
-1.2952 1.1327 -0.1870 0.418 -0.297 0.858 197 175 151 0 0
-1.2658 1.1531 -0.1992 0.053 -0.172 0.984 195 172 145 0 0
-1.2537 1.1499 -0.2019 -0.089 -0.536 0.839 202 178 153 0 0
-1.2489 1.1467 -0.2025 -0.127 -0.915 -0.382 202 180 156 0 0
-1.2583 1.2086 -0.2126 0.218 -0.211 0.953 192 165 139 0 0
-1.0558 0.7020 -0.1640 -0.799 -0.595 -0.088 174 128 69 0 0
-1.0041 0.6452 -0.1664 -0.076 -0.997 -0.012 111 73 31 0 0
-0.9784 0.6479 -0.1740 0.125 -0.965 -0.230 124 88 41 0 0
-0.9015 0.6854 -0.2026 -0.405 -0.631 0.661 215 147 40 0 0
-0.8982 0.6825 -0.2029 -0.502 -0.521 0.690 222 163 36 0 0
-0.8467 0.6618 -0.2126 0.465 -0.858 -0.218 164 89 25 0 0
-0.8444 0.6636 -0.2137 0.731 -0.618 -0.290 174 93 29 0 0
-0.8234 0.6831 -0.2234 0.322 -0.945 -0.053 159 113 38 0 0
-0.7683 0.8394 -0.2703 -0.550 -0.830 -0.093 203 182 111 0 0
-0.7650 0.8347 -0.2703 -0.428 -0.670 0.607 203 179 106 0 0
-0.2943 1.3295 -0.4996 -0.311 -0.780 0.542 192 175 164 0 0
-0.2907 1.3289 -0.5005 -0.152 -0.789 0.595 196 180 169 0 0
-0.2513 1.3403 -0.5135 0.655 -0.599 0.461 186 168 154 0 0
-0.2469 1.3436 -0.5154 0.655 -0.599 0.461 182 163 149 0 0
-0.2426 1.3467 -0.5172 0.655 -0.667 0.353 178 160 145 0 0
-0.0336 1.4137 -0.5877 0.487 -0.773 0.406 188 174 165 0 0
-0.0277 1.4211 -0.5909 0.250 -0.586 0.771 189 174 167 0 0
0.0222 1.4468 -0.6097 0.823 -0.436 0.363 178 164 155 0 0
0.0323 1.4672 -0.6166 0.665 -0.369 0.649 178 163 155 0 0
0.1487 1.4772 -0.6503 0.692 -0.718 -0.076 171 158 152 0 0
0.1618 1.4085 -0.6399 0.344 -0.875 0.340 180 166 163 0 0
-1.8214 1.0319 -0.0270 0.549 -0.475 0.688 179 155 129 0 0
-1.7206 1.0908 -0.0666 0.262 -0.784 0.563 181 158 132 0 0
-1.6794 1.1024 -0.0802 0.273 -0.403 0.873 171 147 120 0 0
-1.6752 1.1015 -0.0812 0.101 -0.429 0.898 177 153 127 0 0
-1.6737 1.1054 -0.0824 0.667 -0.358 0.654 183 159 135 0 0
-1.6585 1.1046 -0.0864 0.174 -0.286 0.942 187 166 143 0 0
-1.5155 1.1363 -0.1318 0.341 -0.939 0.038 166 140 115 0 0
-1.5141 1.1412 -0.1332 -0.117 -0.985 -0.127 176 153 127 0 0
-1.4555 1.1186 -0.1445 -0.271 -0.904 0.329 175 149 122 0 0
-1.4511 1.1171 -0.1453 -0.083 -0.778 0.623 183 157 131 0 0
-1.4477 1.1176 -0.1464 0.068 -0.466 0.882 187 163 138 0 0
-1.4442 1.1180 -0.1474 -0.062 -0.375 0.925 187 163 139 0 0
-1.3825 1.1102 -0.1626 -0.283 -0.945 0.164 187 162 138 0 0
-1.3846 1.1242 -0.1649 -0.130 -0.492 0.861 188 163 138 0 0
-1.3765 1.1224 -0.1667 -0.435 -0.478 0.763 192 168 144 0 0
-1.2939 1.1255 -0.1898 0.171 -0.316 0.933 199 177 154 0 0
-1.2519 1.1410 -0.2044 0.138 -0.212 0.968 199 175 149 0 0
-1.2479 1.1400 -0.2053 0.235 -0.555 0.798 201 177 152 0 0
-1.2559 1.1976 -0.2150 0.090 -0.223 0.971 200 177 151 0 0
-1.0026 0.6461 -0.1699 0.083 -0.991 -0.108 127 88 40 0 0
-0.9557 0.6599 -0.1855 0.486 -0.860 -0.155 159 112 39 0 0
-0.9343 0.6836 -0.1962 -0.111 -0.948 0.298 186 132 17 0 0
-0.9019 0.6832 -0.2049 -0.405 -0.631 0.661 191 101 14 0 0
-0.8955 0.6780 -0.2056 -0.532 -0.734 0.421 201 113 24 0 0
-0.8529 0.6625 -0.2140 -0.025 -0.892 -0.451 139 78 13 0 0
-0.8505 0.6639 -0.2149 0.228 -0.960 -0.163 149 87 22 0 0
-0.8192 0.6854 -0.2279 0.457 -0.889 0.006 170 128 58 0 0
-0.8167 0.6868 -0.2288 0.351 -0.933 0.080 182 145 70 0 0
-0.7929 0.8409 -0.2672 -0.055 -0.132 0.990 220 205 121 0 0
-0.2453 1.3367 -0.5186 0.043 -0.786 0.617 177 158 143 0 0
-0.1944 1.3659 -0.5385 0.518 -0.216 0.828 191 175 164 0 0
-0.1855 1.3718 -0.5421 0.609 -0.274 0.744 191 177 165 0 0
-0.1422 1.3955 -0.5588 0.652 -0.512 0.559 187 171 163 0 0
-0.1376 1.3990 -0.5608 0.597 -0.455 0.661 184 168 158 0 0
-0.1191 1.3808 -0.5620 -0.147 -0.521 0.841 200 189 183 0 0
-0.0354 1.4099 -0.5908 0.427 -0.862 0.272 187 173 164 0 0
0.1121 1.4411 -0.6373 0.075 -0.548 0.833 178 166 162 0 0
0.1248 1.4334 -0.6392 -0.284 -0.154 0.946 179 168 164 0 0
-1.8163 1.0328 -0.0324 0.823 -0.430 0.372 176 151 125 0 0
-1.7708 1.0685 -0.0522 0.740 -0.242 0.628 174 149 124 0 0
-1.7657 1.0662 -0.0531 0.546 -0.797 -0.257 178 154 130 0 0
-1.7209 1.0887 -0.0700 0.341 -0.846 0.409 178 155 131 0 0
-1.6889 1.0908 -0.0791 0.179 -0.467 0.866 186 166 141 0 0
-1.5815 1.0823 -0.1065 0.207 -0.767 0.607 180 156 130 0 0
-1.5780 1.0826 -0.1075 0.323 -0.773 0.546 177 155 130 0 0
-1.5714 1.0907 -0.1111 0.284 -0.715 0.639 173 149 123 0 0
-1.5639 1.0904 -0.1130 -0.202 -0.546 0.813 173 147 123 0 0
-1.5596 1.0891 -0.1139 -0.157 -0.492 0.856 179 154 129 0 0
-1.5588 1.0947 -0.1153 -0.165 -0.402 0.900 186 162 137 0 0
-1.5203 1.1054 -0.1280 0.756 -0.232 0.611 180 156 132 0 0
-1.4756 1.1195 -0.1431 0.220 -0.925 -0.309 188 165 140 0 0
-1.4621 1.1221 -0.1473 -0.370 -0.646 0.668 184 160 136 0 0
-1.4562 1.1173 -0.1479 0.002 -0.640 0.768 182 158 132 0 0
-1.4454 1.1096 -0.1492 -0.196 -0.551 0.811 191 169 146 0 0
-1.4422 1.1106 -0.1503 -0.226 -0.430 0.874 188 165 143 0 0
-1.3759 1.1177 -0.1698 -0.499 -0.534 0.683 192 167 143 0 0
-1.2490 1.1286 -0.2066 0.337 -0.225 0.914 195 170 144 0 0
-1.2597 1.1824 -0.2149 0.289 -0.305 0.907 201 177 153 0 0
-1.2567 1.1847 -0.2162 0.372 -0.221 0.902 207 185 160 0 0
-1.0644 0.7151 -0.1704 0.169 -0.962 -0.214 172 125 67 0 0
-1.0583 0.7042 -0.1697 -0.747 -0.665 0.030 173 126 67 0 0
-1.0034 0.6460 -0.1725 -0.042 -0.954 0.298 96 63 25 0 0
-0.9506 0.6571 -0.1892 -0.190 -0.965 -0.179 151 102 30 0 0
-0.8942 0.6810 -0.2095 -0.292 -0.955 -0.057 192 87 22 0 0
-0.8908 0.6770 -0.2096 -0.542 -0.772 -0.331 188 84 25 0 0
-0.8562 0.6618 -0.2158 -0.212 -0.806 -0.553 148 90 29 0 0
-0.8543 0.6660 -0.2172 -0.253 -0.912 -0.323 156 98 34 0 0
-0.8517 0.6662 -0.2179 -0.207 -0.912 -0.355 151 92 31 0 0
-0.8463 0.6660 -0.2194 0.354 -0.850 -0.390 150 90 24 0 0
-0.8256 0.6875 -0.2295 -0.009 -0.928 0.373 154 110 39 0 0
-0.8203 0.6875 -0.2309 0.160 -0.950 0.267 170 129 54 0 0
-0.7973 0.8194 -0.2647 0.345 -0.280 -0.896 219 204 115 0 0
-0.7656 0.8231 -0.2741 0.801 -0.552 -0.230 203 178 103 0 0
-0.3867 1.2931 -0.4752 0.859 -0.499 0.113 186 169 156 0 0
-0.3536 1.2926 -0.4841 0.843 -0.538 0.003 190 172 160 0 0
-0.3489 1.2996 -0.4869 0.737 -0.668 -0.098 186 167 155 0 0
-0.2467 1.3332 -0.5216 0.085 -0.950 0.300 181 162 148 0 0
-0.2430 1.3332 -0.5226 0.085 -0.950 0.300 183 164 150 0 0
-0.1210 1.3762 -0.5648 0.285 -0.507 0.813 201 190 184 0 0
-0.0831 1.3913 -0.5782 0.626 -0.370 0.687 184 167 159 0 0
0.0963 1.4192 -0.6328 0.542 -0.347 0.766 185 174 170 0 0
0.1007 1.4210 -0.6344 0.515 -0.397 0.760 186 174 172 0 0
-1.6928 1.0887 -0.0815 0.271 -0.613 0.742 187 166 141 0 0
-1.5869 1.0694 -0.1062 0.201 -0.470 0.859 197 179 155 0 0
-1.5782 1.0802 -0.1109 0.323 -0.773 0.546 177 154 130 0 0
-1.5749 1.0809 -0.1119 0.681 -0.652 0.334 183 159 133 0 0
-1.5670 1.0866 -0.1153 0.323 -0.595 0.736 178 153 127 0 0
-1.5432 1.0900 -0.1224 0.812 -0.428 0.397 176 150 125 0 0
-1.5245 1.0889 -0.1273 -0.161 -0.740 0.653 186 164 139 0 0
-1.5100 1.1116 -0.1360 0.226 -0.223 0.948 186 165 139 0 0
-1.5068 1.1126 -0.1371 0.172 -0.166 0.971 189 166 140 0 0
-1.4196 1.0893 -0.1559 -0.251 -0.515 0.819 186 164 140 0 0
-1.3711 1.1116 -0.1737 -0.099 -0.812 0.575 193 170 146 0 0
-1.3663 1.1087 -0.1744 0.170 -0.764 0.622 195 171 148 0 0
-1.2826 1.0975 -0.1948 0.041 -0.291 0.956 197 174 151 0 0
-1.2799 1.0998 -0.1960 0.602 -0.083 0.794 197 173 151 0 0
-1.2585 1.1751 -0.2177 0.289 -0.305 0.907 197 174 151 0 0
-1.2554 1.1770 -0.2189 0.195 -0.245 0.950 203 181 157 0 0
-1.0748 0.7095 -0.1694 0.548 -0.653 -0.523 191 161 129 0 0
-1.0744 0.7171 -0.1711 -0.220 -0.952 -0.212 188 155 119 0 0
-1.0642 0.7205 -0.1746 0.671 -0.633 -0.386 171 124 66 0 0
-0.9505 0.6648 -0.1937 -0.369 -0.928 -0.060 150 101 31 0 0
-0.8981 0.6826 -0.2117 0.133 -0.991 -0.031 191 89 24 0 0
-0.8951 0.6814 -0.2122 -0.292 -0.955 -0.057 190 85 27 0 0
-0.8920 0.6792 -0.2126 -0.542 -0.772 -0.331 178 80 27 0 0
-0.8661 0.6534 -0.2142 0.506 -0.499 -0.704 131 74 22 0 0
-0.8576 0.6654 -0.2190 -0.177 -0.888 -0.425 147 89 28 0 0
-0.8527 0.6675 -0.2208 -0.207 -0.912 -0.355 142 83 25 0 0
-0.8477 0.6696 -0.2226 0.441 -0.897 0.017 139 79 21 0 0
-0.8261 0.6857 -0.2319 0.205 -0.876 0.435 146 102 36 0 0
-0.8235 0.6859 -0.2326 0.205 -0.876 0.435 160 116 42 0 0
-0.8209 0.6862 -0.2334 0.205 -0.876 0.435 166 124 54 0 0
-0.8180 0.6845 -0.2338 0.629 -0.756 0.181 181 143 67 0 0
-0.3885 1.2851 -0.4772 0.762 -0.528 0.374 190 174 160 0 0
-0.3845 1.2880 -0.4789 0.172 -0.694 0.699 193 176 166 0 0
-0.3503 1.2951 -0.4896 0.813 -0.560 0.160 183 165 151 0 0
-0.2625 1.3333 -0.5216 -0.420 -0.833 0.359 173 151 137 0 0
-0.2555 1.3305 -0.5228 0.075 -0.996 0.050 172 150 135 0 0
-0.2117 1.3443 -0.5377 0.534 -0.547 0.645 190 174 163 0 0
-0.2074 1.3468 -0.5394 0.418 -0.491 0.764 197 181 171 0 0
-0.1830 1.3385 -0.5442 -0.224 -0.413 0.883 189 172 163 0 0
0.0984 1.4053 -0.6348 0.700 -0.511 0.498 186 176 174 0 0
0.1081 1.4223 -0.6410 0.393 -0.547 0.739 189 178 176 0 0
0.1123 1.4235 -0.6424 0.393 -0.547 0.739 191 181 179 0 0
-1.8136 1.0192 -0.0378 0.739 -0.092 0.668 180 157 133 0 0
-1.5935 1.0657 -0.1075 0.438 -0.345 0.830 180 157 130 0 0
-1.5907 1.0671 -0.1085 0.733 -0.199 0.650 190 169 145 0 0
-1.5495 1.0853 -0.1236 0.820 -0.564 0.098 165 139 117 0 0
-1.5463 1.0863 -0.1247 0.654 -0.757 0.016 167 140 118 0 0
-1.5440 1.0888 -0.1258 0.589 -0.683 0.432 172 147 121 0 0
-1.5290 1.0880 -0.1297 -0.209 -0.825 0.525 191 171 147 0 0
-1.5078 1.1042 -0.1389 0.136 -0.121 0.983 188 167 143 0 0
-1.5036 1.1031 -0.1398 0.167 -0.110 0.980 191 169 145 0 0
-1.4237 1.0874 -0.1582 -0.266 -0.527 0.807 194 172 149 0 0
-1.3896 1.1092 -0.1721 -0.036 -0.907 -0.419 163 133 109 0 0
-1.3715 1.1094 -0.1770 -0.197 -0.966 0.169 196 173 149 0 0
-1.3637 1.1080 -0.1789 0.422 -0.859 0.291 188 163 139 0 0
-1.2538 1.1683 -0.2215 0.121 -0.524 0.843 202 180 155 0 0
-1.2506 1.1699 -0.2227 0.275 -0.409 0.870 202 180 155 0 0
-1.2256 1.1728 -0.2301 -0.235 -0.180 0.955 199 173 144 0 0
-1.0756 0.7182 -0.1740 -0.300 -0.883 -0.362 191 161 129 0 0
-1.0731 0.7190 -0.1749 -0.437 -0.858 -0.269 190 157 122 0 0
-1.0699 0.7177 -0.1754 -0.150 -0.924 -0.353 180 141 96 0 0
-1.0666 0.7161 -0.1760 -0.152 -0.898 -0.413 169 122 70 0 0
-1.0638 0.7161 -0.1768 -0.086 -0.876 -0.475 171 123 67 0 0
-0.8730 0.6580 -0.2162 -0.383 -0.737 -0.557 139 80 27 0 0
-0.8700 0.6560 -0.2166 0.400 -0.734 -0.548 145 84 29 0 0
-0.8677 0.6581 -0.2176 0.618 -0.600 -0.508 148 87 27 0 0
-0.8657 0.6613 -0.2189 0.618 -0.600 -0.508 149 90 31 0 0
-0.8634 0.6634 -0.2199 0.563 -0.675 -0.477 142 85 27 0 0
-0.8587 0.6670 -0.2220 -0.092 -0.861 -0.501 142 84 28 0 0
-0.8469 0.6766 -0.2272 0.297 -0.902 0.314 145 83 29 0 0
-0.8445 0.6782 -0.2282 0.145 -0.922 0.359 166 109 40 0 0
-0.8364 0.6770 -0.2302 0.123 -0.984 0.128 144 97 33 0 0
-0.8241 0.6845 -0.2351 0.210 -0.903 0.374 155 110 43 0 0
-0.8215 0.6848 -0.2359 0.205 -0.876 0.435 166 122 46 0 0
-0.7694 0.8147 -0.2777 0.748 -0.192 0.636 204 183 103 0 0
-0.7665 0.8146 -0.2784 0.208 -0.737 0.643 204 179 98 0 0
-0.7638 0.8173 -0.2797 -0.539 -0.742 0.398 202 174 96 0 0
-0.3663 1.2651 -0.4830 0.834 -0.537 0.128 187 169 155 0 0
-0.3618 1.2711 -0.4855 0.871 -0.462 0.164 185 167 153 0 0
-0.3516 1.2921 -0.4928 0.833 -0.512 0.209 181 163 149 0 0
-0.3475 1.2948 -0.4944 0.643 -0.589 0.489 176 156 142 0 0
-0.3434 1.2978 -0.4962 0.536 -0.623 0.570 172 152 137 0 0
-0.2565 1.3296 -0.5266 -0.449 -0.799 0.400 169 146 131 0 0
-0.2058 1.3403 -0.5426 0.259 -0.848 0.462 194 178 167 0 0
-0.1940 1.3432 -0.5464 0.508 -0.754 0.417 192 178 167 0 0
-0.1706 1.3474 -0.5537 0.535 -0.181 0.825 176 158 148 0 0
-0.1660 1.3514 -0.5558 0.575 -0.178 0.799 186 170 160 0 0
-0.0051 1.4036 -0.6105 0.784 -0.584 0.211 180 165 157 0 0
0.0971 1.4034 -0.6383 0.600 -0.317 0.734 186 175 172 0 0
0.1393 1.4157 -0.6523 0.075 -0.302 0.950 189 178 177 0 0
-1.5900 1.0566 -0.1103 0.623 -0.327 0.710 192 171 146 0 0
-1.5868 1.0573 -0.1113 0.555 -0.202 0.807 188 167 144 0 0
-1.5433 1.0920 -0.1306 -0.419 -0.775 0.472 173 148 122 0 0
-1.4134 1.0774 -0.1627 -0.307 -0.940 0.149 202 184 162 0 0
-1.3934 1.1065 -0.1744 0.710 -0.640 0.294 166 135 112 0 0
-1.3713 1.1059 -0.1802 -0.135 -0.930 0.341 187 162 137 0 0
-1.3637 1.1049 -0.1821 0.669 -0.642 0.374 174 147 121 0 0
-1.3543 1.1085 -0.1854 0.318 -0.927 0.199 197 173 148 0 0
-1.2530 1.1621 -0.2244 -0.056 -0.607 0.793 197 172 148 0 0
-1.2499 1.1639 -0.2256 0.255 -0.433 0.865 194 169 144 0 0
-1.2224 1.1588 -0.2320 -0.235 -0.180 0.955 200 174 147 0 0
-1.0735 0.7172 -0.1774 -0.257 -0.805 -0.534 207 182 152 0 0
-1.0706 0.7171 -0.1781 -0.191 -0.798 -0.572 197 168 133 0 0
-1.0653 0.7179 -0.1798 -0.086 -0.876 -0.475 170 123 67 0 0
-0.9807 0.6716 -0.1927 0.139 -0.954 -0.264 89 56 22 0 0
-0.9007 0.6741 -0.2150 0.186 -0.956 0.229 166 98 18 0 0
-0.8938 0.6800 -0.2181 0.296 -0.917 -0.269 151 75 21 0 0
-0.8743 0.6611 -0.2193 -0.383 -0.737 -0.557 144 83 28 0 0
-0.8647 0.6666 -0.2231 0.545 -0.614 -0.571 146 86 30 0 0
-0.8493 0.6696 -0.2280 0.004 -0.927 -0.375 129 68 26 0 0
-0.8470 0.6717 -0.2290 0.428 -0.878 -0.213 135 74 27 0 0
-0.8451 0.6768 -0.2307 0.128 -0.941 0.312 148 88 30 0 0
-0.8245 0.6817 -0.2373 0.095 -0.835 0.542 155 110 42 0 0
-0.8163 0.7428 -0.2527 0.622 -0.202 -0.757 192 154 59 0 0
-0.8133 0.8094 -0.2678 0.785 -0.555 0.274 209 186 79 0 0
-0.7904 0.8124 -0.2747 -0.712 -0.631 -0.308 216 201 110 0 0
-0.7697 0.8089 -0.2795 0.605 -0.760 0.237 206 181 98 0 0
-0.7672 0.8132 -0.2811 0.546 -0.836 0.055 204 178 98 0 0
-0.7647 0.8173 -0.2827 0.556 -0.772 0.307 202 175 95 0 0
-0.7667 0.8742 -0.2944 0.655 -0.450 0.607 198 169 91 0 0
-0.3636 1.2641 -0.4876 0.740 -0.643 0.199 183 164 150 0 0
-0.3530 1.2882 -0.4957 0.860 -0.472 0.194 182 163 149 0 0
-0.3490 1.2902 -0.4972 0.722 -0.652 0.230 182 164 149 0 0
-0.3450 1.2928 -0.4988 0.643 -0.682 0.348 187 169 155 0 0
-0.3409 1.2952 -0.5004 0.237 -0.525 0.818 188 171 159 0 0
-0.3372 1.2953 -0.5015 0.237 -0.525 0.818 192 175 164 0 0
-0.3328 1.3000 -0.5037 -0.428 -0.819 0.383 195 179 167 0 0
-0.3293 1.2985 -0.5043 -0.410 -0.646 0.644 189 171 158 0 0
-0.3099 1.3047 -0.5109 0.642 -0.659 0.393 176 158 142 0 0
-0.2801 1.3059 -0.5192 0.784 -0.581 -0.219 166 140 126 0 0
-0.2613 1.3282 -0.5291 -0.356 -0.834 0.422 166 144 127 0 0
-0.2576 1.3281 -0.5301 -0.377 -0.751 0.542 173 151 136 0 0
-0.1942 1.3283 -0.5473 -0.081 -0.578 0.812 197 183 174 0 0
-0.0219 1.3876 -0.6068 -0.159 -0.951 -0.266 186 173 164 0 0
-0.0078 1.3969 -0.6127 0.649 -0.468 0.600 183 169 160 0 0
0.0794 1.3976 -0.6365 0.638 -0.634 0.437 173 159 151 0 0
0.0846 1.4020 -0.6388 0.605 -0.783 0.146 179 164 159 0 0
0.0888 1.4032 -0.6402 0.613 -0.788 -0.051 182 168 160 0 0
0.1091 1.4289 -0.6512 0.805 -0.588 0.079 183 169 165 0 0
0.2073 1.3984 -0.6713 0.128 -0.943 0.308 181 169 163 0 0
0.2784 1.4164 -0.6945 0.263 -0.348 0.900 189 178 176 0 0
0.2824 1.4170 -0.6957 0.287 -0.378 0.880 188 178 177 0 0
0.2866 1.4180 -0.6971 0.260 -0.380 0.888 189 178 177 0 0
0.2956 1.4215 -0.7003 0.516 -0.459 0.723 188 178 177 0 0
0.3389 1.4260 -0.7130 0.475 -0.871 0.126 190 179 177 0 0
-1.6309 1.0499 -0.1016 0.414 -0.548 0.727 182 162 137 0 0
-1.6055 1.0496 -0.1084 0.187 -0.657 0.730 177 152 126 0 0
-1.6022 1.0502 -0.1094 0.388 -0.817 0.426 175 150 122 0 0
-1.5971 1.0539 -0.1116 0.034 -0.736 0.676 191 170 145 0 0
-1.5809 1.0506 -0.1153 0.441 -0.163 0.882 188 166 142 0 0
-1.4014 1.1051 -0.1758 -0.088 -0.958 0.273 172 144 119 0 0
-1.3991 1.1082 -0.1771 0.178 -0.978 -0.113 169 140 116 0 0
-1.3916 1.1078 -0.1790 -0.059 -0.987 0.152 168 140 115 0 0
-1.3873 1.1063 -0.1798 -0.332 -0.771 0.543 180 152 127 0 0
-1.3836 1.1060 -0.1808 -0.359 -0.787 0.501 186 159 135 0 0
-1.3796 1.1051 -0.1817 -0.482 -0.634 0.605 187 160 136 0 0
-1.3735 1.0993 -0.1820 -0.425 -0.548 0.720 185 158 134 0 0
-1.3693 1.0977 -0.1829 0.250 -0.454 0.855 180 154 129 0 0
-1.3664 1.0994 -0.1840 0.475 -0.516 0.713 172 144 120 0 0
-1.3629 1.0998 -0.1850 0.639 -0.368 0.675 171 143 119 0 0
-1.3615 1.1054 -0.1866 0.660 -0.720 -0.216 182 156 131 0 0
-1.3577 1.1047 -0.1875 0.772 -0.416 0.480 193 169 143 0 0
-1.2346 1.1033 -0.2206 0.363 -0.887 0.284 180 151 123 0 0
-1.0722 0.7190 -0.1812 -0.431 -0.742 -0.514 211 186 158 0 0
-1.0665 0.7187 -0.1827 0.004 -0.991 -0.137 169 123 73 0 0
-1.0543 0.6970 -0.1812 -0.852 -0.523 -0.022 170 124 66 0 0
-0.8920 0.6802 -0.2216 0.169 -0.659 0.733 153 81 26 0 0
-0.8755 0.6628 -0.2223 -0.094 -0.995 0.020 144 84 30 0 0
-0.8509 0.6750 -0.2316 0.163 -0.975 0.153 124 61 24 0 0
-0.8483 0.6753 -0.2324 0.163 -0.975 0.153 133 71 27 0 0
-0.8457 0.6756 -0.2331 0.163 -0.975 0.153 146 83 29 0 0
-0.8403 0.6749 -0.2345 -0.210 -0.963 0.170 173 119 44 0 0
-0.8375 0.6742 -0.2351 -0.210 -0.963 0.170 161 110 38 0 0
-0.8164 0.8046 -0.2691 0.591 -0.744 0.313 204 178 69 0 0
-0.8132 0.8020 -0.2694 0.134 -0.598 0.791 206 183 76 0 0
-0.8108 0.8058 -0.2709 0.162 -0.612 0.774 214 193 91 0 0
-0.8031 0.8408 -0.2806 0.816 -0.071 0.574 218 202 110 0 0
-0.7882 0.8121 -0.2784 -0.671 -0.666 -0.327 217 200 109 0 0
-0.7699 0.8024 -0.2812 0.524 -0.806 0.275 204 180 94 0 0
-0.3633 1.2727 -0.4936 0.415 -0.747 0.519 187 169 155 0 0
-0.3590 1.2774 -0.4958 0.776 -0.560 0.290 185 167 153 0 0
-0.3544 1.2838 -0.4984 0.803 -0.543 0.246 183 165 151 0 0
-0.3505 1.2853 -0.4998 0.699 -0.678 0.227 185 167 153 0 0
-0.3427 1.2884 -0.5026 0.384 -0.477 0.790 191 174 162 0 0
-0.3389 1.2894 -0.5038 0.384 -0.477 0.790 191 174 161 0 0
-0.3351 1.2904 -0.5051 0.291 -0.411 0.864 192 175 162 0 0
-0.3318 1.2876 -0.5054 0.046 -0.335 0.941 187 169 156 0 0
-0.3277 1.2906 -0.5071 0.285 -0.392 0.875 186 168 154 0 0
-0.3037 1.3023 -0.5162 0.382 -0.781 0.494 179 158 144 0 0
-0.1959 1.3243 -0.5502 0.454 -0.474 0.755 187 170 159 0 0
-0.1521 1.3216 -0.5615 0.747 -0.496 0.443 187 173 165 0 0
0.0701 1.4056 -0.6400 -0.015 -0.248 0.969 165 147 137 0 0
0.0790 1.3983 -0.6408 0.649 -0.610 0.455 166 149 141 0 0
0.0832 1.3995 -0.6422 0.681 -0.705 0.197 169 151 143 0 0
0.0881 1.4028 -0.6442 0.613 -0.788 -0.051 171 154 147 0 0
0.2669 1.4084 -0.6939 0.683 -0.413 0.602 183 171 171 0 0
0.2733 1.4147 -0.6970 0.544 -0.413 0.730 181 170 168 0 0
0.2746 1.4090 -0.6961 0.242 -0.451 0.859 180 169 168 0 0
0.2927 1.4162 -0.7026 0.516 -0.502 0.694 186 176 174 0 0
0.3310 1.4182 -0.7134 0.340 -0.816 0.468 185 174 172 0 0
-1.6544 1.0695 -0.1033 0.038 -0.844 0.535 174 149 125 0 0
-1.6465 1.0685 -0.1052 0.359 -0.933 0.032 170 145 120 0 0
-1.6436 1.0697 -0.1063 0.120 -0.915 0.384 173 148 122 0 0
-1.6381 1.0665 -0.1071 -0.024 -0.743 0.669 174 151 126 0 0
-1.5740 1.0687 -0.1249 0.745 -0.303 0.594 192 173 147 0 0
-1.5537 1.0644 -0.1295 -0.272 -0.465 0.842 187 165 140 0 0
-1.5478 1.0600 -0.1301 -0.342 -0.470 0.814 187 165 138 0 0
-1.5451 1.0619 -0.1312 -0.014 -0.517 0.856 188 165 139 0 0
-1.3975 1.1014 -0.1799 0.093 -0.459 0.884 175 148 124 0 0
-1.3770 1.0958 -0.1842 0.095 -0.277 0.956 184 157 133 0 0
-1.2481 1.0870 -0.2172 0.514 -0.399 0.759 189 160 131 0 0
-1.2453 1.0891 -0.2184 0.593 -0.328 0.735 183 152 124 0 0
-1.2314 1.1010 -0.2248 0.368 -0.907 -0.206 175 144 116 0 0
-1.2184 1.1500 -0.2391 0.625 -0.249 0.740 194 166 141 0 0
-1.2185 1.1619 -0.2417 0.519 0.003 0.855 196 170 141 0 0
-1.0651 0.7205 -0.1864 0.190 -0.975 0.118 171 124 73 0 0
-0.9541 0.6655 -0.2045 -0.135 -0.990 0.030 153 104 34 0 0
-0.9258 0.6831 -0.2160 -0.063 -0.398 0.915 131 73 16 0 0
-0.8942 0.6732 -0.2224 0.545 -0.296 0.785 147 74 20 0 0
-0.8917 0.6742 -0.2233 0.405 -0.307 0.861 152 78 25 0 0
-0.8541 0.6734 -0.2333 -0.151 -0.988 0.023 124 60 25 0 0
-0.8466 0.6762 -0.2359 -0.222 -0.968 0.116 150 86 32 0 0
-0.8356 0.6739 -0.2384 -0.062 -0.997 -0.039 168 116 43 0 0
-0.8174 0.8058 -0.2723 0.412 -0.218 0.885 204 178 72 0 0
-0.7954 0.8166 -0.2806 -0.099 -0.812 0.576 215 198 104 0 0
-0.7760 0.7974 -0.2816 -0.528 -0.840 0.124 210 186 98 0 0
-0.7730 0.7957 -0.2821 -0.536 -0.829 0.158 207 182 95 0 0
-0.7639 0.8579 -0.2982 0.941 -0.128 0.313 199 170 95 0 0
-0.3261 1.2820 -0.5098 0.600 -0.300 0.741 190 173 160 0 0
-0.3221 1.2845 -0.5114 0.519 -0.305 0.799 191 175 162 0 0
-0.3177 1.2893 -0.5137 0.353 -0.286 0.891 194 178 164 0 0
-0.3045 1.3021 -0.5200 0.327 -0.677 0.659 194 176 163 0 0
-0.1633 1.3084 -0.5597 -0.099 -0.985 0.142 189 175 166 0 0
-0.0791 1.3492 -0.5914 0.439 -0.386 0.811 193 180 171 0 0
-0.0705 1.3532 -0.5946 0.709 -0.516 0.480 188 173 165 0 0
-0.0659 1.3563 -0.5966 0.467 -0.453 0.759 187 173 166 0 0
-0.0300 1.3774 -0.6109 0.121 -0.662 0.739 186 172 163 0 0
-0.0263 1.3771 -0.6119 0.121 -0.662 0.739 187 173 164 0 0
-0.0178 1.3807 -0.6150 0.652 -0.580 0.488 186 172 163 0 0
0.0775 1.3959 -0.6441 0.670 -0.656 0.348 163 147 139 0 0
0.0818 1.3975 -0.6456 0.666 -0.735 0.127 166 150 142 0 0
0.2657 1.3983 -0.6956 0.399 -0.582 0.709 177 166 164 0 0
0.2693 1.3980 -0.6965 -0.099 -0.671 0.735 178 167 164 0 0
-1.7679 1.0279 -0.0672 0.232 -0.381 0.895 190 168 143 0 0
-1.7610 1.0283 -0.0692 0.154 -0.395 0.906 190 169 145 0 0
-1.7329 1.0350 -0.0783 -0.029 -0.225 0.974 186 166 141 0 0
-1.7347 1.0610 -0.0835 -0.323 -0.425 0.846 194 174 153 0 0
-1.6606 1.0652 -0.1045 0.387 -0.921 0.048 164 137 112 0 0
-1.6357 1.0597 -0.1101 0.037 -0.561 0.827 166 139 114 0 0
-1.5741 1.0594 -0.1267 0.452 -0.303 0.839 180 156 133 0 0
-1.5439 1.0568 -0.1343 0.097 -0.524 0.846 178 154 128 0 0
-1.5351 1.0677 -0.1391 0.130 -0.776 0.617 188 166 142 0 0
-1.3984 1.0921 -0.1815 0.001 -0.625 0.781 188 161 135 0 0
-1.3970 1.0972 -0.1830 0.062 -0.652 0.756 189 163 140 0 0
-1.3377 1.0935 -0.1982 0.201 -0.871 0.448 179 152 125 0 0
-1.2471 1.0805 -0.2199 -0.026 -0.503 0.864 186 157 128 0 0
-1.2441 1.0821 -0.2211 0.637 -0.265 0.724 183 152 124 0 0
-1.2193 1.1376 -0.2401 -0.361 -0.377 0.853 196 169 142 0 0
-1.2149 1.1352 -0.2407 -0.379 -0.588 0.715 194 165 138 0 0
-1.0662 0.7209 -0.1893 0.555 -0.779 0.291 170 124 76 0 0
-1.0638 0.7223 -0.1902 0.616 -0.751 0.236 170 123 73 0 0
-0.9577 0.6659 -0.2065 0.246 -0.968 0.057 162 113 40 0 0
-0.9549 0.6654 -0.2071 0.120 -0.952 0.281 156 107 40 0 0
-0.9397 0.6933 -0.2174 -0.246 -0.931 0.270 131 68 26 0 0
-0.8781 0.6684 -0.2286 -0.306 -0.941 -0.144 139 71 35 0 0
-0.8478 0.6787 -0.2391 -0.477 -0.869 -0.130 150 86 34 0 0
-0.8069 0.8081 -0.2788 0.635 -0.185 0.750 217 200 101 0 0
-0.7958 0.8124 -0.2827 0.638 -0.567 -0.522 214 196 101 0 0
-0.7800 0.8003 -0.2843 0.066 -0.993 -0.096 211 188 101 0 0
-0.2864 1.2835 -0.5250 0.543 -0.074 0.836 197 180 169 0 0
-0.2469 1.2800 -0.5349 0.372 -0.315 0.873 202 188 180 0 0
-0.1991 1.3164 -0.5559 0.716 -0.495 0.493 165 144 129 0 0
-0.1193 1.3258 -0.5796 0.289 -0.798 0.529 194 183 174 0 0
-0.1155 1.3262 -0.5807 0.465 -0.799 0.381 196 185 176 0 0
-0.0964 1.3287 -0.5864 0.067 -0.842 0.535 193 180 171 0 0
-0.0865 1.3381 -0.5912 0.532 -0.719 0.447 195 185 175 0 0
-0.0812 1.3439 -0.5939 0.415 -0.695 0.587 196 184 175 0 0
-0.0773 1.3445 -0.5951 0.721 -0.601 0.345 195 181 172 0 0
-0.0724 1.3490 -0.5974 0.734 -0.591 0.335 193 178 170 0 0
-0.0678 1.3521 -0.5993 0.398 -0.715 0.575 193 178 171 0 0
-0.0645 1.3507 -0.5999 0.174 -0.496 0.851 193 179 171 0 0
-0.0606 1.3514 -0.6011 0.224 -0.361 0.905 194 181 173 0 0
-0.0557 1.3556 -0.6034 0.574 -0.410 0.709 198 185 177 0 0
-0.0255 1.3695 -0.6147 0.497 -0.152 0.854 186 170 160 0 0
0.0676 1.3909 -0.6446 0.268 -0.303 0.915 179 166 160 0 0
0.0708 1.3891 -0.6451 0.705 -0.590 0.394 184 171 166 0 0
0.0757 1.3924 -0.6471 0.670 -0.656 0.348 180 167 161 0 0
0.0806 1.3960 -0.6493 0.666 -0.712 0.224 174 161 154 0 0
0.2628 1.3928 -0.6979 0.230 -0.552 0.802 181 169 168 0 0
0.2675 1.3951 -0.6997 0.022 -0.579 0.815 177 166 162 0 0
-1.7558 1.0631 -0.0821 0.174 -0.047 0.984 180 158 135 0 0
-1.7250 1.0490 -0.0873 0.096 -0.213 0.972 190 170 148 0 0
-1.7171 1.0479 -0.0892 0.189 -0.168 0.968 193 175 153 0 0
-1.6550 1.0655 -0.1100 0.133 -0.796 0.590 167 142 116 0 0
-1.6080 1.0402 -0.1170 0.052 -0.698 0.714 169 143 117 0 0
-1.5723 1.0535 -0.1297 0.607 -0.349 0.714 181 158 133 0 0
-1.4065 1.0826 -0.1810 0.488 -0.670 0.560 185 159 136 0 0
-1.3979 1.0877 -0.1845 0.221 -0.709 0.670 191 167 143 0 0
-1.3961 1.0921 -0.1860 -0.013 -0.819 0.574 186 162 136 0 0
-1.2467 1.0759 -0.2228 -0.028 -0.692 0.721 187 157 129 0 0
-1.2431 1.0758 -0.2237 0.775 -0.403 0.487 186 157 129 0 0
-1.2366 1.0879 -0.2282 0.867 -0.128 0.482 184 154 131 0 0
-1.2285 1.1395 -0.2419 0.111 -0.372 0.922 195 168 143 0 0
-1.2260 1.1432 -0.2434 0.195 -0.461 0.866 194 166 139 0 0
-1.2213 1.1398 -0.2440 -0.052 -0.651 0.758 195 164 137 0 0
-1.2166 1.1368 -0.2445 -0.558 -0.679 0.477 192 162 133 0 0
-1.2117 1.1328 -0.2450 -0.488 -0.591 0.642 193 163 135 0 0
-1.0697 0.7202 -0.1912 0.936 -0.294 0.195 188 150 118 0 0
-1.0670 0.7204 -0.1920 0.707 -0.673 0.216 173 128 89 0 0
-1.0648 0.7226 -0.1931 0.829 -0.523 0.200 170 125 79 0 0
-1.0615 0.7210 -0.1936 0.355 -0.824 -0.442 170 123 72 0 0
-0.9903 0.6536 -0.1978 0.226 -0.974 0.004 128 91 49 0 0
-0.9870 0.6720 -0.2028 0.254 -0.956 -0.145 84 52 21 0 0
-0.9845 0.6728 -0.2037 0.254 -0.956 -0.145 88 56 22 0 0
-0.9744 0.6755 -0.2070 -0.059 -0.987 -0.146 120 81 30 0 0
-0.9584 0.6650 -0.2090 0.432 -0.868 0.243 163 114 44 0 0
-0.9556 0.6645 -0.2096 0.282 -0.868 0.409 157 108 37 0 0
-0.9393 0.6878 -0.2193 0.611 -0.775 -0.163 128 65 27 0 0
-0.8861 0.6642 -0.2284 -0.300 -0.725 0.620 136 67 32 0 0
-0.8831 0.6625 -0.2288 -0.417 -0.755 0.507 137 68 32 0 0
-0.8637 0.6733 -0.2365 0.298 -0.952 -0.070 123 57 24 0 0
-0.8612 0.6742 -0.2373 0.298 -0.952 -0.070 123 57 23 0 0
-0.8552 0.6700 -0.2380 -0.159 -0.939 0.304 127 62 28 0 0
-0.8052 0.8108 -0.2831 0.873 -0.244 0.423 217 199 102 0 0
-0.6673 1.1535 -0.3969 0.654 -0.204 0.729 205 187 169 0 0
-0.1854 1.2981 -0.5596 0.434 -0.393 0.811 176 158 144 0 0
-0.1206 1.3235 -0.5829 0.303 -0.952 0.031 192 180 169 0 0
-0.1164 1.3254 -0.5844 0.397 -0.916 0.063 194 180 172 0 0
-0.1130 1.3244 -0.5851 0.288 -0.954 -0.084 193 180 170 0 0
-0.1083 1.3282 -0.5873 0.707 -0.659 0.257 194 181 171 0 0
-0.0969 1.3292 -0.5906 0.387 -0.805 0.450 191 178 168 0 0
-0.0838 1.3371 -0.5959 -0.413 -0.811 0.415 192 179 170 0 0
-0.0794 1.3394 -0.5976 0.701 -0.616 0.360 191 178 169 0 0
-0.0746 1.3436 -0.5998 0.701 -0.616 0.360 191 177 169 0 0
-0.0699 1.3470 -0.6018 0.207 -0.508 0.836 189 175 166 0 0
-0.0347 1.3662 -0.6157 0.572 -0.296 0.765 189 174 164 0 0
-0.0312 1.3651 -0.6163 0.360 -0.308 0.881 189 175 166 0 0
-0.0266 1.3681 -0.6183 0.415 -0.238 0.878 188 174 165 0 0
-0.0232 1.3668 -0.6189 0.482 -0.271 0.833 188 173 163 0 0
-0.0199 1.3655 -0.6195 0.117 -0.317 0.941 188 174 166 0 0
0.0728 1.3859 -0.6492 0.668 -0.694 0.269 189 178 174 0 0
0.1763 1.3450 -0.6680 0.779 -0.471 0.414 182 170 161 0 0
0.1821 1.3503 -0.6708 0.668 -0.530 0.523 180 167 159 0 0
-1.6899 1.0544 -0.1019 -0.266 -0.426 0.865 183 161 136 0 0
-1.6080 1.0377 -0.1203 0.160 -0.883 0.441 162 136 109 0 0
-1.5406 1.0384 -0.1386 -0.449 -0.536 0.715 188 166 142 0 0
-1.3995 1.0800 -0.1862 0.386 -0.666 0.639 196 174 150 0 0
-1.3418 1.0794 -0.2017 0.751 -0.538 0.383 197 174 151 0 0
-1.3392 1.0818 -0.2029 0.843 -0.351 0.408 201 178 154 0 0
-1.2467 1.0722 -0.2258 -0.072 -0.545 0.836 193 165 137 0 0
-1.2266 1.1188 -0.2417 -0.230 -0.300 0.926 196 169 143 0 0
-1.2242 1.1226 -0.2432 0.111 -0.984 0.141 190 163 137 0 0
-1.2208 1.1232 -0.2443 -0.084 -0.963 0.255 189 158 131 0 0
-1.2174 1.1240 -0.2454 -0.525 -0.715 0.463 183 149 120 0 0
-1.0654 0.7214 -0.1957 0.602 -0.798 -0.035 172 128 85 0 0
-1.0626 0.7215 -0.1965 0.610 -0.742 -0.278 171 125 75 0 0
-1.0008 0.6498 -0.1970 0.237 -0.949 -0.207 90 56 24 0 0
-0.9984 0.6510 -0.1979 0.359 -0.923 -0.141 102 67 30 0 0
-0.9912 0.6539 -0.2005 0.276 -0.960 -0.043 93 59 26 0 0
-0.9882 0.6730 -0.2057 0.068 -0.988 -0.135 87 54 22 0 0
-0.9855 0.6733 -0.2064 0.068 -0.988 -0.135 98 65 30 0 0
-0.9779 0.6754 -0.2090 0.226 -0.969 -0.101 95 62 21 0 0
-0.9753 0.6755 -0.2097 0.203 -0.977 -0.059 94 61 22 0 0
-0.8695 0.6713 -0.2374 0.659 -0.746 -0.100 122 57 26 0 0
-0.8620 0.6743 -0.2401 0.246 -0.968 -0.051 127 61 28 0 0
-0.8595 0.6750 -0.2409 0.246 -0.968 -0.051 128 63 28 0 0
-0.8560 0.6702 -0.2408 -0.063 -0.980 0.190 130 65 30 0 0
-0.8492 0.6773 -0.2442 -0.071 -0.991 -0.115 139 75 27 0 0
-0.8352 0.6916 -0.2512 -0.068 -0.888 0.455 152 99 31 0 0
-0.8300 0.6931 -0.2530 0.054 -0.551 0.833 153 103 32 0 0
-0.8258 0.7210 -0.2604 0.082 -0.288 -0.954 162 115 39 0 0
-0.7861 0.8153 -0.2924 0.280 -0.769 -0.575 209 185 92 0 0
-0.7643 0.7687 -0.2878 0.070 -0.829 -0.554 202 171 84 0 0
-0.4685 1.1995 -0.4650 0.273 -0.653 0.706 187 165 145 0 0
-0.3413 1.2457 -0.5098 0.693 -0.295 0.658 181 162 148 0 0
-0.3007 1.2517 -0.5221 0.523 -0.173 0.835 194 178 166 0 0
-0.1882 1.2888 -0.5609 -0.188 -0.631 0.753 178 159 145 0 0
-0.1822 1.2833 -0.5613 -0.228 -0.634 0.739 173 154 140 0 0
-0.1780 1.2860 -0.5631 0.258 -0.745 0.615 170 152 137 0 0
-0.1255 1.3217 -0.5853 -0.104 -0.679 0.727 182 165 153 0 0
-0.1225 1.3188 -0.5854 -0.030 -0.999 0.027 181 164 152 0 0
-0.1191 1.3175 -0.5861 -0.433 -0.898 0.073 183 165 155 0 0
-0.1163 1.3143 -0.5861 -0.557 -0.782 0.279 185 169 158 0 0
-0.0803 1.3389 -0.6014 0.703 -0.630 0.331 185 169 159 0 0
-0.0746 1.3461 -0.6046 0.385 -0.452 0.805 184 168 156 0 0
-0.0717 1.3431 -0.6047 0.503 -0.596 0.626 183 167 156 0 0
-0.0685 1.3412 -0.6051 0.125 -0.548 0.827 187 173 163 0 0
-0.0605 1.3433 -0.6078 0.348 -0.574 0.741 190 177 168 0 0
-0.0572 1.3419 -0.6083 0.570 -0.557 0.604 191 178 169 0 0
-0.0440 1.3491 -0.6135 0.530 -0.417 0.739 192 179 170 0 0
0.0171 1.3664 -0.6339 -0.204 -0.978 -0.033 182 167 159 0 0
-1.7371 1.0347 -0.0885 -0.071 -0.294 0.953 187 167 143 0 0
-1.6954 1.0491 -0.1030 0.522 -0.004 0.853 183 162 137 0 0
-1.6918 1.0491 -0.1040 -0.181 -0.325 0.928 182 161 137 0 0
-1.6846 1.0432 -0.1046 -0.195 -0.330 0.924 182 160 137 0 0
-1.2476 1.0715 -0.2292 0.052 -0.579 0.814 196 170 144 0 0
-1.2250 1.1103 -0.2441 -0.246 -0.303 0.921 193 166 140 0 0
-1.1997 1.1099 -0.2509 0.902 -0.255 -0.349 191 159 130 0 0
-1.1986 1.1179 -0.2530 0.901 -0.148 0.408 197 168 140 0 0
-1.0619 0.7068 -0.1964 -0.645 -0.613 0.457 178 137 100 0 0
-1.0577 0.7022 -0.1965 -0.697 -0.593 0.403 173 126 82 0 0
-1.0535 0.6974 -0.1965 -0.628 -0.596 0.500 171 123 72 0 0
-1.0520 0.7017 -0.1979 -0.849 -0.478 0.228 169 120 65 0 0
-1.0041 0.6491 -0.1988 0.221 -0.932 -0.286 113 72 31 0 0
-0.9920 0.6538 -0.2032 0.276 -0.960 -0.043 86 55 24 0 0
-0.9895 0.6545 -0.2040 -0.087 -0.995 0.050 87 56 22 0 0
