ply
format ascii 1.0
element vertex 820
property float x
property float y
property float z
property float nx
property float ny
property float nz
property uchar diffuse_red
property uchar diffuse_green
property uchar diffuse_blue
property uchar class
property uchar detection
end_header
-1.5670 1.0586 -0.1346 0.016 -0.432 0.902 177 159 135 0 0
-1.5644 1.0568 -0.1356 0.016 -0.432 0.902 173 154 130 0 0
-1.5619 1.0556 -0.1367 0.093 -0.410 0.907 184 167 142 0 0
-1.5598 1.0561 -0.1383 0.172 -0.792 0.586 191 175 151 0 0
-1.5523 1.0518 -0.1414 -0.597 -0.801 0.053 187 171 147 0 0
-1.5285 1.0566 -0.1588 0.187 -0.273 0.944 188 172 151 0 0
-1.5228 1.0499 -0.1598 -0.292 -0.096 0.951 191 174 153 0 0
-1.5197 1.0449 -0.1598 -0.273 -0.123 0.954 191 174 154 0 0
-1.5132 1.0471 -0.1649 0.414 -0.518 0.748 186 167 144 0 0
-1.5111 1.0477 -0.1665 0.314 -0.604 0.732 187 169 146 0 0
-1.5086 1.0464 -0.1676 0.256 -0.534 0.806 187 168 144 0 0
-1.5062 1.0456 -0.1688 0.256 -0.534 0.806 184 164 140 0 0
-1.5041 1.0469 -0.1707 0.512 -0.463 0.723 178 158 134 0 0
-1.5018 1.0471 -0.1722 0.383 -0.421 0.822 181 162 137 0 0
-1.4995 1.0468 -0.1736 0.207 -0.258 0.944 193 175 154 0 0
-1.4967 1.0435 -0.1741 -0.226 -0.103 0.969 202 186 166 0 0
-1.4845 1.0229 -0.1738 -0.068 -0.076 0.995 191 174 153 0 0
-1.4814 1.0177 -0.1737 -0.141 -0.154 0.978 195 180 160 0 0
-1.4788 1.0153 -0.1745 0.068 -0.199 0.978 197 184 165 0 0
-1.4606 1.0329 -0.1933 -0.533 -0.764 0.364 132 112 90 0 0
-1.4587 1.0362 -0.1959 -0.450 -0.382 0.807 133 111 90 0 0
-1.4558 1.0323 -0.1961 -0.450 -0.382 0.807 148 123 103 0 0
-1.4532 1.0301 -0.1969 -0.505 -0.346 0.791 176 152 129 0 0
-1.4510 1.0313 -0.1988 0.213 -0.850 0.482 192 173 148 0 0
-1.4488 1.0323 -0.2007 0.405 -0.738 0.540 190 170 146 0 0
-1.4416 1.0306 -0.2047 -0.651 -0.263 0.712 181 161 135 0 0
-1.4383 1.0231 -0.2038 -0.565 -0.378 0.734 182 162 135 0 0
-1.4355 1.0192 -0.2040 -0.527 -0.393 0.754 180 158 131 0 0
-1.4328 1.0152 -0.2043 0.413 -0.591 0.693 182 161 134 0 0
-1.4302 1.0136 -0.2053 0.103 -0.697 0.709 176 155 129 0 0
-1.4274 1.0088 -0.2052 -0.385 -0.447 0.807 175 153 129 0 0
-1.4249 1.0080 -0.2064 -0.230 -0.481 0.846 178 156 132 0 0
-1.4223 1.0052 -0.2070 -0.296 -0.488 0.821 180 160 133 0 0
-1.4167 0.9963 -0.2071 -0.634 -0.171 0.755 188 170 146 0 0
-1.3799 1.0081 -0.2357 0.255 -0.107 0.961 194 177 155 0 0
-1.3775 1.0073 -0.2369 0.234 -0.075 0.969 192 174 153 0 0
-1.3526 0.9981 -0.2493 -0.104 -0.762 0.639 178 156 132 0 0
-1.3502 0.9976 -0.2508 -0.307 -0.713 0.630 177 154 128 0 0
-1.3476 0.9941 -0.2511 0.555 -0.498 0.666 176 154 129 0 0
-1.3427 0.9945 -0.2543 -0.033 -0.449 0.893 175 151 126 0 0
-1.3375 0.9891 -0.2555 -0.304 -0.368 0.879 174 149 124 0 0
-1.3324 0.9835 -0.2566 -0.341 -0.305 0.889 186 163 139 0 0
-1.3299 0.9823 -0.2578 -0.029 -0.365 0.930 186 163 139 0 0
-1.3274 0.9807 -0.2587 0.399 -0.587 0.705 184 161 137 0 0
-1.3151 0.9789 -0.2660 0.289 -0.455 0.842 184 160 136 0 0
-1.3125 0.9760 -0.2665 0.346 -0.352 0.870 199 179 159 0 0
-1.3101 0.9752 -0.2678 0.346 -0.352 0.870 202 186 167 0 0
-1.3076 0.9739 -0.2689 0.314 -0.242 0.918 200 183 164 0 0
-1.3026 0.9734 -0.2719 0.407 -0.399 0.821 185 162 138 0 0
-1.2977 0.9713 -0.2743 0.396 -0.735 0.550 186 161 137 0 0
-1.2927 0.9694 -0.2767 -0.104 -0.853 0.511 182 156 133 0 0
-1.2902 0.9683 -0.2779 -0.104 -0.853 0.511 180 154 129 0 0
-1.2803 0.9688 -0.2846 -0.105 -0.669 0.736 176 146 119 0 0
-1.2777 0.9651 -0.2847 -0.323 -0.573 0.753 176 146 120 0 0
-1.2752 0.9639 -0.2859 -0.252 -0.466 0.848 181 153 127 0 0
-1.2727 0.9614 -0.2865 -0.252 -0.466 0.848 186 159 135 0 0
-1.2702 0.9596 -0.2874 -0.199 -0.414 0.888 187 158 136 0 0
-1.2677 0.9563 -0.2877 -0.066 -0.416 0.907 183 154 130 0 0
-1.2652 0.9532 -0.2881 -0.130 -0.445 0.886 177 146 121 0 0
-1.2602 0.9502 -0.2901 0.032 -0.526 0.850 177 147 122 0 0
-1.2577 0.9490 -0.2912 0.175 -0.601 0.780 182 152 128 0 0
-1.2552 0.9504 -0.2934 0.085 -0.622 0.778 186 156 133 0 0
-1.2528 0.9493 -0.2946 0.085 -0.622 0.778 188 159 135 0 0
-1.2503 0.9489 -0.2961 0.378 -0.745 0.550 190 164 143 0 0
-1.2478 0.9491 -0.2978 0.416 -0.745 0.521 192 165 144 0 0
-1.2217 0.8887 -0.2905 -0.389 -0.768 -0.508 168 114 97 0 0
-1.2192 0.8880 -0.2918 -0.428 -0.757 -0.493 173 102 86 0 0
-1.2066 0.8968 -0.3035 -0.700 -0.714 0.006 200 81 64 0 0
-1.1947 0.8853 -0.3066 0.331 -0.899 0.286 204 82 64 0 0
-1.1589 0.8277 -0.3069 0.783 -0.489 0.385 217 92 70 0 0
-1.1568 0.8231 -0.3064 0.813 -0.311 0.493 217 92 71 0 0
-1.1373 0.7966 -0.3084 -0.645 -0.130 0.753 217 93 72 0 0
-1.1351 0.7939 -0.3088 -0.260 -0.732 0.630 216 93 72 0 0
-1.0969 0.7672 -0.3229 0.090 -0.114 0.989 204 105 54 0 0
-1.0946 0.7658 -0.3238 0.210 -0.143 0.967 204 102 52 0 0
-1.0923 0.7649 -0.3249 0.097 -0.121 0.988 201 88 47 0 0
-1.0830 0.7616 -0.3297 0.342 -0.233 0.910 200 70 38 0 0
-1.0759 0.7597 -0.3335 -0.428 -0.544 0.722 191 64 37 0 0
-1.0698 0.7514 -0.3341 -0.524 -0.571 0.631 166 54 31 0 0
-1.0586 0.7441 -0.3385 -0.409 -0.839 0.359 143 45 27 0 0
-1.0564 0.7424 -0.3392 -0.485 -0.809 0.332 140 44 25 0 0
-1.0498 0.7379 -0.3417 0.227 -0.392 0.892 133 44 24 0 0
-1.0479 0.7347 -0.3417 -0.024 -0.626 0.780 137 46 24 0 0
-0.9894 0.6501 -0.3458 -0.618 -0.687 -0.384 193 111 35 0 0
-0.9873 0.6489 -0.3467 -0.072 -0.992 0.101 194 113 36 0 0
-0.9799 0.6493 -0.3516 0.298 -0.535 0.790 184 87 27 0 0
-0.9774 0.6495 -0.3533 0.152 -0.945 0.289 175 74 28 0 0
-0.9748 0.6502 -0.3553 0.094 -0.982 -0.165 158 62 31 0 0
-0.8046 0.7129 -0.4906 0.169 -0.477 0.863 178 71 58 0 0
-0.7497 0.7555 -0.5431 0.531 -0.604 0.594 134 94 79 0 0
-0.7269 0.7377 -0.5509 0.316 -0.616 0.721 187 165 147 0 0
-0.5832 0.7039 -0.6305 0.506 -0.289 0.813 181 161 140 0 0
-0.5061 0.6570 -0.6617 -0.651 -0.036 0.758 184 167 148 0 0
-0.4179 0.6366 -0.7107 -0.548 -0.545 -0.635 167 147 128 0 0
-0.2858 0.5590 -0.7653 0.623 -0.423 0.658 180 164 149 0 0
-1.7611 1.1330 -0.0421 -0.492 -0.575 0.654 175 154 134 0 0
-1.7580 1.1296 -0.0428 -0.492 -0.575 0.654 176 156 132 0 0
-1.7548 1.1260 -0.0434 -0.460 -0.556 0.693 183 165 141 0 0
-1.7511 1.1206 -0.0436 -0.514 -0.533 0.672 179 161 139 0 0
-1.7493 1.1213 -0.0451 -0.585 -0.680 0.442 175 154 130 0 0
-1.7476 1.1296 -0.0495 -0.626 -0.625 0.466 169 146 122 0 0
-1.7434 1.1227 -0.0495 0.076 -0.706 0.705 165 144 117 0 0
-1.7411 1.1219 -0.0506 0.246 -0.709 0.660 161 139 115 0 0
-1.7380 1.1184 -0.0513 0.086 -0.996 0.020 163 142 116 0 0
-1.7361 1.1189 -0.0527 -0.708 -0.571 0.417 164 143 117 0 0
-1.7336 1.1176 -0.0538 -0.664 -0.593 0.455 162 140 115 0 0
-1.7308 1.1152 -0.0547 -0.595 -0.651 0.471 169 148 124 0 0
-1.7276 1.1112 -0.0551 -0.612 -0.714 0.340 171 151 126 0 0
-1.7104 1.1175 -0.0688 -0.312 -0.491 0.813 178 159 134 0 0
-1.7063 1.1102 -0.0686 -0.331 -0.314 0.890 178 158 133 0 0
-1.7030 1.1058 -0.0689 -0.638 -0.388 0.665 177 157 133 0 0
-1.6986 1.0977 -0.0685 -0.431 -0.395 0.811 175 155 130 0 0
-1.6956 1.0941 -0.0691 -0.254 -0.876 0.409 169 149 123 0 0
-1.6932 1.0931 -0.0702 -0.131 -0.902 0.412 168 148 122 0 0
-1.6875 1.0876 -0.0717 -0.213 -0.300 0.930 182 164 140 0 0
-1.6836 1.0810 -0.0715 -0.139 -0.372 0.918 187 170 148 0 0
-1.6800 1.0831 -0.0747 -0.122 -0.250 0.961 178 159 135 0 0
-1.6639 1.0864 -0.0865 0.140 -0.174 0.975 181 161 136 0 0
-1.6610 1.0833 -0.0872 -0.158 -0.107 0.982 178 158 133 0 0
-1.6566 1.0826 -0.0898 -0.397 -0.256 0.882 180 162 138 0 0
-1.6497 1.0721 -0.0900 -0.175 -0.304 0.936 191 174 151 0 0
-1.6468 1.0689 -0.0906 0.261 -0.437 0.861 188 171 147 0 0
-1.6444 1.0679 -0.0917 0.460 -0.673 0.580 183 164 140 0 0
-1.6371 1.0641 -0.0949 0.445 -0.894 -0.059 172 151 126 0 0
-1.6354 1.0657 -0.0967 -0.485 -0.486 0.727 174 153 128 0 0
-1.6329 1.0643 -0.0978 -0.087 -0.255 0.963 177 157 132 0 0
-1.6301 1.0614 -0.0984 -0.094 -0.291 0.952 181 164 141 0 0
-1.6047 1.0538 -0.1118 -0.185 -0.314 0.931 183 163 137 0 0
-1.6000 1.0518 -0.1141 -0.357 -0.337 0.871 184 167 142 0 0
-1.5966 1.0463 -0.1141 -0.251 -0.375 0.892 185 167 143 0 0
-1.5941 1.0445 -0.1150 -0.447 -0.508 0.737 184 166 143 0 0
-1.5912 1.0411 -0.1155 -0.287 -0.461 0.840 185 166 142 0 0
-1.5888 1.0401 -0.1166 -0.465 -0.552 0.692 183 164 141 0 0
-1.5859 1.0364 -0.1171 -0.537 -0.545 0.644 180 161 137 0 0
-1.5704 1.0569 -0.1353 0.059 -0.263 0.963 178 160 137 0 0
-1.5679 1.0552 -0.1363 -0.037 -0.297 0.954 181 163 140 0 0
-1.5652 1.0526 -0.1370 -0.037 -0.297 0.954 192 175 152 0 0
-1.5628 1.0518 -0.1382 0.128 -0.421 0.898 193 177 153 0 0
-1.5606 1.0517 -0.1396 0.260 -0.755 0.601 192 176 151 0 0
-1.5582 1.0509 -0.1409 0.097 -0.868 0.486 191 174 150 0 0
-1.5536 1.0503 -0.1436 0.383 -0.728 0.568 188 170 146 0 0
-1.5520 1.0536 -0.1460 -0.360 -0.909 -0.211 187 169 145 0 0
-1.5488 1.0482 -0.1459 -0.569 -0.671 0.475 184 167 143 0 0
-1.5344 1.0555 -0.1582 -0.041 -0.323 0.945 188 172 149 0 0
-1.5317 1.0531 -0.1589 0.021 -0.302 0.953 187 170 147 0 0
-1.5262 1.0474 -0.1602 -0.249 -0.231 0.941 184 165 142 0 0
-1.5233 1.0432 -0.1605 -0.305 -0.335 0.892 188 170 149 0 0
-1.5202 1.0385 -0.1605 -0.382 -0.290 0.877 189 172 151 0 0
-1.5179 1.0379 -0.1618 0.036 -0.514 0.857 186 169 145 0 0
-1.5143 1.0439 -0.1665 0.414 -0.518 0.748 183 163 139 0 0
-1.5094 1.0416 -0.1688 0.107 -0.495 0.862 180 160 136 0 0
-1.4973 1.0371 -0.1749 -0.284 -0.078 0.956 198 181 161 0 0
-1.4941 1.0308 -0.1744 -0.284 -0.078 0.956 196 181 159 0 0
-1.4911 1.0264 -0.1746 -0.221 -0.040 0.975 190 173 152 0 0
-1.4878 1.0190 -0.1738 -0.047 -0.029 0.998 187 169 147 0 0
-1.4853 1.0176 -0.1748 -0.160 -0.203 0.966 192 176 155 0 0
-1.4822 1.0120 -0.1746 -0.192 -0.330 0.924 198 184 167 0 0
-1.4794 1.0087 -0.1750 -0.222 -0.385 0.896 198 186 169 0 0
-1.4639 1.0286 -0.1931 0.314 -0.513 0.799 125 104 84 0 0
-1.4620 1.0314 -0.1955 -0.267 -0.545 0.795 124 103 82 0 0
-1.4598 1.0326 -0.1974 -0.281 -0.253 0.926 128 106 84 0 0
-1.4569 1.0286 -0.1976 -0.281 -0.253 0.926 139 115 95 0 0
-1.4545 1.0279 -0.1989 -0.421 -0.318 0.850 170 146 122 0 0
-1.4521 1.0273 -0.2002 0.138 -0.453 0.881 186 165 140 0 0
-1.4496 1.0261 -0.2014 0.073 -0.271 0.960 188 167 143 0 0
-1.4369 1.0172 -0.2061 -0.325 -0.326 0.888 185 163 139 0 0
-1.4288 1.0075 -0.2074 -0.314 -0.586 0.747 167 144 120 0 0
-1.4266 1.0089 -0.2094 0.583 -0.613 0.532 168 143 119 0 0
-1.4236 1.0028 -0.2089 -0.411 -0.613 0.674 172 149 125 0 0
-1.4184 0.9974 -0.2102 -0.882 -0.286 0.374 168 144 121 0 0
-1.4121 0.9812 -0.2077 -0.823 -0.321 0.469 163 138 116 0 0
-1.4092 0.9761 -0.2075 -0.697 -0.468 0.544 174 151 128 0 0
-1.4011 0.9877 -0.2175 0.348 -0.657 0.669 181 160 137 0 0
-1.3941 0.9888 -0.2224 -0.055 -0.281 0.958 181 161 137 0 0
-1.3660 0.9944 -0.2429 0.597 -0.375 0.709 191 171 147 0 0
-1.3635 0.9924 -0.2438 0.636 -0.458 0.621 190 170 145 0 0
-1.3561 0.9896 -0.2474 0.261 -0.413 0.873 179 156 132 0 0
-1.3514 0.9918 -0.2514 0.250 -0.459 0.852 179 156 132 0 0
-1.3444 0.9975 -0.2582 -0.672 -0.641 0.371 167 141 117 0 0
-1.3418 0.9945 -0.2587 -0.672 -0.641 0.371 168 141 118 0 0
-1.3392 0.9915 -0.2592 -0.688 -0.595 0.415 175 150 126 0 0
-1.3364 0.9846 -0.2582 -0.544 -0.406 0.734 183 160 136 0 0
-1.3338 0.9807 -0.2583 -0.260 -0.370 0.892 184 163 138 0 0
-1.3312 0.9781 -0.2589 0.288 -0.459 0.840 185 162 137 0 0
-1.3165 0.9743 -0.2670 0.136 -0.301 0.944 189 168 144 0 0
-1.3139 0.9725 -0.2679 0.147 -0.342 0.928 194 175 152 0 0
-1.3114 0.9706 -0.2688 0.081 -0.308 0.948 194 175 154 0 0
-1.3089 0.9677 -0.2693 0.085 -0.202 0.976 195 176 155 0 0
-1.3064 0.9678 -0.2709 0.314 -0.242 0.918 191 170 147 0 0
-1.2991 0.9687 -0.2760 0.323 -0.843 0.430 176 151 126 0 0
-1.2817 0.9633 -0.2852 0.648 -0.638 0.416 177 148 122 0 0
-1.2792 0.9619 -0.2862 -0.320 -0.758 0.568 182 153 128 0 0
-1.2767 0.9632 -0.2883 -0.510 -0.631 0.584 184 157 133 0 0
-1.2742 0.9596 -0.2885 -0.533 -0.541 0.651 188 161 138 0 0
-1.2717 0.9537 -0.2878 -0.666 -0.234 0.708 189 162 139 0 0
-1.2692 0.9519 -0.2887 -0.181 -0.354 0.918 186 158 134 0 0
-1.2667 0.9495 -0.2893 -0.249 -0.313 0.917 186 156 133 0 0
-1.2642 0.9479 -0.2903 0.569 -0.405 0.715 185 154 129 0 0
-1.2617 0.9484 -0.2921 0.571 -0.369 0.733 184 155 132 0 0
-1.2592 0.9462 -0.2928 0.431 -0.435 0.791 185 155 132 0 0
-1.2568 0.9456 -0.2942 0.481 -0.620 0.619 186 157 136 0 0
-1.2543 0.9478 -0.2967 0.063 -0.565 0.822 195 169 149 0 0
-1.2518 0.9468 -0.2979 0.378 -0.745 0.550 199 176 158 0 0
-1.2442 0.9477 -0.3032 0.510 -0.809 0.293 198 171 152 0 0
-1.2304 0.8907 -0.2893 -0.176 -0.844 -0.507 190 157 135 0 0
-1.2230 0.8919 -0.2946 -0.428 -0.757 -0.493 164 113 97 0 0
-1.1464 0.8185 -0.3148 -0.833 -0.314 -0.456 219 98 79 0 0
-1.1388 0.7944 -0.3100 -0.245 -0.520 0.818 218 96 74 0 0
-1.1366 0.7927 -0.3108 -0.260 -0.732 0.630 217 96 76 0 0
-1.0942 0.7603 -0.3253 0.097 -0.121 0.988 205 80 47 0 0
-1.0918 0.7599 -0.3267 0.405 -0.292 0.867 206 76 44 0 0
-1.0896 0.7580 -0.3273 0.279 -0.158 0.947 207 74 43 0 0
-1.0847 0.7583 -0.3306 0.276 -0.297 0.914 206 72 39 0 0
-1.0777 0.7562 -0.3344 0.550 -0.207 0.809 202 68 37 0 0
-1.0733 0.7527 -0.3358 -0.611 -0.612 0.502 194 64 33 0 0
-1.0712 0.7502 -0.3362 -0.602 -0.594 0.534 186 59 30 0 0
-1.0579 0.7409 -0.3410 -0.346 -0.880 0.326 147 47 28 0 0
-1.0510 0.7379 -0.3443 0.184 -0.542 0.820 135 45 25 0 0
-1.0488 0.7365 -0.3452 -0.374 -0.712 0.594 132 45 24 0 0
-1.0468 0.7339 -0.3455 -0.559 -0.641 0.525 129 43 22 0 0
-1.0415 0.7222 -0.3442 -0.827 -0.562 -0.002 131 46 22 0 0
-1.0395 0.7193 -0.3443 -0.809 -0.585 -0.056 135 51 22 0 0
-1.0375 0.7170 -0.3447 -0.761 -0.590 0.269 138 51 20 0 0
-1.0206 0.7028 -0.3500 0.340 -0.323 0.883 149 63 26 0 0
-0.9985 0.6684 -0.3505 -0.694 -0.423 -0.582 202 106 44 0 0
-0.9889 0.6468 -0.3481 -0.161 -0.984 -0.081 181 76 27 0 0
-0.9840 0.6472 -0.3514 -0.144 -0.292 0.945 177 65 27 0 0
-0.9817 0.6467 -0.3527 0.298 -0.535 0.790 167 59 30 0 0
-0.9770 0.6458 -0.3554 0.420 -0.604 0.677 135 50 29 0 0
-0.8809 0.7044 -0.4413 0.320 -0.294 0.901 87 46 38 0 0
-0.8670 0.6889 -0.4441 0.531 -0.772 0.349 100 55 46 0 0
-0.8635 0.6912 -0.4473 0.585 -0.606 0.539 103 56 47 0 0
-0.8606 0.6918 -0.4494 0.384 -0.318 0.867 111 58 50 0 0
-0.8376 0.6871 -0.4625 0.109 -0.701 0.704 192 77 61 0 0
-0.8111 0.7140 -0.4905 -0.148 -0.181 0.972 181 70 59 0 0
-0.7526 0.7514 -0.5435 0.462 -0.448 0.765 157 119 106 0 0
-0.7336 0.7389 -0.5508 0.574 -0.413 0.707 186 162 142 0 0
-0.7289 0.7358 -0.5526 0.325 -0.536 0.779 187 165 146 0 0
-0.6774 0.7142 -0.5773 -0.226 -0.852 0.473 179 158 137 0 0
-0.6392 0.7092 -0.6002 0.379 -0.741 0.554 184 163 141 0 0
-0.5949 0.6964 -0.6237 0.672 -0.415 0.614 186 169 151 0 0
-0.5905 0.6986 -0.6275 0.547 -0.294 0.784 187 169 151 0 0
-0.5867 0.6997 -0.6304 0.493 -0.294 0.819 184 164 147 0 0
-0.5835 0.6995 -0.6324 0.509 -0.324 0.797 186 167 151 0 0
-0.5507 0.6718 -0.6426 0.310 -0.070 0.948 191 174 156 0 0
-0.5477 0.6714 -0.6443 0.288 -0.046 0.957 190 173 156 0 0
-0.2999 0.5525 -0.7575 0.487 -0.630 0.605 182 166 151 0 0
-0.2866 0.5550 -0.7671 0.619 -0.601 0.505 182 165 151 0 0
-0.2811 0.5570 -0.7714 0.619 -0.601 0.505 182 166 152 0 0
-0.2756 0.5590 -0.7758 0.619 -0.601 0.505 180 164 151 0 0
-0.1854 0.5174 -0.8176 -0.019 -0.183 0.983 193 182 170 0 0
-1.7615 1.1287 -0.0438 -0.364 -0.466 0.806 186 167 147 0 0
-1.7554 1.1224 -0.0452 -0.433 -0.537 0.724 174 154 130 0 0
-1.7523 1.1189 -0.0458 -0.396 -0.573 0.718 169 148 124 0 0
-1.7490 1.1287 -0.0519 -0.550 -0.496 0.672 164 140 115 0 0
-1.7445 1.1205 -0.0515 0.150 -0.725 0.673 161 137 111 0 0
-1.7421 1.1196 -0.0527 0.246 -0.709 0.660 158 134 109 0 0
-1.7394 1.1174 -0.0536 0.333 -0.942 0.051 157 134 108 0 0
-1.7376 1.1185 -0.0552 -0.639 -0.612 0.466 163 142 114 0 0
-1.7352 1.1175 -0.0563 -0.557 -0.777 0.295 173 153 128 0 0
-1.7324 1.1149 -0.0571 -0.595 -0.651 0.471 182 162 138 0 0
-1.7292 1.1110 -0.0576 -0.638 -0.663 0.391 179 161 135 0 0
-1.7196 1.1069 -0.0622 0.670 -0.496 0.553 170 150 123 0 0
-1.7059 1.1028 -0.0694 -0.177 -0.226 0.958 178 159 133 0 0
-1.7022 1.0971 -0.0695 -0.247 -0.182 0.952 178 158 134 0 0
-1.6982 1.0901 -0.0693 -0.127 -0.213 0.969 178 158 133 0 0
-1.6966 1.0918 -0.0711 0.330 -0.437 0.837 172 152 126 0 0
-1.6945 1.0917 -0.0724 -0.118 -0.450 0.885 174 153 128 0 0
-1.6909 1.0863 -0.0725 0.037 -0.305 0.951 178 159 134 0 0
-1.6881 1.0836 -0.0733 -0.261 -0.344 0.902 178 158 135 0 0
-1.6842 1.0770 -0.0731 -0.102 -0.483 0.870 175 156 134 0 0
-1.6825 1.0783 -0.0748 -0.195 -0.348 0.917 179 160 136 0 0
-1.6804 1.0784 -0.0762 -0.183 -0.355 0.917 180 161 136 0 0
-1.6767 1.0803 -0.0793 0.269 -0.549 0.791 174 153 130 0 0
-1.6702 1.0796 -0.0833 0.500 -0.468 0.728 177 157 132 0 0
-1.6679 1.0787 -0.0845 0.679 -0.492 0.545 183 163 138 0 0
-1.6655 1.0780 -0.0857 0.335 -0.485 0.808 182 162 137 0 0
-1.6633 1.0773 -0.0869 0.034 -0.425 0.904 180 160 135 0 0
-1.6616 1.0791 -0.0887 0.422 -0.576 0.700 181 161 136 0 0
-1.6512 1.0716 -0.0924 -0.469 -0.489 0.736 190 174 150 0 0
-1.6488 1.0704 -0.0935 -0.014 -0.642 0.766 185 166 142 0 0
-1.6457 1.0665 -0.0939 0.324 -0.856 0.403 179 158 133 0 0
-1.6370 1.0656 -0.0992 -0.386 -0.596 0.704 172 152 128 0 0
-1.6338 1.0613 -0.0996 -0.291 -0.412 0.864 177 158 134 0 0
-1.6311 1.0590 -0.1004 -0.243 -0.627 0.740 178 160 136 0 0
-1.6009 1.0487 -0.1158 -0.330 -0.398 0.856 189 172 147 0 0
-1.5981 1.0457 -0.1165 -0.282 -0.545 0.789 184 166 141 0 0
-1.5954 1.0431 -0.1172 -0.499 -0.544 0.674 181 163 138 0 0
-1.5926 1.0401 -0.1178 -0.349 -0.688 0.636 182 163 138 0 0
-1.5900 1.0382 -0.1187 -0.566 -0.627 0.535 180 162 138 0 0
-1.5809 1.0258 -0.1196 -0.468 -0.393 0.791 187 168 146 0 0
-1.5659 1.0481 -0.1384 0.086 -0.361 0.929 192 176 153 0 0
-1.5639 1.0492 -0.1401 0.346 -0.619 0.705 191 175 150 0 0
-1.5617 1.0493 -0.1416 0.375 -0.727 0.575 191 175 151 0 0
-1.5353 1.0514 -0.1596 -0.041 -0.323 0.945 188 171 147 0 0
-1.5242 1.0394 -0.1620 -0.210 -0.244 0.947 186 168 144 0 0
-1.5212 1.0350 -0.1622 -0.460 -0.371 0.807 191 174 150 0 0
-1.5190 1.0349 -0.1636 0.036 -0.514 0.857 186 166 144 0 0
-1.5032 1.0351 -0.1739 0.331 -0.457 0.825 191 175 152 0 0
-1.5010 1.0356 -0.1756 -0.084 -0.267 0.960 195 178 158 0 0
-1.4981 1.0315 -0.1758 -0.409 -0.135 0.902 195 178 157 0 0
-1.4948 1.0250 -0.1753 -0.409 -0.135 0.902 191 175 152 0 0
-1.4915 1.0185 -0.1748 -0.399 -0.121 0.909 190 173 150 0 0
-1.4861 1.0128 -0.1760 -0.160 -0.203 0.966 193 178 157 0 0
-1.4831 1.0073 -0.1757 -0.511 -0.340 0.789 196 183 166 0 0
-1.4811 1.0094 -0.1778 -0.654 -0.680 0.332 196 184 166 0 0
-1.4789 1.0100 -0.1795 0.607 -0.727 0.321 193 179 162 0 0
-1.4605 1.0259 -0.1979 -0.090 -0.140 0.986 171 150 127 0 0
-1.4578 1.0227 -0.1984 0.099 -0.216 0.971 176 155 130 0 0
-1.4434 1.0195 -0.2065 -0.334 -0.213 0.918 191 172 149 0 0
-1.4409 1.0176 -0.2074 -0.325 -0.326 0.888 189 169 145 0 0
-1.4381 1.0141 -0.2077 -0.292 -0.295 0.910 187 166 142 0 0
-1.4301 1.0051 -0.2093 -0.325 -0.860 0.393 166 141 116 0 0
-1.4277 1.0050 -0.2108 0.486 -0.871 -0.072 160 134 110 0 0
-1.4251 1.0018 -0.2112 -0.499 -0.859 0.118 159 133 111 0 0
-1.3952 0.9838 -0.2234 -0.329 -0.361 0.872 176 155 131 0 0
-1.3928 0.9836 -0.2248 -0.306 -0.167 0.937 175 152 129 0 0
-1.3719 0.9882 -0.2403 0.415 -0.165 0.895 187 166 145 0 0
-1.3695 0.9884 -0.2419 0.217 -0.191 0.957 184 162 139 0 0
-1.3598 0.9866 -0.2475 0.229 -0.324 0.918 171 148 123 0 0
-1.3573 0.9849 -0.2485 0.207 -0.401 0.892 177 155 131 0 0
-1.3474 0.9799 -0.2529 0.431 -0.353 0.830 173 149 125 0 0
-1.3431 0.9888 -0.2593 -0.398 -0.749 0.530 177 154 129 0 0
-1.3404 0.9849 -0.2595 -0.492 -0.451 0.745 180 156 133 0 0
-1.3378 0.9815 -0.2598 -0.492 -0.451 0.745 180 156 133 0 0
-1.3352 0.9783 -0.2602 -0.479 -0.400 0.781 181 159 133 0 0
-1.3178 0.9698 -0.2681 0.107 -0.182 0.978 184 161 137 0 0
-1.3153 0.9681 -0.2690 -0.040 -0.199 0.979 185 162 138 0 0
-1.3128 0.9655 -0.2696 -0.028 -0.231 0.973 186 162 138 0 0
-1.3103 0.9638 -0.2705 -0.270 -0.152 0.951 184 160 136 0 0
-1.3078 0.9623 -0.2715 0.296 -0.258 0.920 179 154 131 0 0
-1.2954 0.9558 -0.2770 0.363 -0.125 0.923 184 158 133 0 0
-1.2783 0.9645 -0.2916 -0.904 -0.401 0.149 192 166 142 0 0
-1.2757 0.9572 -0.2903 -0.888 -0.197 0.416 191 165 142 0 0
-1.2732 0.9504 -0.2892 -0.895 -0.272 0.353 189 162 138 0 0
-1.2707 0.9481 -0.2899 -0.658 -0.365 0.659 186 157 133 0 0
-1.2682 0.9443 -0.2900 0.101 -0.568 0.817 184 155 130 0 0
-1.2657 0.9439 -0.2915 0.569 -0.536 0.623 184 154 129 0 0
-1.2632 0.9452 -0.2936 0.588 -0.403 0.701 182 154 130 0 0
-1.2607 0.9449 -0.2951 0.602 -0.380 0.702 182 154 131 0 0
-1.2583 0.9454 -0.2969 0.602 -0.380 0.702 188 162 142 0 0
-1.2508 0.9431 -0.3008 0.350 -0.363 0.864 197 173 153 0 0
-1.1492 0.8009 -0.3094 -0.878 -0.459 0.136 217 96 76 0 0
-1.0915 0.7539 -0.3279 0.315 -0.184 0.931 210 76 47 0 0
-1.0727 0.7486 -0.3380 -0.341 -0.488 0.804 200 67 36 0 0
-1.0706 0.7465 -0.3386 -0.400 -0.609 0.685 195 63 33 0 0
-1.0664 0.7418 -0.3394 -0.666 -0.565 0.487 179 58 35 0 0
-1.0643 0.7398 -0.3399 -0.587 -0.624 0.516 170 55 33 0 0
-1.0550 0.7362 -0.3445 -0.257 -0.762 0.595 146 49 29 0 0
-1.0526 0.7360 -0.3460 -0.137 -0.651 0.747 141 47 27 0 0
-1.0502 0.7355 -0.3473 -0.483 -0.691 0.538 136 47 26 0 0
-1.0481 0.7336 -0.3479 -0.521 -0.736 0.432 131 45 22 0 0
-1.0055 0.6641 -0.3475 -0.973 -0.196 0.121 137 49 27 0 0
-0.9939 0.6509 -0.3497 -0.401 -0.833 -0.380 164 66 33 0 0
-0.9918 0.6498 -0.3507 -0.766 -0.532 0.361 164 65 33 0 0
-0.9900 0.6471 -0.3508 -0.443 -0.877 -0.185 160 61 31 0 0
-0.9834 0.6441 -0.3538 0.298 -0.535 0.790 132 45 26 0 0
-0.8740 0.6876 -0.4425 0.357 -0.690 0.629 96 53 45 0 0
-0.8706 0.6899 -0.4457 0.426 -0.465 0.776 99 55 46 0 0
-0.8678 0.6900 -0.4475 0.308 -0.312 0.899 102 56 47 0 0
-0.8464 0.6811 -0.4579 0.597 -0.547 0.587 192 77 62 0 0
-0.8165 0.7025 -0.4860 0.532 -0.781 0.327 177 71 58 0 0
-0.8143 0.7009 -0.4868 0.484 -0.855 0.188 172 71 57 0 0
-0.8100 0.7049 -0.4912 0.384 -0.730 0.565 168 73 59 0 0
-0.7136 0.7248 -0.5619 0.671 -0.466 0.576 192 173 158 0 0
-0.6785 0.7142 -0.5804 -0.316 -0.886 0.339 184 163 144 0 0
-0.6715 0.7094 -0.5830 0.014 -0.985 0.170 188 169 151 0 0
-0.6436 0.7091 -0.6011 0.516 -0.669 0.536 185 164 144 0 0
-0.6309 0.7029 -0.6068 -0.216 -0.232 0.948 183 162 142 0 0
-0.6111 0.6923 -0.6154 0.581 -0.299 0.757 188 171 153 0 0
-0.6085 0.6913 -0.6167 0.572 -0.353 0.741 188 170 152 0 0
-0.6010 0.6932 -0.6223 0.613 -0.446 0.653 185 168 150 0 0
-0.5973 0.6942 -0.6251 0.623 -0.460 0.633 186 169 151 0 0
-0.4691 0.6111 -0.6749 0.380 -0.822 0.424 179 162 145 0 0
-0.4677 0.6084 -0.6748 0.524 -0.670 0.526 177 160 141 0 0
-0.4644 0.6083 -0.6768 0.376 -0.603 0.704 167 149 129 0 0
-0.4616 0.6075 -0.6783 0.189 -0.550 0.813 161 140 121 0 0
-0.4602 0.6048 -0.6782 -0.545 -0.326 0.773 153 131 113 0 0
-0.2849 0.5538 -0.7716 0.580 -0.622 0.526 182 166 152 0 0
-0.2821 0.5529 -0.7730 0.395 -0.182 0.901 179 163 149 0 0
-0.1889 0.5147 -0.8182 -0.019 -0.183 0.983 188 176 164 0 0
-0.1871 0.5128 -0.8185 -0.019 -0.272 0.962 186 174 160 0 0
-0.1851 0.5111 -0.8192 0.083 -0.370 0.925 186 172 159 0 0
-1.7498 1.1120 -0.0482 -0.005 -0.371 0.929 170 147 123 0 0
-1.7477 1.1187 -0.0523 -0.168 -0.369 0.914 169 146 121 0 0
-1.7454 1.1179 -0.0535 0.208 -0.433 0.877 166 143 117 0 0
-1.7391 1.1177 -0.0575 -0.223 -0.846 0.484 164 141 116 0 0
-1.7371 1.1181 -0.0590 0.079 -0.980 0.183 180 160 134 0 0
-1.7346 1.1168 -0.0601 -0.438 -0.750 0.495 184 165 140 0 0
-1.7308 1.1108 -0.0601 -0.635 -0.640 0.433 183 165 140 0 0
-1.7282 1.1090 -0.0611 -0.856 -0.501 0.126 183 165 140 0 0
-1.7253 1.1064 -0.0619 -0.025 -0.455 0.890 185 168 143 0 0
-1.7212 1.0992 -0.0616 0.611 -0.586 0.532 185 167 142 0 0
-1.7202 1.1030 -0.0638 0.518 -0.563 0.645 184 165 140 0 0
-1.7123 1.1047 -0.0697 0.303 -0.126 0.945 191 175 151 0 0
-1.7022 1.0911 -0.0707 -0.247 -0.182 0.952 180 160 135 0 0
-1.6993 1.0881 -0.0714 -0.064 -0.453 0.889 178 159 134 0 0
-1.6970 1.0873 -0.0726 0.221 -0.334 0.916 179 160 135 0 0
-1.6913 1.0817 -0.0740 0.037 -0.305 0.951 178 158 133 0 0
-1.6887 1.0797 -0.0749 -0.185 -0.352 0.918 173 154 129 0 0
-1.6850 1.0739 -0.0749 -0.102 -0.483 0.870 174 155 131 0 0
-1.6829 1.0738 -0.0762 -0.526 -0.394 0.754 180 161 139 0 0
-1.6812 1.0751 -0.0779 -0.388 -0.424 0.819 181 163 139 0 0
-1.6794 1.0762 -0.0795 0.021 -0.850 0.527 178 159 135 0 0
-1.6779 1.0785 -0.0814 0.029 -0.851 0.525 176 156 131 0 0
-1.6759 1.0788 -0.0829 -0.287 -0.750 0.596 174 152 128 0 0
-1.6734 1.0775 -0.0839 0.101 -0.840 0.533 166 144 120 0 0
-1.6594 1.0722 -0.0909 0.550 -0.827 0.116 178 159 135 0 0
-1.6552 1.0727 -0.0938 -0.305 -0.908 0.288 181 162 138 0 0
-1.6524 1.0696 -0.0944 -0.469 -0.489 0.736 173 154 130 0 0
-1.6499 1.0681 -0.0955 -0.014 -0.642 0.766 168 146 120 0 0
-1.6242 1.0591 -0.1085 -0.081 -0.921 0.382 164 142 117 0 0
-1.6213 1.0556 -0.1090 -0.194 -0.473 0.860 171 149 124 0 0
-1.6047 1.0486 -0.1170 -0.232 -0.360 0.904 183 164 138 0 0
-1.6021 1.0468 -0.1179 -0.132 -0.499 0.857 186 169 142 0 0
-1.5994 1.0445 -0.1187 -0.245 -0.550 0.798 177 158 132 0 0
-1.5967 1.0416 -0.1193 -0.499 -0.544 0.674 175 155 131 0 0
-1.5933 1.0359 -0.1192 -0.481 -0.829 0.286 177 158 133 0 0
-1.5913 1.0365 -0.1208 -0.606 -0.608 0.513 185 167 143 0 0
-1.5884 1.0332 -0.1213 -0.606 -0.608 0.513 183 165 141 0 0
-1.5852 1.0283 -0.1214 -0.656 -0.527 0.541 184 166 144 0 0
-1.5820 1.0232 -0.1214 -0.449 -0.545 0.708 188 170 150 0 0
-1.5672 1.0463 -0.1405 0.437 -0.527 0.729 195 179 156 0 0
-1.5280 1.0388 -0.1630 -0.239 -0.407 0.882 172 151 127 0 0
-1.5252 1.0360 -0.1636 -0.339 -0.527 0.779 179 160 137 0 0
-1.5224 1.0326 -0.1640 -0.459 -0.425 0.780 183 164 141 0 0
-1.5200 1.0319 -0.1653 0.036 -0.514 0.857 185 165 143 0 0
-1.5043 1.0321 -0.1757 0.477 -0.359 0.802 194 179 157 0 0
-1.5019 1.0312 -0.1769 -0.084 -0.267 0.960 196 180 160 0 0
-1.4987 1.0257 -0.1766 -0.363 -0.125 0.923 195 178 157 0 0
-1.4956 1.0201 -0.1764 -0.409 -0.135 0.902 188 172 149 0 0
-1.4929 1.0172 -0.1770 -0.434 -0.150 0.888 185 168 148 0 0
-1.4895 1.0099 -0.1762 -0.046 -0.169 0.985 189 173 153 0 0
-1.4852 1.0109 -0.1795 -0.693 -0.569 0.443 193 178 160 0 0
-1.4825 1.0080 -0.1800 -0.515 -0.756 0.404 192 178 158 0 0
-1.4433 1.0058 -0.2047 -0.447 -0.623 0.643 187 167 143 0 0
-1.4408 1.0035 -0.2054 -0.454 -0.691 0.562 188 168 144 0 0
-1.4382 1.0017 -0.2063 -0.349 -0.815 0.462 189 169 145 0 0
-1.4360 1.0027 -0.2082 0.377 -0.925 -0.052 182 162 138 0 0
-1.4338 1.0038 -0.2100 0.367 -0.921 -0.131 174 152 128 0 0
-1.4315 1.0034 -0.2114 0.215 -0.974 -0.072 170 146 121 0 0
-1.4267 1.0027 -0.2142 -0.526 -0.848 0.065 175 153 127 0 0
-1.3966 0.9820 -0.2254 -0.340 -0.297 0.892 163 138 114 0 0
-1.3942 0.9810 -0.2266 -0.300 -0.143 0.943 167 143 118 0 0
-1.3464 0.9775 -0.2563 0.280 -0.203 0.938 179 154 131 0 0
-1.3442 0.9811 -0.2592 -0.233 -0.189 0.954 178 155 130 0 0
-1.3414 0.9751 -0.2585 -0.191 -0.093 0.977 178 155 130 0 0
-1.3391 0.9760 -0.2605 -0.172 -0.255 0.951 180 156 131 0 0
-1.3365 0.9729 -0.2609 -0.103 -0.264 0.959 181 157 132 0 0
-1.3340 0.9712 -0.2618 0.574 -0.408 0.710 182 159 133 0 0
-1.3141 0.9612 -0.2707 -0.018 -0.143 0.989 182 157 132 0 0
-1.3116 0.9582 -0.2711 -0.018 -0.143 0.989 179 155 131 0 0
-1.3067 0.9566 -0.2737 0.331 -0.262 0.906 182 158 134 0 0
-1.3042 0.9559 -0.2750 0.182 -0.289 0.940 184 159 136 0 0
-1.3018 0.9548 -0.2761 0.191 -0.266 0.945 184 160 136 0 0
-1.2721 0.9455 -0.2916 -0.743 -0.435 0.508 181 151 125 0 0
-1.2696 0.9404 -0.2912 -0.333 -0.567 0.753 175 145 123 0 0
-1.2672 0.9392 -0.2923 0.207 -0.580 0.788 177 147 123 0 0
-1.2647 0.9408 -0.2946 0.536 -0.430 0.726 187 159 136 0 0
-1.2622 0.9410 -0.2963 0.653 -0.414 0.634 189 163 142 0 0
-1.2598 0.9419 -0.2982 0.653 -0.414 0.634 195 171 151 0 0
-1.2548 0.9402 -0.3008 0.472 -0.359 0.805 200 178 160 0 0
-1.2523 0.9390 -0.3019 0.264 -0.252 0.931 194 169 149 0 0
-1.2498 0.9388 -0.3035 0.105 -0.210 0.972 186 158 137 0 0
-1.1523 0.7808 -0.3027 0.454 -0.170 0.875 216 93 71 0 0
-1.1359 0.7771 -0.3119 0.095 -0.663 0.742 217 96 75 0 0
-1.1000 0.7538 -0.3257 0.477 -0.214 0.852 209 79 50 0 0
-1.0979 0.7514 -0.3261 0.311 -0.104 0.945 210 79 48 0 0
-1.0941 0.7620 -0.3330 0.659 -0.610 0.440 211 78 50 0 0
-1.0928 0.7533 -0.3302 0.201 -0.327 0.924 212 77 48 0 0
-1.0906 0.7520 -0.3312 -0.031 -0.203 0.979 211 76 47 0 0
-1.0678 0.7413 -0.3417 -0.179 -0.467 0.866 197 66 34 0 0
-1.0657 0.7390 -0.3421 -0.252 -0.523 0.814 189 63 35 0 0
-1.0566 0.7345 -0.3462 -0.088 -0.717 0.691 157 52 30 0 0
-1.0541 0.7344 -0.3477 -0.137 -0.651 0.747 149 51 28 0 0
-1.0475 0.7301 -0.3503 -0.717 -0.639 0.279 135 47 26 0 0
-1.0454 0.7281 -0.3509 -0.553 -0.810 0.196 131 45 25 0 0
-1.0432 0.7264 -0.3517 -0.553 -0.810 0.196 129 44 22 0 0
-1.0410 0.7248 -0.3524 -0.571 -0.818 0.061 126 43 21 0 0
-1.0371 0.7191 -0.3526 -0.854 -0.490 -0.175 121 41 19 0 0
-1.0160 0.6888 -0.3540 -0.192 -0.625 0.756 124 42 25 0 0
-1.0117 0.6978 -0.3605 0.251 -0.878 -0.407 121 40 22 0 0
-0.9945 0.6536 -0.3538 -0.510 -0.746 -0.430 127 41 24 0 0
-0.9932 0.6487 -0.3526 -0.784 -0.558 0.271 126 40 24 0 0
-0.9155 0.7043 -0.4259 -0.303 0.014 0.953 89 45 34 0 0
-0.8957 0.6990 -0.4366 0.448 -0.391 0.804 87 47 38 0 0
-0.8755 0.6866 -0.4447 0.266 -0.413 0.871 98 54 45 0 0
-0.8726 0.6872 -0.4468 0.301 -0.302 0.905 102 55 46 0 0
-0.8554 0.6741 -0.4527 0.399 -0.142 0.906 192 76 62 0 0
-0.8485 0.6785 -0.4590 0.478 -0.581 0.658 192 78 64 0 0
-0.8388 0.6825 -0.4669 0.197 -0.853 -0.482 187 74 60 0 0
-0.7172 0.7193 -0.5611 0.622 -0.465 0.630 196 178 164 0 0
-0.7137 0.7202 -0.5638 0.734 -0.561 0.383 194 174 159 0 0
-0.6799 0.7137 -0.5831 -0.316 -0.886 0.339 187 168 151 0 0
-0.6707 0.7070 -0.5864 -0.171 -0.770 0.615 187 167 149 0 0
-0.6680 0.7062 -0.5878 0.096 -0.891 0.444 187 167 150 0 0
-0.6394 0.7070 -0.6068 0.271 -0.660 0.701 182 161 138 0 0
-0.6342 0.7049 -0.6094 0.154 -0.580 0.800 182 161 139 0 0
-0.5535 0.6599 -0.6436 0.399 -0.468 0.789 190 173 156 0 0
-0.5035 0.6253 -0.6621 0.094 0.046 0.994 165 143 124 0 0
-0.4674 0.6102 -0.6795 0.217 -0.940 0.264 171 154 134 0 0
-0.4664 0.6069 -0.6788 0.192 -0.610 0.769 164 146 126 0 0
-0.4637 0.6059 -0.6801 -0.574 -0.491 0.655 162 141 122 0 0
-0.4623 0.6032 -0.6799 -0.806 -0.226 0.547 160 140 121 0 0
-0.4283 0.5810 -0.6930 0.102 -0.828 0.552 170 151 131 0 0
-0.2994 0.5468 -0.7631 0.198 -0.951 0.239 172 156 140 0 0
-0.2857 0.5459 -0.7717 -0.071 -0.349 0.934 168 151 134 0 0
-0.1921 0.5124 -0.8190 -0.083 -0.151 0.985 190 179 167 0 0
-1.7629 1.1223 -0.0475 0.198 -0.277 0.940 179 161 138 0 0
-1.7591 1.1168 -0.0477 0.404 -0.413 0.816 178 158 134 0 0
-1.7303 1.1033 -0.0610 0.065 -0.170 0.983 182 162 137 0 0
-1.7124 1.0990 -0.0709 0.362 -0.216 0.907 185 168 142 0 0
-1.7006 1.0868 -0.0736 -0.140 -0.308 0.941 186 167 145 0 0
-1.6977 1.0840 -0.0743 -0.117 -0.265 0.957 184 166 143 0 0
-1.6950 1.0817 -0.0751 0.287 -0.251 0.924 182 164 140 0 0
-1.6917 1.0770 -0.0754 -0.031 -0.337 0.941 180 161 137 0 0
-1.6887 1.0739 -0.0761 -0.070 -0.372 0.925 182 163 140 0 0
-1.6860 1.0715 -0.0769 0.387 -0.669 0.635 186 169 146 0 0
-1.6841 1.0721 -0.0784 -0.298 -0.884 0.360 183 164 142 0 0
-1.6820 1.0722 -0.0798 -0.486 -0.777 0.400 178 159 135 0 0
-1.6816 1.0784 -0.0826 -0.436 -0.835 0.336 174 153 128 0 0
-1.6795 1.0786 -0.0840 -0.478 -0.753 0.452 170 148 123 0 0
-1.6745 1.0755 -0.0860 -0.552 -0.744 0.377 162 139 114 0 0
-1.6712 1.0710 -0.0863 0.058 -0.742 0.668 168 146 122 0 0
-1.6588 1.0717 -0.0947 0.429 -0.881 -0.198 168 148 122 0 0
-1.6569 1.0729 -0.0964 -0.327 -0.908 0.263 166 145 120 0 0
-1.6541 1.0700 -0.0971 -0.483 -0.521 0.704 163 140 115 0 0
-1.6511 1.0666 -0.0976 -0.389 -0.340 0.856 159 134 109 0 0
-1.6481 1.0630 -0.0981 -0.237 -0.695 0.679 153 129 106 0 0
-1.6295 1.0653 -0.1112 -0.539 -0.740 -0.402 164 141 114 0 0
-1.6112 1.0421 -0.1136 0.033 -0.566 0.824 156 134 109 0 0
-1.6088 1.0409 -0.1147 -0.107 -0.592 0.799 158 135 110 0 0
-1.6022 1.0399 -0.1186 0.216 -0.642 0.736 178 158 133 0 0
-1.6003 1.0411 -0.1203 -0.442 -0.742 0.504 172 149 124 0 0
-1.5977 1.0391 -0.1212 -0.649 -0.616 0.446 172 149 122 0 0
-1.5950 1.0366 -0.1219 -0.571 -0.821 -0.013 178 158 134 0 0
-1.5925 1.0349 -0.1229 -0.645 -0.764 0.024 188 170 148 0 0
-1.5900 1.0330 -0.1238 -0.508 -0.857 -0.089 188 170 148 0 0
-1.5872 1.0304 -0.1245 -0.645 -0.764 0.024 185 167 145 0 0
-1.5511 1.0234 -0.1452 -0.349 -0.929 -0.127 182 164 141 0 0
-1.5287 1.0338 -0.1641 -0.072 -0.258 0.963 182 160 136 0 0
-1.5259 1.0309 -0.1647 -0.072 -0.258 0.963 183 163 140 0 0
-1.5223 1.0229 -0.1638 -0.413 -0.157 0.897 184 164 140 0 0
-1.4885 1.0078 -0.1797 -0.393 -0.365 0.844 188 171 149 0 0
-1.4866 1.0097 -0.1817 -0.495 -0.585 0.642 188 171 150 0 0
-1.4841 1.0080 -0.1827 0.187 -0.981 0.053 183 164 142 0 0
-1.4782 1.0147 -0.1892 0.628 -0.533 0.567 169 146 123 0 0
-1.4550 1.0124 -0.2034 0.132 -0.383 0.914 195 180 159 0 0
-1.4448 1.0047 -0.2069 0.086 -0.828 0.555 180 159 134 0 0
-1.4423 1.0033 -0.2080 -0.267 -0.821 0.505 183 162 137 0 0
-1.4398 1.0018 -0.2090 -0.267 -0.821 0.505 183 162 136 0 0
-1.4375 1.0022 -0.2107 -0.075 -0.905 0.419 180 158 133 0 0
-1.4269 1.0114 -0.2213 -0.922 -0.275 0.272 174 150 126 0 0
-1.4048 0.9787 -0.2224 0.076 -0.432 0.899 169 145 121 0 0
-1.4023 0.9770 -0.2233 0.042 -0.486 0.873 164 139 115 0 0
-1.3979 0.9794 -0.2272 0.010 -0.222 0.975 155 129 107 0 0
-1.3952 0.9760 -0.2275 -0.047 -0.197 0.979 162 138 115 0 0
-1.3927 0.9733 -0.2281 -0.006 -0.182 0.983 168 145 122 0 0
-1.3833 0.9733 -0.2342 0.501 -0.109 0.859 191 174 155 0 0
-1.3478 0.9749 -0.2581 0.406 -0.278 0.870 179 155 130 0 0
-1.3429 0.9750 -0.2612 0.109 -0.312 0.944 178 153 130 0 0
-1.3404 0.9721 -0.2617 -0.744 -0.422 0.519 177 153 130 0 0
-1.3377 0.9676 -0.2616 -0.744 -0.422 0.519 177 153 128 0 0
-1.3353 0.9670 -0.2630 -0.037 -0.793 0.608 178 153 128 0 0
-1.3328 0.9664 -0.2643 0.107 -0.927 0.360 177 153 128 0 0
-1.3304 0.9664 -0.2659 0.301 -0.877 0.374 178 154 129 0 0
-1.3280 0.9660 -0.2673 0.151 -0.441 0.885 178 153 128 0 0
-1.3231 0.9641 -0.2698 -0.109 -0.155 0.982 171 143 119 0 0
-1.3205 0.9607 -0.2700 -0.109 -0.155 0.982 174 148 123 0 0
-1.3180 0.9601 -0.2714 -0.051 -0.167 0.985 182 157 132 0 0
-1.3155 0.9570 -0.2718 -0.051 -0.167 0.985 183 159 133 0 0
-1.3130 0.9539 -0.2722 -0.051 -0.167 0.985 189 167 143 0 0
-1.3081 0.9541 -0.2754 0.168 -0.405 0.899 192 174 150 0 0
-1.3057 0.9536 -0.2768 0.100 -0.281 0.955 190 168 145 0 0
-1.3032 0.9517 -0.2776 0.100 -0.281 0.955 190 168 146 0 0
-1.3006 0.9477 -0.2777 0.225 -0.216 0.950 190 169 147 0 0
-1.2981 0.9451 -0.2782 0.291 -0.284 0.913 187 167 144 0 0
-1.2957 0.9450 -0.2798 0.499 -0.333 0.800 195 177 155 0 0
-1.2761 0.9489 -0.2941 -0.555 -0.272 0.786 177 145 122 0 0
-1.2736 0.9441 -0.2938 -0.417 -0.321 0.850 173 141 120 0 0
-1.2711 0.9409 -0.2941 -0.375 -0.146 0.915 168 136 113 0 0
-1.2686 0.9364 -0.2939 -0.123 -0.116 0.986 176 146 123 0 0
-1.2538 0.9335 -0.3024 0.256 -0.170 0.952 193 166 146 0 0
-1.2514 0.9319 -0.3034 0.256 -0.170 0.952 190 163 143 0 0
-1.2439 0.9299 -0.3074 0.301 -0.131 0.945 191 162 144 0 0
-1.1323 0.7781 -0.3180 -0.342 -0.938 0.064 215 95 71 0 0
-1.1302 0.7752 -0.3183 0.404 -0.889 0.217 215 93 70 0 0
-1.1275 0.7780 -0.3212 0.274 -0.944 -0.186 216 95 72 0 0
-1.1250 0.7790 -0.3232 -0.010 -0.998 -0.061 216 95 73 0 0
-1.1004 0.7613 -0.3320 0.713 -0.688 0.138 212 80 53 0 0
-1.0981 0.7596 -0.3328 0.502 -0.654 0.566 212 80 53 0 0
-1.0957 0.7599 -0.3345 0.515 -0.660 0.547 211 79 53 0 0
-1.0930 0.7614 -0.3369 0.552 -0.762 0.338 212 79 49 0 0
-1.0690 0.7412 -0.3443 0.121 -0.418 0.901 204 68 35 0 0
-1.0672 0.7372 -0.3438 -0.313 -0.481 0.819 202 68 38 0 0
-1.0647 0.7378 -0.3457 0.372 -0.366 0.853 197 67 37 0 0
-1.0490 0.7283 -0.3520 -0.581 -0.658 0.479 143 52 26 0 0
-1.0466 0.7279 -0.3534 -0.517 -0.744 0.424 139 50 30 0 0
-1.0447 0.7248 -0.3534 -0.298 -0.773 0.560 134 48 27 0 0
-1.0425 0.7235 -0.3543 -0.239 -0.871 0.429 132 46 25 0 0
-1.0403 0.7221 -0.3552 -0.413 -0.797 0.442 130 46 23 0 0
-1.0382 0.7203 -0.3558 -0.488 -0.677 0.551 127 43 21 0 0
-1.0161 0.7063 -0.3645 -0.603 -0.612 -0.511 118 39 23 0 0
-1.0058 0.6849 -0.3625 -0.724 -0.448 -0.524 122 39 24 0 0
-1.0078 0.6640 -0.3526 -0.958 -0.140 0.249 123 39 24 0 0
-0.9931 0.6435 -0.3538 -0.515 -0.719 0.466 129 41 27 0 0
-0.9866 0.6404 -0.3568 -0.527 -0.825 -0.204 129 42 28 0 0
-0.9846 0.6388 -0.3574 -0.687 -0.716 -0.124 130 44 28 0 0
-0.9560 0.7040 -0.4028 0.188 -0.138 0.972 135 45 31 0 0
-0.8930 0.6945 -0.4401 0.491 -0.384 0.782 88 46 37 0 0
-0.8855 0.6841 -0.4407 0.112 -0.669 0.735 92 49 39 0 0
-0.8826 0.6849 -0.4429 0.400 -0.215 0.891 93 50 41 0 0
-0.8797 0.6856 -0.4450 0.180 -0.183 0.967 97 53 44 0 0
-0.8767 0.6867 -0.4475 0.128 -0.011 0.992 102 54 45 0 0
-0.8727 0.6822 -0.4482 0.167 -0.066 0.984 125 58 47 0 0
-0.8683 0.6793 -0.4499 0.218 -0.236 0.947 187 72 56 0 0
-0.8621 0.6736 -0.4516 0.129 -0.157 0.979 192 75 61 0 0
-0.8577 0.6708 -0.4534 0.307 -0.333 0.891 192 76 62 0 0
-0.8406 0.6887 -0.4719 0.338 -0.878 -0.340 189 73 60 0 0
-0.8300 0.6950 -0.4813 0.124 -0.983 -0.134 181 71 58 0 0
-0.7574 0.7337 -0.5446 -0.263 -0.361 0.895 185 159 140 0 0
-0.7499 0.7300 -0.5479 -0.085 -0.731 0.677 189 163 143 0 0
-0.7473 0.7290 -0.5492 0.011 -0.743 0.669 188 162 143 0 0
-0.6826 0.7104 -0.5838 0.050 -0.803 0.594 191 172 155 0 0
-0.6724 0.7058 -0.5886 -0.222 -0.790 0.571 190 169 151 0 0
-0.6703 0.7040 -0.5893 -0.227 -0.811 0.538 187 168 151 0 0
-0.6158 0.6820 -0.6158 0.625 -0.261 0.736 193 178 162 0 0
-0.6109 0.6735 -0.6156 0.214 0.060 0.975 192 175 160 0 0
-0.5387 0.6331 -0.6461 -0.480 -0.848 0.227 180 163 145 0 0
-0.4690 0.6092 -0.6818 0.140 -0.953 0.269 171 153 133 0 0
-0.4690 0.6046 -0.6800 0.192 -0.610 0.769 168 150 130 0 0
-0.4660 0.6041 -0.6817 -0.452 -0.488 0.747 166 148 128 0 0
-0.4642 0.6019 -0.6819 -0.682 -0.263 0.682 167 149 130 0 0
-0.4314 0.5826 -0.6955 -0.148 -0.560 0.815 180 161 143 0 0
-0.4303 0.5796 -0.6949 0.040 -0.949 0.312 177 159 138 0 0
-0.4276 0.5787 -0.6964 -0.354 -0.819 0.452 176 157 136 0 0
-0.4242 0.5787 -0.6986 -0.217 -0.747 0.629 177 159 138 0 0
-0.3954 0.5760 -0.7163 0.358 -0.850 0.386 183 166 150 0 0
-0.3879 0.5768 -0.7215 0.090 -0.863 0.497 181 164 148 0 0
-0.3811 0.5638 -0.7206 -0.094 -0.735 0.671 170 152 133 0 0
-0.3791 0.5620 -0.7212 -0.294 -0.717 0.632 170 152 132 0 0
-0.3767 0.5608 -0.7223 -0.106 -0.851 0.514 168 149 131 0 0
-0.3756 0.5580 -0.7218 -0.612 -0.758 0.228 165 147 127 0 0
-0.2849 0.5321 -0.7704 -0.759 -0.647 0.074 160 140 120 0 0
-0.1954 0.5098 -0.8197 -0.100 -0.215 0.971 194 183 170 0 0
-1.7331 1.1002 -0.0615 0.073 -0.161 0.984 174 154 130 0 0
-1.7301 1.0969 -0.0621 0.065 -0.170 0.983 176 156 131 0 0
-1.7271 1.0938 -0.0628 0.096 -0.131 0.987 173 153 128 0 0
-1.7105 1.0940 -0.0737 -0.002 -0.313 0.950 180 160 136 0 0
-1.7075 1.0906 -0.0743 -0.200 -0.266 0.943 183 165 141 0 0
-1.7037 1.0847 -0.0743 -0.426 -0.485 0.764 187 167 144 0 0
-1.7011 1.0828 -0.0752 -0.165 -0.498 0.851 187 169 145 0 0
-1.6985 1.0809 -0.0761 -0.090 -0.447 0.890 184 166 140 0 0
-1.6952 1.0764 -0.0764 -0.229 -0.569 0.790 183 164 139 0 0
-1.6925 1.0742 -0.0773 -0.229 -0.569 0.790 183 165 143 0 0
-1.6817 1.0728 -0.0838 -0.241 -0.827 0.509 169 147 121 0 0
-1.6810 1.0779 -0.0863 -0.542 -0.839 0.038 162 138 114 0 0
-1.6724 1.0693 -0.0884 -0.549 -0.819 0.165 171 148 123 0 0
-1.6555 1.0690 -0.0994 -0.478 -0.410 0.776 159 136 109 0 0
-1.6524 1.0650 -0.0998 -0.441 -0.469 0.765 156 131 106 0 0
-1.6493 1.0613 -0.1002 -0.287 -0.788 0.544 149 124 101 0 0
-1.6224 1.0464 -0.1117 -0.428 -0.342 0.837 164 142 118 0 0
-1.6040 1.0407 -0.1214 -0.373 -0.925 0.069 170 148 124 0 0
-1.6016 1.0396 -0.1225 -0.373 -0.925 0.069 167 143 117 0 0
-1.5995 1.0397 -0.1239 -0.591 -0.803 0.080 164 140 114 0 0
-1.5714 1.0406 -0.1426 0.423 -0.826 0.373 190 173 149 0 0
-1.5692 1.0403 -0.1439 0.237 -0.708 0.665 189 171 147 0 0
-1.5674 1.0423 -0.1460 0.064 -0.871 0.488 188 170 146 0 0
-1.5379 1.0387 -0.1638 -0.147 -0.257 0.955 186 166 142 0 0
-1.5352 1.0360 -0.1644 -0.063 -0.278 0.959 183 164 140 0 0
-1.5324 1.0333 -0.1651 -0.026 -0.368 0.929 183 163 139 0 0
-1.5298 1.0311 -0.1659 -0.026 -0.368 0.929 184 163 139 0 0
-1.5267 1.0259 -0.1658 -0.395 -0.292 0.871 182 161 139 0 0
-1.5236 1.0208 -0.1657 -0.489 -0.229 0.842 183 162 141 0 0
-1.5205 1.0156 -0.1656 -0.406 -0.248 0.880 185 164 142 0 0
-1.5179 1.0134 -0.1664 -0.286 -0.125 0.950 185 165 141 0 0
-1.5138 1.0161 -0.1701 0.511 -0.017 0.859 185 164 142 0 0
-1.5069 1.0144 -0.1740 0.451 0.008 0.893 178 157 134 0 0
-1.4927 1.0100 -0.1815 0.323 -0.636 0.701 181 163 140 0 0
-1.4904 1.0097 -0.1829 -0.416 -0.509 0.754 180 162 139 0 0
-1.4878 1.0073 -0.1836 -0.214 -0.640 0.738 179 160 137 0 0
-1.4854 1.0066 -0.1848 0.314 -0.949 0.035 179 158 134 0 0
-1.4462 1.0032 -0.2091 0.205 -0.804 0.558 167 143 119 0 0
-1.4437 1.0023 -0.2103 -0.267 -0.821 0.505 167 143 119 0 0
-1.4413 1.0014 -0.2115 -0.367 -0.770 0.522 166 142 116 0 0
-1.4390 1.0013 -0.2130 -0.075 -0.905 0.419 160 135 111 0 0
-1.4369 1.0036 -0.2153 0.536 -0.840 0.082 160 135 111 0 0
-1.4290 0.9948 -0.2169 -0.122 -0.544 0.830 169 146 120 0 0
-1.4288 1.0140 -0.2249 -0.916 -0.277 0.291 173 151 125 0 0
-1.4256 1.0063 -0.2238 -0.923 -0.310 0.228 173 150 126 0 0
-1.4225 0.9997 -0.2231 -0.939 -0.336 0.077 176 155 128 0 0
-1.4191 0.9895 -0.2212 -0.940 -0.272 0.206 178 156 132 0 0
-1.3991 0.9763 -0.2287 -0.533 -0.408 0.741 157 133 110 0 0
-1.3964 0.9720 -0.2288 -0.483 -0.326 0.813 155 131 107 0 0
-1.3937 0.9679 -0.2288 -0.483 -0.326 0.813 165 141 118 0 0
-1.3865 0.9648 -0.2323 -0.105 -0.285 0.953 191 175 155 0 0
-1.3839 0.9619 -0.2328 0.127 -0.377 0.917 195 182 163 0 0
-1.3816 0.9623 -0.2345 0.403 -0.279 0.872 196 183 166 0 0
-1.3635 0.9729 -0.2506 0.132 -0.212 0.968 180 158 135 0 0
-1.3443 0.9720 -0.2628 0.356 -0.415 0.837 178 154 130 0 0
-1.3419 0.9722 -0.2645 -0.866 -0.376 0.328 177 153 128 0 0
-1.3392 0.9665 -0.2639 -0.866 -0.376 0.328 176 151 128 0 0
-1.3366 0.9630 -0.2642 -0.497 -0.816 0.297 176 150 127 0 0
-1.3343 0.9642 -0.2662 0.069 -0.940 0.334 178 152 127 0 0
-1.3319 0.9658 -0.2684 -0.073 -0.374 0.925 174 147 123 0 0
-1.3294 0.9628 -0.2688 -0.019 -0.585 0.811 168 141 117 0 0
-1.3268 0.9605 -0.2695 -0.635 -0.350 0.689 166 138 114 0 0
-1.3243 0.9572 -0.2698 -0.717 -0.310 0.625 165 136 112 0 0
-1.3218 0.9547 -0.2704 -0.440 -0.521 0.731 168 142 117 0 0
-1.3194 0.9555 -0.2723 0.582 -0.793 0.183 176 152 128 0 0
-1.3170 0.9567 -0.2744 0.582 -0.793 0.183 189 167 143 0 0
-1.3145 0.9539 -0.2749 -0.321 -0.666 0.673 199 178 158 0 0
-1.3072 0.9545 -0.2799 0.031 -0.244 0.969 193 173 150 0 0
-1.3047 0.9522 -0.2806 0.030 -0.207 0.978 195 175 153 0 0
-1.3021 0.9467 -0.2800 -0.030 -0.151 0.988 195 177 155 0 0
-1.2995 0.9408 -0.2793 0.138 -0.268 0.954 200 183 164 0 0
-1.2971 0.9402 -0.2806 0.228 -0.345 0.911 207 191 175 0 0
-1.2776 0.9466 -0.2960 -0.555 -0.272 0.786 171 140 115 0 0
-1.2751 0.9408 -0.2952 -0.350 -0.293 0.890 172 140 117 0 0
-1.2726 0.9373 -0.2954 -0.386 -0.257 0.886 173 143 117 0 0
-1.2701 0.9332 -0.2954 -0.132 -0.156 0.979 185 156 132 0 0
-1.2553 0.9266 -0.3023 0.107 -0.248 0.963 199 179 160 0 0
-1.2529 0.9255 -0.3034 0.152 -0.191 0.970 201 179 163 0 0
-1.2479 0.9253 -0.3066 0.482 -0.175 0.859 191 164 145 0 0
-1.2455 0.9238 -0.3076 0.337 -0.184 0.923 188 157 137 0 0
-1.2430 0.9229 -0.3089 0.284 -0.212 0.935 186 153 134 0 0
-1.2356 0.9188 -0.3120 0.348 -0.238 0.907 181 145 125 0 0
-1.2119 0.8801 -0.3115 -0.778 -0.052 0.626 174 79 66 0 0
-1.2056 0.8539 -0.3049 -0.474 -0.443 0.761 186 74 60 0 0
-1.1384 0.7786 -0.3178 0.091 -0.917 0.389 216 94 72 0 0
-1.1362 0.7767 -0.3184 0.253 -0.963 0.088 216 94 71 0 0
-1.1313 0.7769 -0.3217 0.138 -0.937 0.321 217 96 73 0 0
-1.1285 0.7808 -0.3251 -0.294 -0.899 -0.323 216 96 73 0 0
-1.1265 0.7771 -0.3249 -0.421 -0.891 0.167 216 95 71 0 0
-1.1243 0.7753 -0.3256 -0.410 -0.887 0.211 217 96 76 0 0
-1.1229 0.7657 -0.3226 0.464 -0.535 0.706 216 94 72 0 0
-1.1183 0.7634 -0.3246 0.121 -0.364 0.923 215 91 68 0 0
-1.0929 0.7725 -0.3450 -0.783 -0.433 -0.448 212 80 55 0 0
-1.0907 0.7521 -0.3380 -0.275 -0.916 -0.291 211 79 50 0 0
-1.0883 0.7518 -0.3395 -0.275 -0.916 -0.291 212 77 47 0 0
-1.0690 0.7335 -0.3445 0.372 -0.291 0.881 205 71 38 0 0
-1.0668 0.7319 -0.3453 0.411 -0.337 0.847 203 70 39 0 0
-1.0577 0.7283 -0.3498 0.245 -0.349 0.905 182 70 35 0 0
-1.0543 0.7334 -0.3541 -0.502 -0.691 0.520 173 66 33 0 0
-1.0504 0.7277 -0.3543 -0.581 -0.658 0.479 155 57 30 0 0
-1.0483 0.7256 -0.3548 -0.581 -0.658 0.479 149 55 31 0 0
-1.0462 0.7235 -0.3554 -0.461 -0.663 0.590 145 53 30 0 0
-1.0437 0.7235 -0.3570 -0.217 -0.746 0.630 139 50 30 0 0
-1.0415 0.7222 -0.3578 -0.217 -0.746 0.630 136 49 27 0 0
-1.0393 0.7208 -0.3587 -0.217 -0.746 0.630 133 47 26 0 0
-1.0247 0.7196 -0.3678 -0.634 -0.744 -0.210 121 42 22 0 0
-1.0225 0.7181 -0.3686 -0.796 -0.579 -0.176 120 39 21 0 0
-1.0207 0.7144 -0.3683 -0.717 -0.554 -0.423 117 38 21 0 0
-0.9844 0.6446 -0.3632 0.064 -0.921 -0.385 131 43 29 0 0
-0.9583 0.6996 -0.4030 0.172 -0.125 0.977 138 46 32 0 0
-0.8925 0.6741 -0.4355 0.172 -0.236 0.956 93 50 40 0 0
-0.8849 0.6812 -0.4433 0.441 -0.243 0.864 97 53 44 0 0
-0.8803 0.6789 -0.4454 0.414 -0.355 0.838 109 56 46 0 0
-0.8778 0.6783 -0.4468 0.369 -0.342 0.864 128 60 48 0 0
-0.8755 0.6773 -0.4479 0.340 -0.349 0.873 158 64 50 0 0
-0.8731 0.6766 -0.4492 0.226 -0.285 0.931 185 70 55 0 0
-0.8685 0.6742 -0.4512 0.280 -0.244 0.928 192 74 59 0 0
-0.8668 0.6712 -0.4511 0.183 -0.280 0.942 193 75 62 0 0
-0.8654 0.6674 -0.4504 0.021 -0.228 0.973 193 76 63 0 0
-0.8627 0.6673 -0.4521 0.262 -0.250 0.932 193 77 62 0 0
-0.8523 0.6742 -0.4618 0.284 -0.672 0.683 191 75 62 0 0
-0.7593 0.7319 -0.5464 -0.302 -0.594 0.745 183 155 135 0 0
-0.7574 0.7294 -0.5466 -0.513 -0.750 0.419 181 153 136 0 0
-0.7550 0.7278 -0.5475 -0.416 -0.883 0.220 180 152 133 0 0
-0.7524 0.7269 -0.5488 -0.312 -0.937 0.156 185 160 140 0 0
-0.7498 0.7258 -0.5501 -0.312 -0.937 0.156 186 159 140 0 0
-0.7399 0.7280 -0.5574 0.454 -0.828 0.329 183 158 137 0 0
-0.7267 0.7098 -0.5586 -0.499 -0.669 0.551 195 176 160 0 0
-0.6725 0.7017 -0.5907 -0.461 -0.168 0.871 185 165 148 0 0
-0.6710 0.6985 -0.5904 -0.366 -0.359 0.858 186 167 149 0 0
-0.6127 0.6607 -0.6129 -0.556 -0.033 0.831 194 178 163 0 0
-0.6040 0.6540 -0.6158 -0.225 -0.949 0.219 197 181 165 0 0
-0.5424 0.6340 -0.6478 -0.263 -0.822 0.505 174 156 134 0 0
-0.5406 0.6317 -0.6481 -0.265 -0.835 0.482 179 161 141 0 0
-0.4728 0.6147 -0.6854 -0.919 -0.369 0.139 167 149 129 0 0
-0.4727 0.6101 -0.6836 -0.090 -0.993 -0.076 169 151 130 0 0
-0.4738 0.6039 -0.6803 0.070 -0.748 0.660 171 153 133 0 0
-0.4715 0.6023 -0.6811 0.192 -0.610 0.769 170 153 132 0 0
-0.4669 0.6041 -0.6849 -0.599 -0.483 0.638 170 152 132 0 0
-0.4674 0.5987 -0.6823 -0.268 -0.228 0.936 174 155 136 0 0
-0.4137 0.5758 -0.7080 0.070 -0.987 0.142 173 156 136 0 0
-0.4073 0.5752 -0.7119 0.170 -0.955 0.243 169 151 132 0 0
-0.4006 0.5750 -0.7163 0.200 -0.864 0.461 173 154 137 0 0
-0.3874 0.5742 -0.7246 -0.221 -0.921 0.320 180 163 147 0 0
-0.3813 0.5689 -0.7264 -0.934 -0.347 -0.080 176 158 140 0 0
-0.3812 0.5648 -0.7247 -0.848 -0.487 -0.210 174 156 137 0 0
-0.3804 0.5615 -0.7239 -0.724 -0.633 -0.274 175 158 138 0 0
-0.3788 0.5593 -0.7241 -0.677 -0.707 -0.204 175 155 135 0 0
-0.3615 0.5468 -0.7302 0.130 -0.335 0.933 172 155 135 0 0
-0.2854 0.5323 -0.7740 -0.759 -0.647 0.074 158 137 118 0 0
-0.1977 0.5083 -0.8214 -0.419 -0.523 0.742 180 167 153 0 0
-0.1968 0.5056 -0.8209 -0.200 -0.540 0.817 190 178 164 0 0
-1.7631 1.1121 -0.0504 0.102 -0.105 0.989 177 157 136 0 0
-1.7593 1.1066 -0.0506 -0.083 -0.105 0.991 173 151 128 0 0
-1.7519 1.1023 -0.0537 0.375 -0.429 0.822 171 148 124 0 0
-1.7497 1.1018 -0.0549 0.580 -0.390 0.715 170 147 123 0 0
-1.7169 1.0886 -0.0709 0.601 -0.503 0.621 177 159 133 0 0
-1.7154 1.0907 -0.0727 -0.343 -0.589 0.731 170 151 124 0 0
-1.7137 1.0921 -0.0744 -0.466 -0.438 0.769 169 148 120 0 0
-1.7105 1.0879 -0.0748 -0.466 -0.438 0.769 175 155 128 0 0
-1.7070 1.0829 -0.0750 -0.531 -0.638 0.559 181 163 138 0 0
-1.7031 1.0764 -0.0749 -0.499 -0.778 0.383 183 165 139 0 0
-1.7000 1.0727 -0.0753 -0.545 -0.827 0.137 178 160 132 0 0
-1.6926 1.0685 -0.0784 -0.519 -0.855 -0.017 185 168 144 0 0
-1.6855 1.0732 -0.0850 -0.296 -0.911 0.286 166 144 119 0 0
-1.6831 1.0717 -0.0860 -0.350 -0.839 0.416 157 133 111 0 0
-1.6812 1.0725 -0.0876 -0.125 -0.566 0.815 158 135 112 0 0
-1.6769 1.0721 -0.0902 -0.556 -0.614 0.560 162 140 116 0 0
-1.6739 1.0689 -0.0908 -0.556 -0.614 0.560 167 144 120 0 0
-1.6487 1.0607 -0.1040 -0.019 -0.891 0.453 153 129 105 0 0
-1.6465 1.0604 -0.1053 -0.087 -0.991 0.097 155 132 106 0 0
-1.6427 1.0535 -0.1049 -0.412 -0.891 -0.192 156 132 108 0 0
-1.6305 1.0562 -0.1140 -0.809 -0.342 0.478 164 141 114 0 0
-1.6265 1.0482 -0.1133 -0.723 -0.269 0.637 161 138 112 0 0
-1.6159 1.0301 -0.1127 -0.230 -0.262 0.937 164 141 117 0 0
