ply
format ascii 1.0
element vertex 815
property float x
property float y
property float z
property float nx
property float ny
property float nz
property uchar diffuse_red
property uchar diffuse_green
property uchar diffuse_blue
property uchar class
property uchar detection
end_header
-0.7414 0.5384 -0.6206 -0.536 -0.833 0.139 194 174 149 0 0
-0.7388 0.5388 -0.6218 -0.243 -0.965 0.100 197 179 155 0 0
-0.7364 0.5380 -0.6223 0.389 -0.852 0.350 200 181 160 0 0
-0.7340 0.5359 -0.6221 0.446 -0.389 0.806 198 180 160 0 0
-0.7266 0.5341 -0.6239 -0.306 -0.238 0.922 193 175 157 0 0
-0.7122 0.5276 -0.6258 0.605 -0.477 0.638 202 186 171 0 0
-0.7098 0.5260 -0.6258 0.668 -0.581 0.464 195 177 161 0 0
-0.5929 0.5206 -0.6694 0.436 -0.624 0.648 190 174 156 0 0
-0.5836 0.4926 -0.6564 0.249 -0.968 0.034 184 167 150 0 0
-0.5720 0.5009 -0.6660 0.711 -0.695 0.104 195 179 163 0 0
-0.5522 0.5222 -0.6867 0.802 -0.239 0.548 196 179 162 0 0
-0.5507 0.5070 -0.6782 0.602 -0.795 0.075 191 170 150 0 0
-0.5389 0.5145 -0.6874 -0.096 -0.979 0.180 197 180 157 0 0
-0.5203 0.5185 -0.6972 0.277 -0.942 -0.188 187 168 145 0 0
-0.5142 0.5033 -0.6906 0.604 -0.460 0.651 170 149 125 0 0
-0.3826 0.4855 -0.7326 0.653 -0.757 -0.024 168 146 124 0 0
-0.2612 0.5194 -0.8014 0.293 -0.652 0.699 193 180 164 0 0
-0.2581 0.5203 -0.8032 0.443 -0.556 0.703 192 178 160 0 0
-0.2554 0.5207 -0.8045 0.417 -0.674 0.609 192 177 161 0 0
-0.2415 0.5171 -0.8080 0.329 -0.856 0.398 191 175 160 0 0
-1.7213 0.5656 -0.2477 -0.042 -0.870 0.490 162 136 110 0 0
-1.7128 0.5637 -0.2499 0.065 -0.860 0.507 157 130 105 0 0
-1.7106 0.5638 -0.2509 -0.029 -0.907 0.420 162 137 108 0 0
-1.6531 0.5410 -0.2602 -0.033 -0.098 0.995 184 163 138 0 0
-1.6481 0.5370 -0.2599 -0.297 -0.103 0.949 177 155 130 0 0
-1.6176 0.5500 -0.2799 0.304 -0.473 0.827 178 154 127 0 0
-1.5758 0.5502 -0.2967 -0.045 -0.596 0.802 170 144 118 0 0
-1.5730 0.5495 -0.2974 0.007 -0.601 0.799 162 136 109 0 0
-1.5254 0.5318 -0.3059 0.236 -0.426 0.874 188 167 142 0 0
-1.4432 0.5620 -0.3569 -0.301 -0.915 0.269 182 159 132 0 0
-1.4397 0.5598 -0.3570 -0.234 -0.961 0.150 185 163 136 0 0
-1.4118 0.5366 -0.3543 0.089 -0.996 0.026 165 138 113 0 0
-1.3461 0.5480 -0.3874 -0.030 -0.999 0.044 193 171 144 0 0
-1.3434 0.5474 -0.3881 0.040 -0.989 -0.143 192 171 143 0 0
-1.3414 0.5481 -0.3894 -0.226 -0.933 0.280 194 172 148 0 0
-1.3206 0.5679 -0.4095 0.629 -0.741 -0.234 187 162 135 0 0
-1.3189 0.5698 -0.4113 0.816 -0.577 0.017 188 164 136 0 0
-1.3163 0.5693 -0.4121 0.631 -0.672 0.388 186 161 134 0 0
-1.3145 0.5709 -0.4138 -0.459 -0.678 0.574 176 150 123 0 0
-1.2799 0.5437 -0.4113 -0.184 -0.424 0.887 193 171 144 0 0
-1.2724 0.5427 -0.4137 -0.271 -0.961 0.053 201 182 159 0 0
-1.2696 0.5418 -0.4143 -0.349 -0.937 0.012 199 179 155 0 0
-1.2650 0.5422 -0.4164 -0.097 -0.963 -0.250 200 181 157 0 0
-1.2622 0.5409 -0.4168 0.651 -0.733 -0.199 201 184 161 0 0
-1.2605 0.5430 -0.4187 0.597 -0.748 -0.289 201 182 161 0 0
-1.1994 0.5318 -0.4364 0.245 -0.960 -0.137 180 153 125 0 0
-1.1591 0.5418 -0.4585 -0.378 -0.868 0.322 190 161 131 0 0
-1.1560 0.5392 -0.4582 -0.517 -0.843 0.147 190 160 128 0 0
-1.1485 0.5659 -0.4773 -0.059 -0.805 0.590 186 154 125 0 0
-1.1461 0.5662 -0.4784 -0.098 -0.814 0.572 185 155 126 0 0
-1.1436 0.5661 -0.4793 0.004 -0.879 0.476 184 152 123 0 0
-1.1015 0.5663 -0.4963 -0.251 -0.388 0.887 200 175 149 0 0
-1.0564 0.5641 -0.5130 -0.455 -0.568 0.686 175 139 113 0 0
-1.0061 0.5446 -0.5215 0.677 -0.079 0.732 188 157 130 0 0
-0.9765 0.5443 -0.5332 -0.205 -0.916 -0.344 173 140 114 0 0
-0.9739 0.5429 -0.5334 -0.407 -0.859 0.311 180 151 122 0 0
-0.9710 0.5399 -0.5327 -0.410 -0.593 0.693 191 164 140 0 0
-0.9683 0.5375 -0.5324 -0.333 -0.485 0.809 196 173 149 0 0
-0.9629 0.5334 -0.5321 0.181 -0.557 0.811 197 175 153 0 0
-0.9403 0.5533 -0.5531 0.434 -0.883 -0.177 172 140 118 0 0
-0.8550 0.5498 -0.5851 0.545 -0.822 0.168 185 159 133 0 0
-0.8525 0.5496 -0.5860 0.329 -0.939 0.104 183 156 132 0 0
-0.8500 0.5503 -0.5874 0.357 -0.933 0.045 180 152 128 0 0
-0.8174 0.5403 -0.5945 0.031 -0.768 0.640 195 173 152 0 0
-0.8098 0.5428 -0.5990 0.356 -0.612 0.706 193 170 147 0 0
-0.8073 0.5414 -0.5992 0.743 -0.509 0.434 191 168 145 0 0
-0.7448 0.5383 -0.6224 -0.048 -0.598 0.800 189 169 145 0 0
-0.6885 0.5235 -0.6360 -0.094 -0.966 -0.242 189 166 143 0 0
-0.6833 0.5250 -0.6390 0.257 -0.965 0.047 184 159 137 0 0
-0.6812 0.5218 -0.6379 0.218 -0.863 0.456 183 158 136 0 0
-0.6135 0.5083 -0.6570 -0.256 -0.706 0.660 163 136 114 0 0
-0.6070 0.5031 -0.6565 0.175 -0.944 0.279 181 160 139 0 0
-0.5840 0.4940 -0.6602 0.197 -0.896 0.399 179 158 140 0 0
-0.5514 0.5073 -0.6812 0.710 -0.409 0.574 190 170 149 0 0
-0.5452 0.5122 -0.6866 0.634 -0.768 -0.091 198 181 159 0 0
-0.5424 0.5135 -0.6885 0.386 -0.912 0.139 200 182 160 0 0
-0.5395 0.5151 -0.6907 -0.067 -0.963 0.262 193 174 150 0 0
-0.5132 0.5003 -0.6923 0.693 -0.717 0.073 188 169 150 0 0
-0.3912 0.4774 -0.7275 0.575 -0.545 0.610 184 165 144 0 0
-0.3879 0.4797 -0.7302 0.681 -0.680 0.270 178 159 139 0 0
-0.3844 0.4823 -0.7331 0.731 -0.607 0.313 177 157 136 0 0
-0.2608 0.5158 -0.8027 0.232 -0.961 0.148 190 173 155 0 0
-0.2576 0.5172 -0.8048 0.084 -0.948 0.308 187 171 151 0 0
-0.2552 0.5167 -0.8054 0.003 -0.958 0.287 185 167 147 0 0
-0.2525 0.5170 -0.8067 0.007 -0.895 0.445 181 164 145 0 0
-0.2501 0.5166 -0.8075 0.007 -0.895 0.445 182 164 142 0 0
-0.2476 0.5163 -0.8082 0.007 -0.895 0.445 187 169 148 0 0
-0.2440 0.5184 -0.8110 -0.564 -0.820 0.097 189 171 153 0 0
-1.7218 0.5644 -0.2499 -0.042 -0.870 0.490 170 145 118 0 0
-1.7127 0.5615 -0.2518 0.008 -0.541 0.841 162 136 108 0 0
-1.6437 0.5286 -0.2596 -0.302 -0.130 0.944 189 171 148 0 0
-1.6387 0.5449 -0.2715 0.087 -0.648 0.757 188 167 142 0 0
-1.6361 0.5444 -0.2722 0.087 -0.648 0.757 185 164 139 0 0
-1.6181 0.5487 -0.2820 0.083 -0.517 0.852 176 152 124 0 0
-1.5635 0.5547 -0.3075 -0.041 -0.662 0.749 152 124 100 0 0
-1.4182 0.5377 -0.3554 0.034 -0.996 0.086 174 149 123 0 0
-1.3470 0.5475 -0.3898 -0.297 -0.899 0.321 192 171 143 0 0
-1.3448 0.5478 -0.3909 0.040 -0.989 -0.143 193 171 143 0 0
-1.3230 0.5650 -0.4100 0.817 -0.509 0.270 180 154 128 0 0
-1.3214 0.5669 -0.4118 0.735 -0.669 0.111 178 152 126 0 0
-1.2817 0.5391 -0.4109 0.499 -0.792 0.352 189 165 139 0 0
-1.2804 0.5419 -0.4132 0.074 -0.937 0.342 189 166 141 0 0
-1.2776 0.5408 -0.4136 -0.286 -0.847 0.448 192 170 146 0 0
-1.2756 0.5417 -0.4150 0.298 -0.918 0.263 192 169 144 0 0
-1.2729 0.5410 -0.4156 -0.067 -0.939 0.337 191 170 146 0 0
-1.2693 0.5378 -0.4151 -0.055 -0.674 0.736 192 170 146 0 0
-1.2645 0.5377 -0.4170 0.602 -0.775 0.192 201 183 160 0 0
-1.2626 0.5391 -0.4186 0.736 -0.656 0.165 203 185 163 0 0
-1.2615 0.5426 -0.4211 0.769 -0.377 0.517 204 187 166 0 0
-1.2243 0.5612 -0.4472 -0.127 -0.977 0.169 178 149 123 0 0
-1.1671 0.5405 -0.4577 -0.093 -0.994 -0.054 201 174 148 0 0
-1.1642 0.5389 -0.4579 0.359 -0.862 -0.357 193 166 137 0 0
-1.1621 0.5398 -0.4593 0.487 -0.801 -0.347 191 162 133 0 0
-1.1597 0.5399 -0.4603 -0.475 -0.816 0.330 189 159 130 0 0
-1.1535 0.5350 -0.4598 -0.627 -0.677 0.385 190 161 131 0 0
-1.1333 0.5602 -0.4831 -0.190 -0.483 0.855 169 134 106 0 0
-1.1020 0.5634 -0.4976 0.161 -0.364 0.917 195 168 143 0 0
-1.0994 0.5628 -0.4983 0.161 -0.364 0.917 193 164 136 0 0
-1.0701 0.5528 -0.5040 0.766 -0.178 0.618 183 148 121 0 0
-0.9852 0.5464 -0.5342 0.229 -0.955 0.188 185 155 130 0 0
-0.9827 0.5462 -0.5350 -0.131 -0.986 0.103 182 151 126 0 0
-0.9775 0.5444 -0.5360 -0.514 -0.842 0.163 184 152 127 0 0
-0.9718 0.5384 -0.5346 -0.580 -0.459 0.673 196 172 148 0 0
-0.9691 0.5356 -0.5341 -0.580 -0.459 0.673 198 175 151 0 0
-0.9637 0.5318 -0.5339 0.229 -0.650 0.724 194 170 148 0 0
-0.9412 0.5524 -0.5554 0.487 -0.814 -0.317 185 156 132 0 0
-0.8482 0.5392 -0.5847 -0.189 -0.819 0.542 182 155 131 0 0
-0.8331 0.5246 -0.5819 0.264 -0.499 0.826 173 145 123 0 0
-0.7986 0.5219 -0.5941 0.540 -0.362 0.760 188 163 140 0 0
-0.7483 0.5358 -0.6226 0.459 -0.501 0.733 188 167 144 0 0
-0.6893 0.5231 -0.6386 -0.208 -0.977 -0.045 189 166 143 0 0
-0.6844 0.5228 -0.6404 -0.168 -0.967 0.193 185 162 140 0 0
-0.6819 0.5223 -0.6411 -0.168 -0.967 0.193 184 162 139 0 0
-0.5528 0.5045 -0.6821 0.611 -0.241 0.754 186 165 143 0 0
-0.5500 0.5057 -0.6840 0.747 -0.488 0.452 184 163 141 0 0
-0.5432 0.5134 -0.6914 0.514 -0.829 0.220 189 170 146 0 0
-0.5404 0.5145 -0.6931 -0.067 -0.963 0.262 183 162 138 0 0
-0.5382 0.5133 -0.6933 0.328 -0.935 0.134 181 158 135 0 0
-0.5191 0.4993 -0.6925 -0.698 -0.705 -0.126 187 168 144 0 0
-0.5170 0.4978 -0.6925 0.048 -0.907 -0.419 187 169 148 0 0
-0.5142 0.4990 -0.6942 0.500 -0.816 -0.290 196 180 162 0 0
-0.4171 0.4972 -0.7321 -0.312 -0.596 0.740 158 134 110 0 0
-0.2617 0.5152 -0.8052 0.232 -0.961 0.148 175 156 133 0 0
-0.2589 0.5156 -0.8065 -0.193 -0.981 -0.011 175 156 132 0 0
-0.2567 0.5147 -0.8069 -0.262 -0.965 0.019 171 152 126 0 0
-0.2526 0.5126 -0.8073 -0.367 -0.930 0.001 170 149 125 0 0
-1.7160 0.5545 -0.2493 -0.565 -0.627 0.537 177 155 129 0 0
-1.6804 0.5466 -0.2588 -0.376 -0.622 0.687 159 132 105 0 0
-1.5723 0.5554 -0.3075 0.246 -0.582 0.775 142 115 89 0 0
-1.5076 0.5450 -0.3271 -0.018 -0.946 0.324 183 159 131 0 0
-1.4379 0.5512 -0.3588 -0.246 -0.855 0.456 184 162 134 0 0
-1.4195 0.5379 -0.3581 0.192 -0.978 0.085 166 139 113 0 0
-1.4176 0.5387 -0.3594 0.281 -0.959 -0.042 160 133 107 0 0
-1.3911 0.5475 -0.3753 0.205 -0.974 0.099 166 138 114 0 0
-1.3887 0.5476 -0.3763 0.179 -0.983 -0.033 168 140 116 0 0
-1.3868 0.5486 -0.3777 0.245 -0.967 0.074 169 142 118 0 0
-1.3479 0.5467 -0.3921 -0.142 -0.908 0.394 192 169 143 0 0
-1.3452 0.5460 -0.3928 -0.015 -0.988 0.152 192 170 143 0 0
-1.2777 0.5380 -0.4150 -0.272 -0.626 0.730 187 165 138 0 0
-1.2749 0.5368 -0.4154 -0.197 -0.669 0.717 189 165 138 0 0
-1.2221 0.5215 -0.4273 -0.221 -0.969 0.109 183 156 130 0 0
-1.2195 0.5209 -0.4280 0.226 -0.971 0.081 179 152 124 0 0
-1.2212 0.5555 -0.4482 0.356 -0.483 0.800 171 141 114 0 0
-1.2021 0.5332 -0.4424 -0.039 -0.999 0.014 167 136 109 0 0
-1.1993 0.5321 -0.4428 0.493 -0.858 0.142 166 135 110 0 0
-1.1977 0.5345 -0.4450 0.394 -0.873 0.288 170 140 112 0 0
-1.1955 0.5353 -0.4463 0.160 -0.889 0.428 174 145 117 0 0
-1.1682 0.5403 -0.4603 0.085 -0.869 0.487 197 171 144 0 0
-1.1655 0.5396 -0.4609 0.418 -0.907 -0.047 194 167 139 0 0
-1.1634 0.5407 -0.4624 0.418 -0.907 -0.047 189 161 131 0 0
-1.1608 0.5398 -0.4630 -0.529 -0.785 0.322 191 162 131 0 0
-1.1517 0.5605 -0.4791 0.311 -0.799 0.515 186 156 127 0 0
-1.1493 0.5607 -0.4802 0.311 -0.799 0.515 180 148 119 0 0
-1.0891 0.5558 -0.5014 -0.088 -0.602 0.793 194 164 136 0 0
-0.9754 0.5390 -0.5368 -0.515 -0.447 0.732 197 172 148 0 0
-0.9726 0.5365 -0.5364 -0.543 -0.461 0.701 202 179 156 0 0
-0.9570 0.5286 -0.5379 0.316 -0.788 0.528 182 150 125 0 0
-0.9547 0.5298 -0.5395 0.570 -0.796 0.203 183 153 128 0 0
-0.9444 0.5494 -0.5555 0.802 -0.538 -0.260 185 156 130 0 0
-0.8019 0.5278 -0.5995 -0.145 -0.964 -0.224 193 170 148 0 0
-0.7995 0.5230 -0.5976 0.429 -0.678 0.597 192 167 145 0 0
-0.7323 0.5268 -0.6269 -0.646 -0.632 0.428 193 174 153 0 0
-0.7069 0.5302 -0.6390 0.567 -0.782 -0.259 200 183 165 0 0
-0.6903 0.5221 -0.6408 0.246 -0.933 0.262 190 169 149 0 0
-0.6878 0.5222 -0.6419 -0.231 -0.941 0.248 191 170 148 0 0
-0.6852 0.5224 -0.6430 -0.229 -0.924 0.308 191 169 148 0 0
-0.6829 0.5213 -0.6433 -0.220 -0.899 0.379 187 165 143 0 0
-0.6085 0.5029 -0.6620 -0.155 -0.983 0.096 167 141 119 0 0
-0.4958 0.4961 -0.7031 0.676 -0.667 0.314 160 135 114 0 0
-0.4565 0.4940 -0.7175 0.003 -0.940 0.341 193 176 156 0 0
-0.4541 0.4937 -0.7183 -0.192 -0.973 0.124 194 176 156 0 0
-0.4519 0.4925 -0.7184 -0.427 -0.897 0.118 185 164 142 0 0
-0.4409 0.5034 -0.7294 0.748 -0.662 0.045 185 166 144 0 0
-0.4149 0.4982 -0.7367 0.151 -0.885 0.440 165 141 118 0 0
-0.4029 0.4829 -0.7323 -0.022 -0.999 -0.024 192 175 155 0 0
-0.4008 0.4818 -0.7325 -0.656 -0.742 -0.139 188 168 149 0 0
-0.3986 0.4808 -0.7328 -0.393 -0.726 0.565 184 163 144 0 0
-0.2658 0.5132 -0.8055 0.330 -0.938 0.110 165 143 119 0 0
-0.2625 0.5146 -0.8077 0.232 -0.961 0.148 169 147 124 0 0
-0.2594 0.5157 -0.8096 -0.242 -0.962 -0.125 171 150 126 0 0
-0.2466 0.5154 -0.8146 0.042 -0.999 -0.017 166 143 121 0 0
-1.6976 0.5527 -0.2587 0.211 -0.707 0.675 195 175 151 0 0
-1.6778 0.5409 -0.2595 -0.522 -0.641 0.563 157 131 104 0 0
-1.6729 0.5372 -0.2592 -0.522 -0.641 0.563 160 134 107 0 0
-1.6175 0.5472 -0.2875 -0.220 -0.704 0.676 169 143 118 0 0
-1.5982 0.5572 -0.3013 -0.452 -0.508 0.733 144 117 91 0 0
-1.5725 0.5421 -0.3025 -0.235 -0.513 0.826 151 124 99 0 0
-1.5691 0.5403 -0.3028 -0.172 -0.534 0.828 139 113 89 0 0
-1.5280 0.5336 -0.3151 0.197 -0.947 0.255 180 155 130 0 0
-1.5258 0.5338 -0.3161 0.197 -0.947 0.255 177 152 125 0 0
-1.5234 0.5336 -0.3170 0.253 -0.959 0.129 175 149 124 0 0
-1.5215 0.5344 -0.3182 0.535 -0.845 -0.012 174 147 121 0 0
-1.5254 0.5617 -0.3332 0.045 -0.303 0.952 152 125 101 0 0
-1.5224 0.5605 -0.3337 -0.212 -0.402 0.891 161 133 108 0 0
-1.5069 0.5455 -0.3308 -0.218 -0.930 -0.295 181 155 128 0 0
-1.4281 0.5384 -0.3581 -0.117 -0.846 0.521 163 136 109 0 0
-1.4116 0.5582 -0.3767 0.392 -0.912 -0.118 170 143 116 0 0
-1.4093 0.5584 -0.3777 0.568 -0.806 0.167 179 154 127 0 0
-1.3901 0.5478 -0.3791 0.158 -0.980 -0.118 181 156 131 0 0
-1.3888 0.5502 -0.3810 0.227 -0.887 0.401 179 153 127 0 0
-1.2534 0.5609 -0.4418 0.225 -0.943 0.245 193 169 143 0 0
-1.2266 0.5246 -0.4305 -0.542 -0.837 -0.078 178 151 122 0 0
-1.2240 0.5240 -0.4312 -0.429 -0.872 0.234 180 155 126 0 0
-1.2195 0.5246 -0.4333 -0.025 -0.914 -0.405 181 153 127 0 0
-1.2176 0.5261 -0.4350 0.044 -0.932 -0.358 177 150 122 0 0
-1.1981 0.5322 -0.4465 -0.211 -0.977 0.015 166 136 110 0 0
-1.1937 0.5335 -0.4491 -0.109 -0.915 0.389 182 152 127 0 0
-1.1915 0.5503 -0.4601 0.513 -0.763 0.393 190 164 136 0 0
-1.1497 0.5580 -0.4816 0.487 -0.601 0.634 187 156 126 0 0
-1.1473 0.5582 -0.4827 0.322 -0.485 0.813 183 152 122 0 0
-1.0893 0.5521 -0.5022 0.285 -0.501 0.817 189 157 129 0 0
-0.9454 0.5495 -0.5584 0.835 -0.514 -0.197 183 156 130 0 0
-0.9425 0.5454 -0.5570 -0.565 -0.499 0.657 189 164 135 0 0
-0.9270 0.5384 -0.5590 -0.003 -0.925 0.381 199 173 149 0 0
-0.8746 0.5306 -0.5752 -0.272 -0.395 0.877 196 171 148 0 0
-0.8720 0.5279 -0.5747 -0.548 -0.599 0.583 203 181 158 0 0
-0.8695 0.5269 -0.5750 -0.326 -0.688 0.648 202 181 157 0 0
-0.8053 0.5255 -0.6000 0.164 -0.986 0.040 200 179 158 0 0
-0.8028 0.5246 -0.6004 -0.437 -0.752 0.494 198 177 156 0 0
-0.8004 0.5227 -0.6002 -0.333 -0.570 0.751 198 175 154 0 0
-0.7755 0.5272 -0.6129 0.495 -0.724 0.481 190 166 141 0 0
-0.7730 0.5278 -0.6143 0.169 -0.780 0.602 191 169 146 0 0
-0.7337 0.5197 -0.6251 0.340 -0.723 0.601 193 172 151 0 0
-0.7288 0.5189 -0.6266 -0.094 -0.840 0.535 206 190 173 0 0
-0.7264 0.5173 -0.6266 0.303 -0.936 0.181 209 193 177 0 0
-0.7239 0.5179 -0.6280 0.043 -0.995 0.093 200 183 165 0 0
-0.7214 0.5181 -0.6291 0.323 -0.872 0.367 192 174 154 0 0
-0.6886 0.5218 -0.6445 -0.164 -0.971 0.175 191 171 149 0 0
-0.6861 0.5217 -0.6454 -0.229 -0.899 0.373 191 170 148 0 0
-0.6839 0.5198 -0.6452 -0.383 -0.727 0.569 190 169 146 0 0
-0.6720 0.5149 -0.6470 0.556 -0.761 0.332 190 171 149 0 0
-0.6693 0.5165 -0.6490 0.566 -0.656 0.499 195 176 154 0 0
-0.5186 0.4972 -0.6977 -0.534 -0.845 0.034 189 170 145 0 0
-0.5160 0.4975 -0.6989 0.379 -0.896 -0.232 193 175 153 0 0
-0.4600 0.4927 -0.7185 0.276 -0.677 0.683 180 160 139 0 0
-0.4548 0.4936 -0.7211 -0.364 -0.930 -0.040 189 170 149 0 0
-0.4507 0.4907 -0.7210 -0.366 -0.930 -0.010 171 149 126 0 0
-0.4086 0.4826 -0.7329 0.152 -0.879 0.452 193 175 155 0 0
-0.3999 0.4792 -0.7344 -0.231 -0.849 0.476 181 160 138 0 0
-0.3055 0.5183 -0.7959 0.428 -0.349 0.834 182 162 140 0 0
-0.2648 0.5110 -0.8078 0.588 -0.808 0.042 165 144 120 0 0
-1.6948 0.5500 -0.2613 -0.468 -0.864 0.185 193 173 149 0 0
-1.6780 0.5394 -0.2615 -0.522 -0.641 0.563 164 138 111 0 0
-1.6740 0.5369 -0.2617 -0.367 -0.385 0.847 163 136 109 0 0
-1.6206 0.5254 -0.2761 0.457 -0.049 0.888 174 149 124 0 0
-1.6190 0.5265 -0.2774 0.417 -0.076 0.906 176 153 127 0 0
-1.6198 0.5452 -0.2885 -0.207 -0.651 0.731 165 139 113 0 0
-1.6165 0.5437 -0.2888 -0.208 -0.640 0.739 162 135 109 0 0
-1.6119 0.5402 -0.2886 0.250 -0.578 0.777 165 139 113 0 0
-1.6007 0.5371 -0.2912 0.451 -0.828 0.334 163 136 110 0 0
-1.5960 0.5479 -0.2997 -0.715 -0.698 -0.034 140 113 86 0 0
-1.5979 0.5546 -0.3030 -0.452 -0.508 0.733 137 111 85 0 0
-1.5721 0.5393 -0.3040 -0.222 -0.493 0.841 162 136 111 0 0
-1.5680 0.5440 -0.3085 0.762 -0.626 0.165 145 117 93 0 0
-1.4176 0.5384 -0.3654 0.670 -0.688 0.280 163 135 111 0 0
-1.3954 0.5463 -0.3792 -0.225 -0.974 -0.036 203 185 160 0 0
-1.3894 0.5489 -0.3831 0.271 -0.832 0.484 187 164 137 0 0
-1.3877 0.5503 -0.3847 -0.487 -0.604 0.631 177 151 124 0 0
-1.3838 0.5469 -0.3842 -0.546 -0.490 0.680 173 146 121 0 0
-1.2252 0.5241 -0.4339 -0.253 -0.947 -0.197 184 158 130 0 0
-1.2045 0.5338 -0.4481 -0.080 -0.996 0.026 168 138 113 0 0
-1.2018 0.5330 -0.4486 -0.211 -0.977 0.015 167 137 111 0 0
-1.1995 0.5331 -0.4497 -0.287 -0.956 -0.065 172 140 116 0 0
-1.1924 0.5335 -0.4528 0.091 -0.972 0.217 194 168 142 0 0
-1.1923 0.5492 -0.4623 0.514 -0.848 -0.132 189 162 135 0 0
-1.1567 0.5523 -0.4786 0.857 -0.468 0.216 190 160 130 0 0
-1.1040 0.5472 -0.4965 0.405 -0.137 0.904 208 185 160 0 0
-1.1017 0.5478 -0.4978 0.531 -0.114 0.840 207 185 160 0 0
-1.0995 0.5487 -0.4993 0.589 -0.120 0.799 205 181 157 0 0
-1.0747 0.5477 -0.5086 0.230 -0.756 0.613 184 151 123 0 0
-1.0563 0.5415 -0.5122 -0.672 -0.571 0.471 173 137 112 0 0
-1.0071 0.5240 -0.5213 0.437 -0.425 0.792 195 167 140 0 0
-1.0045 0.5231 -0.5218 0.299 -0.645 0.703 199 173 147 0 0
-1.0021 0.5231 -0.5228 0.434 -0.726 0.533 197 171 145 0 0
-0.9997 0.5233 -0.5238 0.129 -0.771 0.624 194 165 139 0 0
-0.9433 0.5438 -0.5589 -0.565 -0.499 0.657 192 165 138 0 0
-0.8755 0.5289 -0.5771 -0.269 -0.140 0.953 195 170 147 0 0
-0.8657 0.5320 -0.5829 0.246 -0.619 0.746 188 164 140 0 0
-0.7273 0.5170 -0.6292 0.174 -0.808 0.563 206 190 172 0 0
-0.7248 0.5172 -0.6304 -0.052 -0.853 0.520 202 185 166 0 0
-0.7062 0.5293 -0.6452 0.004 -0.835 0.550 200 181 165 0 0
-0.7038 0.5282 -0.6455 0.048 -0.840 0.540 203 185 168 0 0
-0.6731 0.5125 -0.6482 0.465 -0.858 0.216 197 179 158 0 0
-0.6705 0.5136 -0.6499 0.383 -0.900 0.209 198 182 161 0 0
-0.6424 0.5021 -0.6542 0.582 -0.587 0.562 192 172 148 0 0
-0.4611 0.4914 -0.7203 0.438 -0.659 0.612 174 150 132 0 0
-0.4558 0.4924 -0.7231 -0.518 -0.818 0.251 185 164 143 0 0
-0.4363 0.5138 -0.7440 -0.523 -0.423 0.740 175 153 131 0 0
-0.4307 0.5077 -0.7425 -0.788 -0.285 0.546 181 160 138 0 0
-1.7123 0.5629 -0.2653 0.667 -0.487 0.564 174 149 122 0 0
-1.6955 0.5524 -0.2656 -0.591 -0.801 0.095 179 157 132 0 0
-1.6911 0.5494 -0.2655 -0.583 -0.808 0.086 171 147 120 0 0
-1.6878 0.5481 -0.2660 -0.273 -0.901 -0.337 168 144 117 0 0
-1.6836 0.5453 -0.2660 -0.219 -0.870 -0.442 166 140 113 0 0
-1.6197 0.5187 -0.2754 0.897 -0.265 0.355 162 136 114 0 0
-1.6193 0.5214 -0.2772 0.785 -0.567 0.249 163 137 113 0 0
-1.6180 0.5230 -0.2787 0.665 -0.737 -0.126 168 142 117 0 0
-1.6192 0.5352 -0.2857 -0.677 -0.465 0.571 168 143 119 0 0
-1.6165 0.5416 -0.2907 -0.367 -0.638 0.677 160 133 109 0 0
-1.6110 0.5367 -0.2899 0.248 -0.525 0.815 159 132 107 0 0
-1.6088 0.5368 -0.2909 0.041 -0.636 0.771 159 132 108 0 0
-1.6054 0.5352 -0.2912 0.219 -0.827 0.518 159 132 107 0 0
-1.6002 0.5524 -0.3038 -0.715 -0.698 -0.034 135 109 81 0 0
-1.5978 0.5524 -0.3048 -0.296 -0.454 0.840 133 107 82 0 0
-1.5749 0.5380 -0.3052 0.022 -0.490 0.871 172 147 119 0 0
-1.5726 0.5380 -0.3061 -0.003 -0.576 0.818 173 147 122 0 0
-1.5545 0.5427 -0.3162 -0.710 -0.515 0.480 166 138 111 0 0
-1.5236 0.5335 -0.3230 0.531 -0.834 -0.152 161 134 110 0 0
-1.4810 0.5236 -0.3340 -0.388 -0.896 0.215 177 153 127 0 0
-1.3976 0.5484 -0.3827 -0.404 -0.886 0.229 206 191 169 0 0
-1.3919 0.5464 -0.3838 -0.162 -0.983 0.084 200 183 159 0 0
-1.3893 0.5459 -0.3845 0.146 -0.866 0.478 191 170 144 0 0
-1.3873 0.5468 -0.3858 -0.535 -0.724 0.436 176 149 123 0 0
-1.3238 0.5432 -0.4091 0.244 -0.705 0.666 193 172 148 0 0
-1.3108 0.5466 -0.4164 0.505 -0.853 0.132 202 184 162 0 0
-1.3094 0.5490 -0.4184 0.134 -0.343 0.930 197 177 153 0 0
-1.2642 0.5373 -0.4294 0.561 -0.259 0.786 204 186 161 0 0
-1.2269 0.5259 -0.4374 -0.459 -0.858 0.231 181 153 126 0 0
-1.2229 0.5280 -0.4403 0.091 -0.984 0.156 171 140 112 0 0
-1.2206 0.5284 -0.4415 0.247 -0.969 0.028 163 133 105 0 0
-1.2080 0.5337 -0.4498 0.169 -0.980 -0.104 179 148 123 0 0
-1.2056 0.5339 -0.4508 -0.067 -0.997 -0.046 182 152 127 0 0
-1.1970 0.5448 -0.4609 0.512 -0.744 0.430 202 178 154 0 0
-1.1954 0.5475 -0.4632 0.483 -0.857 -0.181 195 169 142 0 0
-1.1880 0.5471 -0.4660 0.097 -0.995 0.007 201 176 152 0 0
-1.1783 0.5474 -0.4700 0.643 -0.758 0.109 202 179 153 0 0
-1.1577 0.5256 -0.4650 0.049 -0.106 0.993 200 175 148 0 0
-1.1081 0.5392 -0.4932 0.325 -0.511 0.796 202 176 147 0 0
-1.1056 0.5387 -0.4939 0.471 -0.690 0.550 203 178 152 0 0
-1.1035 0.5401 -0.4956 0.642 -0.563 0.520 204 180 154 0 0
-1.1013 0.5414 -0.4973 0.346 -0.547 0.762 207 184 159 0 0
-1.0969 0.5433 -0.5002 0.549 -0.268 0.792 198 172 144 0 0
-1.0923 0.5448 -0.5030 0.599 -0.406 0.690 177 143 116 0 0
-1.0902 0.5462 -0.5046 0.671 -0.560 0.486 176 141 114 0 0
-1.0747 0.5427 -0.5087 0.289 -0.387 0.876 189 158 130 0 0
-1.0600 0.5425 -0.5145 -0.301 -0.900 0.315 166 131 104 0 0
-1.0571 0.5400 -0.5141 -0.625 -0.669 0.402 166 131 105 0 0
-1.0029 0.5216 -0.5247 0.327 -0.812 0.483 194 168 141 0 0
-1.0005 0.5219 -0.5258 0.268 -0.874 0.405 190 161 132 0 0
-0.9982 0.5233 -0.5275 0.455 -0.695 0.556 185 155 126 0 0
-0.9957 0.5221 -0.5278 0.677 -0.729 0.103 185 155 129 0 0
-0.9929 0.5200 -0.5277 0.423 -0.889 -0.175 186 155 129 0 0
-0.9907 0.5214 -0.5294 0.423 -0.889 -0.175 186 155 128 0 0
-0.9664 0.5211 -0.5390 0.238 -0.603 0.761 193 168 144 0 0
-0.9589 0.5194 -0.5409 0.737 -0.230 0.636 186 160 135 0 0
-0.6773 0.5053 -0.6453 0.059 -0.687 0.724 189 171 149 0 0
-0.6479 0.5035 -0.6559 -0.612 -0.758 0.226 190 169 145 0 0
-0.6435 0.5000 -0.6556 0.500 -0.833 0.235 191 171 147 0 0
-0.6412 0.4989 -0.6559 0.786 -0.572 0.237 189 167 144 0 0
-0.6383 0.5016 -0.6587 0.736 -0.608 0.297 184 162 138 0 0
-0.5851 0.4951 -0.6760 0.383 -0.877 0.291 180 153 134 0 0
-0.5194 0.4903 -0.6995 0.224 -0.850 0.477 180 159 134 0 0
-0.4675 0.4809 -0.7145 0.691 -0.263 0.673 175 154 133 0 0
-0.4573 0.4898 -0.7240 -0.139 -0.699 0.701 181 160 139 0 0
-0.4367 0.5146 -0.7475 -0.536 -0.251 0.806 179 157 134 0 0
-0.4365 0.4999 -0.7386 0.057 -0.998 0.008 178 157 134 0 0
-0.4275 0.4967 -0.7403 -0.905 -0.228 0.360 179 158 135 0 0
-0.4246 0.4906 -0.7377 -0.927 -0.256 0.275 183 165 145 0 0
-0.2691 0.5043 -0.8085 0.783 -0.497 0.373 164 143 121 0 0
-1.7092 0.5565 -0.2658 0.692 -0.074 0.718 168 142 115 0 0
-1.7077 0.5577 -0.2671 0.692 -0.074 0.718 168 145 114 0 0
-1.6981 0.5541 -0.2687 -0.613 -0.790 0.029 166 142 115 0 0
-1.6931 0.5503 -0.2684 -0.585 -0.810 0.049 161 135 107 0 0
-1.6899 0.5490 -0.2689 -0.283 -0.864 -0.417 157 131 103 0 0
-1.6682 0.5444 -0.2747 -0.565 -0.535 0.629 158 131 103 0 0
-1.6223 0.5240 -0.2806 0.872 -0.171 0.458 154 129 105 0 0
-1.6190 0.5225 -0.2810 0.011 -0.872 -0.489 158 133 106 0 0
-1.6166 0.5397 -0.2925 -0.367 -0.638 0.677 160 133 108 0 0
-1.6024 0.5355 -0.2957 0.162 -0.978 -0.128 156 128 103 0 0
-1.6060 0.5558 -0.3067 -0.564 -0.822 -0.083 154 128 102 0 0
-1.6010 0.5515 -0.3061 -0.646 -0.756 0.101 147 121 94 0 0
-1.5975 0.5497 -0.3064 -0.479 -0.829 0.289 141 115 89 0 0
-1.5724 0.5356 -0.3078 0.096 -0.492 0.865 176 150 127 0 0
-1.5708 0.5368 -0.3091 0.380 -0.683 0.624 172 146 121 0 0
-1.5249 0.5375 -0.3280 0.325 -0.714 0.621 157 129 104 0 0
-1.4776 0.5494 -0.3544 -0.620 -0.646 0.445 179 155 129 0 0
-1.3926 0.5453 -0.3859 -0.216 -0.974 -0.066 193 173 148 0 0
-1.3905 0.5460 -0.3872 -0.229 -0.969 -0.094 186 163 138 0 0
-1.3879 0.5455 -0.3879 -0.416 -0.909 -0.002 175 150 125 0 0
-1.3522 0.5346 -0.3955 0.743 -0.383 0.549 191 169 143 0 0
-1.3508 0.5369 -0.3975 0.358 -0.211 0.909 186 161 134 0 0
-1.3488 0.5376 -0.3988 0.346 -0.173 0.922 181 155 128 0 0
-1.3412 0.5254 -0.3943 -0.588 -0.202 0.783 182 157 130 0 0
-1.3120 0.5467 -0.4191 0.646 -0.743 -0.177 205 189 167 0 0
-1.3105 0.5487 -0.4210 0.502 -0.850 -0.158 203 187 164 0 0
-1.2879 0.5337 -0.4208 0.471 -0.448 0.760 192 171 145 0 0
-1.2756 0.5327 -0.4251 -0.265 -0.767 0.585 181 157 131 0 0
-1.2727 0.5312 -0.4254 -0.326 -0.730 0.600 185 161 133 0 0
-1.2703 0.5313 -0.4264 -0.134 -0.753 0.644 186 161 136 0 0
-1.2688 0.5336 -0.4284 0.480 -0.557 0.678 186 161 136 0 0
-1.2668 0.5346 -0.4298 0.699 -0.518 0.493 190 167 141 0 0
-1.2092 0.5341 -0.4526 0.270 -0.939 -0.211 189 161 136 0 0
-1.2001 0.5434 -0.4620 0.316 -0.948 0.037 199 175 150 0 0
-1.1675 0.5144 -0.4573 0.069 -0.988 0.137 199 173 146 0 0
-1.1244 0.5416 -0.4913 0.194 -0.977 0.083 198 171 143 0 0
-1.1219 0.5413 -0.4921 -0.041 -0.998 0.046 198 171 143 0 0
-1.1190 0.5396 -0.4922 -0.253 -0.852 0.459 194 168 139 0 0
-1.1086 0.5366 -0.4946 0.294 -0.648 0.702 198 172 143 0 0
-1.1062 0.5366 -0.4956 0.294 -0.648 0.702 207 183 157 0 0
-1.0993 0.5385 -0.4995 0.374 0.021 0.927 201 175 150 0 0
-1.0948 0.5401 -0.5023 0.719 -0.121 0.684 181 150 124 0 0
-1.0928 0.5420 -0.5042 0.675 -0.145 0.723 176 143 116 0 0
-1.0905 0.5428 -0.5056 0.418 -0.034 0.908 176 141 114 0 0
-1.0879 0.5420 -0.5062 0.248 0.006 0.969 175 141 113 0 0
-1.0551 0.5370 -0.5163 -0.788 -0.465 0.402 155 121 95 0 0
-1.0084 0.5195 -0.5243 0.173 -0.656 0.735 202 178 155 0 0
-1.0059 0.5194 -0.5252 0.230 -0.739 0.634 203 181 157 0 0
-1.0036 0.5201 -0.5265 0.026 -0.921 0.388 200 175 151 0 0
-1.0012 0.5197 -0.5273 -0.333 -0.907 0.259 191 164 136 0 0
-0.9987 0.5195 -0.5282 -0.030 -0.970 0.240 185 155 126 0 0
-0.9961 0.5184 -0.5285 0.130 -0.980 -0.150 182 152 125 0 0
-0.9893 0.5213 -0.5331 -0.542 -0.614 0.574 186 156 129 0 0
-0.9674 0.5214 -0.5419 -0.025 -0.832 0.554 186 158 134 0 0
-0.9594 0.5152 -0.5413 -0.190 -0.416 0.889 187 161 136 0 0
-0.9314 0.5270 -0.5598 0.231 -0.626 0.745 194 168 145 0 0
-0.9294 0.5324 -0.5639 0.640 -0.757 -0.133 192 164 141 0 0
-0.9115 0.5243 -0.5661 -0.191 -0.500 0.845 195 171 147 0 0
-0.8450 0.5195 -0.5899 0.409 -0.562 0.719 210 193 176 0 0
-0.7981 0.5247 -0.6119 0.325 -0.462 0.825 192 168 144 0 0
-0.7934 0.5149 -0.6077 0.051 -0.688 0.724 184 159 134 0 0
-0.7910 0.5132 -0.6077 -0.498 -0.677 0.541 187 162 139 0 0
-0.7885 0.5127 -0.6083 -0.454 -0.761 0.462 188 164 140 0 0
-0.7860 0.5157 -0.6112 0.036 -0.753 0.657 187 163 139 0 0
-0.7784 0.5193 -0.6164 0.809 -0.495 0.317 193 173 150 0 0
-0.6793 0.4959 -0.6418 0.520 -0.007 0.854 190 170 150 0 0
-0.6481 0.5076 -0.6616 -0.237 -0.962 0.138 184 162 138 0 0
-0.6444 0.4996 -0.6581 0.506 -0.431 0.747 191 170 146 0 0
-0.4413 0.4948 -0.7367 0.672 -0.544 0.502 183 163 140 0 0
-0.4374 0.4990 -0.7408 0.170 -0.969 0.181 183 163 139 0 0
-0.4347 0.4998 -0.7424 0.255 -0.796 0.549 181 160 137 0 0
-0.4322 0.4996 -0.7433 0.116 -0.695 0.709 179 160 136 0 0
-0.4303 0.4979 -0.7430 -0.074 -0.698 0.712 178 157 136 0 0
-0.4283 0.4961 -0.7427 -0.305 -0.561 0.769 178 159 136 0 0
-0.4266 0.4939 -0.7421 -0.630 -0.346 0.695 181 162 141 0 0
-0.4239 0.4799 -0.7345 -0.780 -0.550 -0.300 192 175 157 0 0
-0.4136 0.4669 -0.7307 0.410 -0.473 0.779 176 155 134 0 0
-0.2837 0.4908 -0.7975 0.031 -0.324 0.946 180 162 139 0 0
-0.2708 0.5019 -0.8095 0.728 -0.371 0.577 176 158 135 0 0
-0.2180 0.4944 -0.8261 -0.802 -0.035 0.596 165 143 121 0 0
-1.6884 0.5226 -0.2563 -0.081 -0.429 0.900 166 140 115 0 0
-1.7084 0.5536 -0.2673 0.548 0.029 0.836 163 137 113 0 0
-1.6955 0.5485 -0.2694 -0.621 -0.773 0.129 154 129 104 0 0
-1.6913 0.5457 -0.2694 -0.363 -0.914 -0.181 153 127 101 0 0
-1.6882 0.5446 -0.2699 -0.363 -0.914 -0.181 151 125 99 0 0
-1.6213 0.5240 -0.2840 0.116 -0.859 -0.499 154 127 105 0 0
-1.6197 0.5249 -0.2853 0.116 -0.859 -0.499 157 131 105 0 0
-1.6267 0.5390 -0.2912 0.327 -0.127 0.937 164 138 111 0 0
-1.6058 0.5352 -0.2972 0.167 -0.981 0.101 156 128 103 0 0
-1.6038 0.5357 -0.2983 -0.159 -0.738 0.655 159 131 106 0 0
-1.5996 0.5328 -0.2982 0.016 -0.467 0.884 160 133 110 0 0
-1.6024 0.5517 -0.3088 -0.538 -0.809 0.236 166 140 113 0 0
-1.5987 0.5496 -0.3089 -0.418 -0.865 0.278 165 141 112 0 0
-1.5932 0.5446 -0.3080 -0.005 -0.735 0.678 163 138 112 0 0
-1.5905 0.5439 -0.3087 -0.005 -0.735 0.678 165 138 113 0 0
-1.5878 0.5432 -0.3094 -0.005 -0.735 0.678 173 147 121 0 0
-1.5845 0.5418 -0.3098 0.168 -0.571 0.803 181 155 128 0 0
-1.5745 0.5331 -0.3085 0.094 -0.564 0.821 187 163 136 0 0
-1.5704 0.5340 -0.3107 0.526 -0.530 0.665 181 156 131 0 0
-1.5371 0.5364 -0.3255 -0.201 -0.978 0.051 169 143 116 0 0
-1.5354 0.5374 -0.3268 -0.193 -0.981 -0.038 161 133 108 0 0
-1.5306 0.5372 -0.3286 -0.387 -0.919 -0.075 155 127 103 0 0
-1.5277 0.5362 -0.3292 -0.190 -0.815 0.547 157 130 104 0 0
-1.5225 0.5353 -0.3307 0.201 -0.572 0.795 156 130 107 0 0
-1.3890 0.5452 -0.3904 -0.119 -0.991 -0.062 174 148 123 0 0
-1.3869 0.5458 -0.3917 0.130 -0.919 -0.373 175 147 122 0 0
-1.3511 0.5186 -0.3892 -0.312 -0.868 0.386 201 183 160 0 0
-1.3521 0.5316 -0.3968 0.522 -0.398 0.755 194 173 147 0 0
-1.3400 0.5200 -0.3945 -0.575 -0.212 0.791 184 160 132 0 0
-1.3074 0.5381 -0.4188 -0.532 -0.367 0.763 202 185 162 0 0
-1.3048 0.5375 -0.4195 -0.558 -0.349 0.753 200 182 158 0 0
-1.2882 0.5316 -0.4225 0.477 -0.646 0.596 191 170 143 0 0
-1.2765 0.5319 -0.4274 0.150 -0.688 0.710 190 168 143 0 0
-1.2734 0.5301 -0.4275 -0.268 -0.801 0.536 184 162 137 0 0
-1.2708 0.5295 -0.4282 -0.400 -0.554 0.730 179 155 129 0 0
-1.2690 0.5311 -0.4299 0.240 -0.667 0.705 175 150 125 0 0
-1.1683 0.5133 -0.4594 -0.112 -0.988 0.104 198 172 144 0 0
-1.1642 0.5156 -0.4624 0.088 -0.849 0.520 199 173 146 0 0
-1.1615 0.5144 -0.4628 0.398 -0.758 0.516 201 177 150 0 0
-1.1573 0.5162 -0.4656 -0.075 -0.960 0.269 202 178 151 0 0
-1.1553 0.5176 -0.4672 -0.231 -0.777 0.586 201 175 148 0 0
-1.1535 0.5196 -0.4692 0.275 -0.828 0.489 197 171 142 0 0
-1.1362 0.5267 -0.4805 0.553 -0.039 0.832 200 173 146 0 0
-1.1340 0.5274 -0.4818 0.586 -0.008 0.810 198 170 146 0 0
-1.1314 0.5266 -0.4824 0.521 -0.129 0.844 196 169 142 0 0
-1.1140 0.5342 -0.4941 0.095 -0.656 0.748 189 160 130 0 0
-1.0528 0.5323 -0.5175 -0.741 -0.639 0.205 150 117 92 0 0
-1.0118 0.5193 -0.5259 -0.161 -0.444 0.882 197 170 144 0 0
-1.0091 0.5179 -0.5261 -0.161 -0.444 0.882 200 175 151 0 0
-1.0066 0.5172 -0.5267 -0.228 -0.761 0.607 203 179 155 0 0
-1.0042 0.5174 -0.5278 -0.467 -0.846 0.256 203 178 154 0 0
-0.9901 0.5203 -0.5352 -0.586 -0.592 0.553 183 152 124 0 0
-0.9605 0.5166 -0.5448 0.201 -0.979 0.038 185 156 133 0 0
-0.9318 0.5207 -0.5589 -0.414 -0.401 0.817 189 162 139 0 0
-0.9295 0.5226 -0.5610 0.086 -0.993 0.080 188 160 136 0 0
-0.9071 0.5177 -0.5670 -0.037 -0.498 0.867 189 164 140 0 0
-0.8875 0.5159 -0.5738 0.721 -0.693 0.026 212 195 175 0 0
-0.8189 0.5073 -0.5960 -0.158 -0.006 0.987 206 189 169 0 0
-0.8165 0.5056 -0.5959 -0.245 -0.055 0.968 207 190 172 0 0
-0.8142 0.4924 -0.5887 0.949 -0.272 0.162 203 184 164 0 0
-0.7941 0.5196 -0.6135 0.098 -0.297 0.950 184 159 136 0 0
-0.7894 0.5134 -0.6116 -0.675 -0.720 -0.163 189 167 143 0 0
-0.7794 0.5159 -0.6171 0.854 -0.495 0.159 195 174 153 0 0
-0.7501 0.5104 -0.6255 -0.429 -0.337 0.838 187 165 142 0 0
-0.6606 0.4953 -0.6522 0.603 -0.186 0.776 172 148 125 0 0
-0.6579 0.4964 -0.6538 0.751 -0.259 0.608 167 141 119 0 0
-0.5607 0.4780 -0.6816 -0.556 -0.741 0.376 190 169 149 0 0
-0.4676 0.4771 -0.7184 0.737 -0.098 0.669 189 168 149 0 0
-0.4389 0.4966 -0.7419 0.789 -0.340 0.512 183 164 140 0 0
-0.4363 0.4970 -0.7432 0.736 -0.282 0.616 183 162 140 0 0
-0.4260 0.4901 -0.7431 -0.950 -0.168 0.263 192 176 157 0 0
-0.4249 0.4862 -0.7412 -0.954 -0.291 0.072 195 178 161 0 0
-0.4235 0.4829 -0.7397 -0.876 -0.461 -0.144 200 185 167 0 0
-0.4195 0.4593 -0.7267 0.712 -0.581 0.393 183 163 143 0 0
-0.4147 0.4657 -0.7326 0.510 -0.853 0.111 178 157 135 0 0
-0.4122 0.4660 -0.7338 0.544 -0.813 -0.208 174 153 130 0 0
-0.3145 0.5090 -0.7995 0.429 -0.100 0.898 175 154 132 0 0
-0.2942 0.5026 -0.8038 0.144 -0.372 0.917 190 174 156 0 0
-0.2878 0.4887 -0.7978 0.027 -0.947 0.319 184 166 146 0 0
-0.2854 0.4885 -0.7986 0.066 -0.939 0.338 186 167 147 0 0
-1.6933 0.5243 -0.2584 0.337 -0.377 0.862 171 146 120 0 0
-1.7037 0.5483 -0.2691 0.363 0.076 0.929 154 128 105 0 0
-1.6979 0.5499 -0.2724 -0.621 -0.773 0.129 145 121 97 0 0
-1.6940 0.5477 -0.2726 -0.194 -0.953 0.231 147 123 99 0 0
-1.6956 0.5565 -0.2774 0.032 0.124 0.992 157 130 102 0 0
-1.6221 0.5231 -0.2862 0.007 -0.971 -0.241 154 128 104 0 0
-1.6181 0.5205 -0.2863 -0.244 -0.877 -0.414 157 132 106 0 0
-1.6242 0.5332 -0.2916 0.244 -0.125 0.962 161 135 108 0 0
-1.6189 0.5286 -0.2909 -0.666 -0.562 0.491 167 141 116 0 0
-1.6109 0.5199 -0.2888 -0.633 -0.687 0.357 170 144 119 0 0
-1.6005 0.5320 -0.3005 -0.362 -0.809 0.462 173 146 119 0 0
-1.6016 0.5410 -0.3056 0.061 -0.778 -0.625 177 151 126 0 0
-1.5953 0.5420 -0.3087 -0.078 -0.394 0.916 174 148 121 0 0
-1.5930 0.5421 -0.3097 -0.133 -0.597 0.791 172 145 121 0 0
-1.5904 0.5416 -0.3105 -0.029 -0.715 0.698 172 145 120 0 0
-1.5875 0.5408 -0.3111 -0.192 -0.694 0.694 175 149 122 0 0
-1.5813 0.5383 -0.3120 -0.079 -0.588 0.805 186 162 133 0 0
-1.5786 0.5375 -0.3127 -0.020 -0.541 0.841 184 159 133 0 0
-1.5709 0.5363 -0.3150 0.054 -0.328 0.943 175 150 123 0 0
-1.5340 0.5368 -0.3301 0.253 -0.894 0.371 160 133 109 0 0
-1.5312 0.5360 -0.3307 -0.088 -0.856 0.509 159 132 106 0 0
-1.5283 0.5349 -0.3313 -0.190 -0.815 0.547 161 135 108 0 0
-1.4841 0.5224 -0.3412 0.376 -0.884 -0.278 180 156 130 0 0
-1.4011 0.5430 -0.3873 0.053 -0.951 0.305 169 142 114 0 0
-1.2715 0.5282 -0.4302 -0.502 -0.671 0.545 184 160 135 0 0
-1.2697 0.5298 -0.4320 0.301 -0.795 0.527 179 155 129 0 0
-1.2678 0.5311 -0.4335 0.630 -0.737 0.244 175 149 123 0 0
-1.2655 0.5313 -0.4346 0.524 -0.784 0.332 175 150 124 0 0
-1.2639 0.5336 -0.4366 0.537 -0.829 0.158 179 154 129 0 0
-1.1338 0.5225 -0.4820 0.586 -0.008 0.810 201 174 149 0 0
-1.1312 0.5217 -0.4826 0.785 -0.116 0.608 198 171 145 0 0
-1.1178 0.5358 -0.4967 -0.523 -0.606 0.599 191 164 134 0 0
-1.1148 0.5333 -0.4964 -0.389 -0.630 0.672 189 161 132 0 0
-1.0829 0.5317 -0.5081 0.313 -0.180 0.933 191 163 136 0 0
-1.0807 0.5329 -0.5098 -0.576 -0.281 0.768 186 154 129 0 0
-1.0694 0.5250 -0.5095 -0.096 -0.081 0.992 191 164 138 0 0
-1.0175 0.5188 -0.5264 0.266 -0.708 0.654 187 157 130 0 0
-1.0150 0.5182 -0.5271 0.367 -0.728 0.580 191 164 138 0 0
-1.0126 0.5183 -0.5281 -0.293 -0.804 0.517 195 169 141 0 0
-1.0049 0.5152 -0.5293 -0.142 -0.929 0.341 198 172 145 0 0
-1.0025 0.5157 -0.5305 -0.101 -0.993 0.061 189 162 134 0 0
-0.9331 0.5249 -0.5641 -0.183 -0.290 0.939 188 161 135 0 0
-0.8882 0.5119 -0.5741 0.012 -0.313 0.950 205 187 165 0 0
-0.8857 0.5101 -0.5740 0.180 -0.393 0.902 203 183 161 0 0
-0.8832 0.5094 -0.5746 0.408 -0.270 0.872 201 179 158 0 0
-0.8808 0.5101 -0.5760 0.725 -0.320 0.610 200 177 156 0 0
-0.8247 0.5073 -0.5968 -0.103 -0.281 0.954 209 193 176 0 0
-0.8198 0.5036 -0.5964 -0.336 -0.215 0.917 214 199 182 0 0
-0.8174 0.5015 -0.5961 -0.449 -0.181 0.875 215 200 184 0 0
-0.8000 0.5161 -0.6121 0.635 -0.360 0.683 189 164 142 0 0
-0.7975 0.5174 -0.6139 0.112 -0.301 0.947 190 167 145 0 0
-0.7951 0.5165 -0.6144 0.098 -0.297 0.950 194 173 150 0 0
-0.7927 0.5155 -0.6148 -0.074 -0.294 0.953 197 176 156 0 0
-0.7803 0.5148 -0.6192 0.666 -0.729 0.159 192 173 153 0 0
-0.7534 0.5106 -0.6275 0.273 -0.155 0.949 191 171 148 0 0
-0.7511 0.5087 -0.6272 -0.216 -0.337 0.916 185 163 140 0 0
-0.7488 0.5051 -0.6259 -0.568 -0.517 0.641 180 156 132 0 0
-0.5600 0.4736 -0.6822 -0.297 -0.503 0.812 195 178 160 0 0
-0.4704 0.4623 -0.7112 -0.094 -0.777 0.623 191 173 155 0 0
-0.4677 0.4631 -0.7128 -0.796 -0.415 0.440 190 171 152 0 0
-0.4410 0.4923 -0.7416 0.781 -0.314 0.539 182 163 139 0 0
-0.4217 0.4547 -0.7261 0.746 -0.426 0.512 185 167 147 0 0
-0.4176 0.4595 -0.7307 0.731 -0.533 0.426 184 164 143 0 0
-0.4133 0.4645 -0.7355 0.602 -0.749 0.277 179 159 136 0 0
-0.4042 0.4829 -0.7506 0.469 -0.747 -0.472 178 158 135 0 0
-0.2983 0.5004 -0.8039 0.276 -0.601 0.750 190 173 154 0 0
-0.2970 0.4977 -0.8028 -0.475 -0.174 0.863 200 184 168 0 0
-0.2864 0.4875 -0.8007 0.074 -0.863 0.500 191 173 152 0 0
-1.6555 0.5267 -0.2781 -0.551 -0.584 0.596 173 148 118 0 0
-1.6254 0.5227 -0.2877 -0.520 -0.810 0.273 155 131 104 0 0
-1.6232 0.5228 -0.2887 -0.023 -0.980 -0.199 159 133 106 0 0
-1.6234 0.5266 -0.2909 -0.371 -0.919 0.138 159 132 107 0 0
-1.6229 0.5293 -0.2928 0.208 -0.176 0.962 160 133 107 0 0
-1.6173 0.5242 -0.2919 -0.633 -0.687 0.357 161 135 109 0 0
-1.6121 0.5198 -0.2912 -0.633 -0.687 0.357 163 137 109 0 0
-1.5650 0.5209 -0.3109 0.180 -0.271 0.946 172 146 121 0 0
-1.5048 0.5241 -0.3371 0.124 -0.855 0.503 155 128 104 0 0
-1.4665 0.5348 -0.3591 0.008 -0.686 0.727 175 150 122 0 0
-1.4227 0.5175 -0.3659 -0.420 -0.669 0.614 192 172 147 0 0
-1.4195 0.5158 -0.3662 -0.079 -0.598 0.797 193 175 150 0 0
-1.3909 0.5441 -0.3953 0.381 -0.914 0.140 174 148 121 0 0
-1.3258 0.5308 -0.4132 -0.165 -0.339 0.926 188 167 141 0 0
-1.2718 0.5261 -0.4319 -0.367 -0.745 0.558 180 156 130 0 0
-1.2698 0.5269 -0.4333 -0.018 -0.964 0.265 182 158 132 0 0
-1.2656 0.5284 -0.4359 0.064 -0.996 -0.065 182 158 130 0 0
-1.1778 0.5139 -0.4622 -0.030 -0.988 0.151 193 167 140 0 0
-1.1184 0.5336 -0.4982 -0.482 -0.376 0.791 190 162 134 0 0
-1.1155 0.5316 -0.4982 -0.464 -0.540 0.702 189 161 132 0 0
-1.0853 0.5265 -0.5071 0.790 0.014 0.613 204 182 158 0 0
-1.0830 0.5272 -0.5085 0.282 -0.147 0.948 197 172 147 0 0
-1.0811 0.5296 -0.5108 -0.468 -0.136 0.873 196 170 144 0 0
-1.0784 0.5286 -0.5112 -0.466 -0.009 0.885 195 169 143 0 0
-1.0666 0.5180 -0.5093 0.549 -0.283 0.787 201 178 154 0 0
-1.0156 0.5159 -0.5285 0.297 -0.893 0.338 193 167 140 0 0
-1.0132 0.5157 -0.5294 0.054 -0.906 0.420 193 168 139 0 0
-1.0108 0.5155 -0.5302 0.054 -0.906 0.420 194 167 139 0 0
-1.0081 0.5142 -0.5305 -0.002 -0.763 0.646 192 166 138 0 0
-1.0032 0.5131 -0.5318 -0.002 -0.763 0.646 190 162 135 0 0
-0.9497 0.5103 -0.5516 0.275 -0.960 -0.059 184 156 131 0 0
-0.9386 0.5206 -0.5625 -0.293 -0.695 0.656 188 160 136 0 0
-0.9362 0.5211 -0.5637 -0.186 -0.444 0.877 190 164 139 0 0
-0.9336 0.5196 -0.5638 -0.188 -0.344 0.920 189 162 138 0 0
-0.9087 0.5127 -0.5695 -0.137 -0.378 0.916 195 171 147 0 0
-0.9062 0.5119 -0.5700 -0.164 -0.361 0.918 198 176 154 0 0
-0.9037 0.5107 -0.5703 -0.289 -0.412 0.864 203 183 162 0 0
-0.8890 0.5089 -0.5751 0.012 -0.313 0.950 201 180 156 0 0
-0.8865 0.5073 -0.5751 0.180 -0.393 0.902 200 179 157 0 0
-0.8574 0.5129 -0.5902 0.367 -0.775 0.515 189 165 140 0 0
-0.8550 0.5132 -0.5914 0.365 -0.794 0.486 185 161 136 0 0
-0.8525 0.5116 -0.5914 -0.021 -0.640 0.768 185 161 137 0 0
-0.8501 0.5123 -0.5928 -0.492 -0.688 0.533 185 161 136 0 0
-0.8476 0.5113 -0.5932 0.213 -0.707 0.675 186 162 136 0 0
-0.8353 0.5070 -0.5954 0.219 -0.509 0.832 200 181 160 0 0
-0.7960 0.5143 -0.6158 0.362 -0.201 0.910 195 173 154 0 0
-0.7840 0.5065 -0.6158 -0.477 -0.361 0.801 201 184 163 0 0
-0.7814 0.5112 -0.6198 0.168 -0.984 -0.057 198 180 160 0 0
-0.6610 0.4860 -0.6524 0.590 -0.206 0.781 188 167 146 0 0
-0.6454 0.4920 -0.6624 0.519 -0.727 0.450 175 149 127 0 0
-0.6268 0.5004 -0.6751 0.656 -0.600 0.457 182 156 134 0 0
-0.6240 0.5019 -0.6772 0.667 -0.634 0.390 185 160 138 0 0
-0.5660 0.4831 -0.6888 0.332 -0.830 0.448 192 172 151 0 0
-0.5613 0.4712 -0.6833 -0.162 -0.549 0.820 203 187 171 0 0
-0.5290 0.4734 -0.6976 -0.047 -0.809 0.587 159 134 112 0 0
-0.4713 0.4614 -0.7133 -0.085 -0.881 0.466 191 173 153 0 0
-0.4652 0.4576 -0.7134 0.755 -0.522 0.396 188 169 149 0 0
-0.4627 0.4578 -0.7145 0.567 -0.484 0.666 185 164 144 0 0
-0.4547 0.4601 -0.7192 0.059 -0.713 0.698 182 163 138 0 0
-0.2876 0.4860 -0.8025 -0.172 -0.498 0.850 190 171 151 0 0
-0.2828 0.4855 -0.8041 0.391 -0.814 0.430 183 164 141 0 0
-1.6808 0.5479 -0.2843 -0.667 -0.593 0.451 175 150 120 0 0
-1.6736 0.5410 -0.2828 -0.667 -0.593 0.451 173 148 119 0 0
-1.6555 0.5249 -0.2800 -0.551 -0.584 0.596 180 156 129 0 0
-1.6494 0.5192 -0.2790 -0.483 -0.582 0.654 179 155 128 0 0
-1.6303 0.5078 -0.2795 -0.172 -0.968 0.183 162 137 112 0 0
-1.6125 0.5184 -0.2933 -0.389 -0.546 0.742 158 132 106 0 0
-1.6104 0.5290 -0.3008 0.902 -0.413 0.129 170 143 116 0 0
-1.5819 0.5239 -0.3090 0.186 -0.278 0.942 179 153 128 0 0
-1.5792 0.5233 -0.3097 0.186 -0.278 0.942 176 150 124 0 0
-1.5784 0.5256 -0.3115 0.251 -0.748 0.614 175 149 121 0 0
-1.5061 0.5241 -0.3396 0.112 -0.978 -0.174 147 120 97 0 0
-1.5036 0.5237 -0.3404 -0.135 -0.918 -0.374 142 115 92 0 0
-1.4858 0.5251 -0.3484 0.603 -0.699 0.384 177 153 127 0 0
-1.4658 0.5354 -0.3629 0.551 -0.438 0.711 179 154 127 0 0
-1.4580 0.5340 -0.3651 0.781 -0.587 0.213 183 158 130 0 0
-1.4398 0.5260 -0.3674 -0.476 -0.587 0.655 179 153 127 0 0
-1.4363 0.5237 -0.3674 -0.282 -0.499 0.820 179 155 126 0 0
-1.4248 0.5192 -0.3693 -0.472 -0.703 0.532 193 174 149 0 0
-1.3425 0.5283 -0.4080 0.088 -0.985 0.149 202 184 159 0 0
-1.3413 0.5311 -0.4102 -0.261 -0.813 0.521 198 178 154 0 0
-1.3385 0.5301 -0.4107 -0.123 -0.430 0.894 192 171 146 0 0
-1.3025 0.5054 -0.4098 -0.638 -0.702 0.317 194 176 152 0 0
-1.2823 0.5257 -0.4306 -0.046 -0.892 0.450 183 159 134 0 0
-1.2799 0.5256 -0.4315 0.247 -0.950 0.191 177 152 127 0 0
-1.2777 0.5259 -0.4326 0.283 -0.894 0.346 173 147 122 0 0
-1.2751 0.5254 -0.4333 0.071 -0.802 0.593 170 145 120 0 0
-1.2730 0.5260 -0.4345 0.160 -0.970 0.184 172 146 121 0 0
-1.2710 0.5271 -0.4360 0.270 -0.963 -0.027 177 153 127 0 0
-1.2689 0.5277 -0.4373 0.244 -0.965 -0.099 183 160 135 0 0
-1.2666 0.5281 -0.4384 0.006 -0.998 -0.067 187 165 139 0 0
-1.2651 0.5303 -0.4404 0.469 -0.874 0.130 187 163 137 0 0
-1.2593 0.5342 -0.4451 0.813 -0.560 -0.159 192 173 147 0 0
-1.1910 0.5151 -0.4606 0.434 -0.821 0.371 193 167 140 0 0
-1.1888 0.5156 -0.4618 0.027 -0.943 0.331 196 170 144 0 0
-1.1858 0.5134 -0.4617 -0.299 -0.953 -0.045 197 171 145 0 0
-1.1813 0.5141 -0.4640 0.320 -0.939 0.123 201 176 151 0 0
-1.1788 0.5139 -0.4648 0.098 -0.963 0.250 200 174 148 0 0
-1.1770 0.5156 -0.4666 -0.219 -0.787 0.577 199 174 147 0 0
-1.1299 0.5269 -0.4926 0.873 -0.148 0.465 197 171 144 0 0
-1.1157 0.5280 -0.4990 -0.043 -0.375 0.926 191 162 133 0 0
-1.1055 0.5157 -0.4954 -0.616 -0.557 0.556 189 160 130 0 0
-1.0784 0.5231 -0.5110 -0.444 -0.008 0.896 200 177 153 0 0
-1.0671 0.5155 -0.5107 0.678 -0.423 0.601 204 183 161 0 0
-1.0641 0.5121 -0.5098 0.088 -0.258 0.962 203 181 158 0 0
-1.0429 0.5142 -0.5197 -0.125 -0.835 0.536 166 133 108 0 0
-1.0378 0.5127 -0.5208 -0.240 -0.815 0.528 185 158 132 0 0
-1.0163 0.5136 -0.5300 0.490 -0.861 0.139 193 167 141 0 0
-1.0140 0.5145 -0.5314 0.394 -0.894 0.213 196 170 143 0 0
-0.9143 0.5108 -0.5692 0.207 -0.472 0.857 197 175 148 0 0
-0.9094 0.5102 -0.5708 0.092 -0.361 0.928 200 178 154 0 0
-0.9069 0.5092 -0.5712 -0.007 -0.303 0.953 201 179 156 0 0
-0.9044 0.5080 -0.5714 -0.195 -0.264 0.945 203 182 160 0 0
-0.8923 0.5080 -0.5763 0.479 -0.710 0.516 198 176 154 0 0
-0.8899 0.5082 -0.5774 0.136 -0.612 0.779 202 180 158 0 0
-0.8875 0.5094 -0.5791 -0.336 -0.600 0.726 200 178 157 0 0
-0.8850 0.5081 -0.5793 -0.441 -0.604 0.664 197 175 153 0 0
-0.8825 0.5069 -0.5796 0.070 -0.632 0.771 193 169 146 0 0
-0.8630 0.5041 -0.5857 0.622 -0.632 0.462 191 167 144 0 0
-0.8583 0.5112 -0.5920 0.541 -0.695 0.473 191 167 144 0 0
-0.8559 0.5116 -0.5932 0.365 -0.794 0.486 192 168 145 0 0
-0.8534 0.5096 -0.5929 0.278 -0.568 0.775 190 167 144 0 0
-0.8510 0.5104 -0.5944 -0.128 -0.582 0.803 190 168 145 0 0
-0.8485 0.5100 -0.5952 0.358 -0.559 0.748 192 170 146 0 0
-0.8387 0.5049 -0.5959 0.071 -0.618 0.783 199 178 154 0 0
-0.8362 0.5050 -0.5970 0.245 -0.637 0.731 201 181 160 0 0
-0.7849 0.5053 -0.6178 -0.573 -0.511 0.641 202 185 166 0 0
-0.7825 0.5031 -0.6174 -0.573 -0.511 0.641 201 183 165 0 0
-0.7705 0.4981 -0.6191 0.081 -0.731 0.678 202 184 167 0 0
-0.7681 0.4977 -0.6198 0.288 -0.746 0.600 204 189 170 0 0
-0.7658 0.4952 -0.6192 0.620 -0.559 0.551 205 188 172 0 0
-0.7632 0.4974 -0.6216 0.435 -0.529 0.728 203 185 169 0 0
-0.7229 0.4830 -0.6288 -0.043 -0.756 0.654 210 197 180 0 0
-0.6850 0.4755 -0.6393 -0.179 -0.942 0.283 184 162 139 0 0
-0.6491 0.4891 -0.6623 0.042 -0.513 0.858 179 154 132 0 0
-0.6465 0.4900 -0.6639 0.532 -0.648 0.545 188 164 143 0 0
-0.6335 0.4943 -0.6718 0.380 -0.844 0.378 175 150 128 0 0
-0.6310 0.4944 -0.6729 0.183 -0.748 0.637 180 155 133 0 0
-0.5986 0.4831 -0.6788 -0.131 -0.966 0.222 186 162 137 0 0
-0.5643 0.4720 -0.6857 -0.264 -0.520 0.812 198 181 163 0 0
-0.5623 0.4700 -0.6852 -0.241 -0.535 0.810 205 188 172 0 0
-0.5340 0.4758 -0.7002 0.602 -0.795 0.077 176 155 133 0 0
-0.5321 0.4736 -0.6996 -0.115 -0.993 -0.002 167 145 123 0 0
-0.5278 0.4714 -0.7000 0.277 -0.841 0.465 167 145 125 0 0
-0.4723 0.4604 -0.7154 -0.085 -0.881 0.466 183 163 140 0 0
-0.4655 0.4588 -0.7171 -0.509 -0.572 0.643 185 165 143 0 0
-0.4571 0.4545 -0.7178 0.332 -0.919 0.214 180 159 135 0 0
-0.2544 0.4980 -0.8265 0.608 -0.064 0.792 191 175 158 0 0
-1.6864 0.5312 -0.2746 0.169 0.123 0.978 165 139 111 0 0
-1.6665 0.5224 -0.2771 -0.203 -0.216 0.955 175 149 120 0 0
-1.6556 0.5230 -0.2819 -0.551 -0.584 0.596 184 161 134 0 0
-1.6346 0.5089 -0.2815 -0.295 -0.890 0.348 163 140 112 0 0
-1.6315 0.5077 -0.2820 -0.316 -0.920 0.230 159 136 109 0 0
-1.6315 0.5110 -0.2840 0.072 -0.993 -0.090 152 127 101 0 0
-1.6294 0.5112 -0.2850 0.072 -0.993 -0.090 154 127 102 0 0
-1.6231 0.5221 -0.2944 0.388 -0.466 0.795 159 133 107 0 0
-1.5956 0.5291 -0.3098 -0.569 -0.453 0.686 181 156 129 0 0
-1.5883 0.5212 -0.3078 0.122 -0.642 0.757 183 159 131 0 0
-1.5857 0.5207 -0.3085 0.514 -0.564 0.646 188 165 140 0 0
-1.5827 0.5196 -0.3090 0.622 -0.476 0.622 188 164 139 0 0
-1.5787 0.5204 -0.3112 0.555 -0.432 0.711 181 156 128 0 0
-1.5756 0.5191 -0.3116 -0.290 -0.539 0.791 177 151 124 0 0
-1.3433 0.5276 -0.4103 0.292 -0.834 0.467 203 185 161 0 0
-1.3358 0.5265 -0.4127 -0.495 -0.488 0.719 191 170 145 0 0
-1.3314 0.5217 -0.4114 0.533 -0.679 0.505 190 168 143 0 0
-1.2765 0.5261 -0.4363 0.517 -0.845 0.136 168 141 116 0 0
-1.2717 0.5259 -0.4381 0.236 -0.772 0.590 181 156 129 0 0
-1.2696 0.5267 -0.4394 0.142 -0.821 0.553 189 165 140 0 0
-1.2670 0.5261 -0.4401 -0.026 -0.683 0.730 192 171 146 0 0
-1.2564 0.5297 -0.4466 0.768 -0.217 0.603 192 171 145 0 0
-1.2546 0.5312 -0.4483 0.793 -0.194 0.577 190 169 142 0 0
-1.2529 0.5332 -0.4502 0.715 -0.244 0.655 189 165 139 0 0
-1.2433 0.5127 -0.4412 -0.533 -0.390 0.751 188 162 134 0 0
-1.2400 0.5100 -0.4409 0.443 -0.488 0.752 186 159 131 0 0
-1.2222 0.5060 -0.4455 0.302 -0.924 0.236 193 166 138 0 0
-1.2204 0.5076 -0.4472 0.654 -0.756 0.003 184 155 127 0 0
-1.2186 0.5092 -0.4490 0.654 -0.756 0.003 184 155 130 0 0
-1.2079 0.5200 -0.4600 0.321 -0.946 -0.042 189 163 137 0 0
-1.2059 0.5212 -0.4616 0.453 -0.870 -0.192 187 159 133 0 0
-1.2021 0.5241 -0.4650 0.474 -0.750 -0.462 192 165 139 0 0
-1.2005 0.5266 -0.4672 0.557 -0.782 -0.280 194 168 141 0 0
-1.1919 0.5145 -0.4630 0.073 -0.964 0.255 196 170 144 0 0
-1.1892 0.5133 -0.4634 -0.049 -0.687 0.725 199 173 148 0 0
-1.1864 0.5118 -0.4636 -0.274 -0.623 0.733 201 175 150 0 0
-1.1836 0.5103 -0.4637 0.014 -0.711 0.703 200 176 149 0 0
-1.1194 0.5290 -0.5013 0.214 -0.035 0.976 193 165 137 0 0
-1.0989 0.5136 -0.4999 -0.059 -0.829 0.556 207 187 165 0 0
-1.0964 0.5131 -0.5006 0.237 -0.894 0.381 209 188 166 0 0
-1.0480 0.5106 -0.5185 0.333 -0.708 0.623 184 154 126 0 0
-1.0459 0.5119 -0.5201 0.196 -0.899 0.393 175 143 116 0 0
-0.9718 0.5173 -0.5533 0.161 -0.979 -0.121 180 153 125 0 0
-0.9446 0.5126 -0.5613 0.015 -0.875 -0.484 174 147 120 0 0
-0.9419 0.5100 -0.5608 -0.292 -0.844 -0.450 176 148 122 0 0
-0.9393 0.5083 -0.5607 -0.564 -0.804 -0.188 185 156 130 0 0
-0.9150 0.5068 -0.5696 0.426 -0.450 0.785 200 180 154 0 0
-0.9125 0.5059 -0.5700 0.365 -0.344 0.865 201 179 155 0 0
-0.9101 0.5069 -0.5716 0.285 -0.326 0.901 197 173 149 0 0
-0.8930 0.5038 -0.5765 0.294 -0.707 0.643 198 176 153 0 0
-0.8906 0.5040 -0.5776 -0.338 -0.324 0.884 198 176 152 0 0
-0.8298 0.4991 -0.5990 -0.004 -0.550 0.835 200 181 157 0 0
-0.8177 0.4942 -0.6008 -0.257 -0.852 0.457 188 165 141 0 0
-0.7835 0.5008 -0.6187 0.312 -0.442 0.841 202 185 166 0 0
-0.7811 0.4995 -0.6189 0.310 -0.876 0.370 201 184 166 0 0
-0.7738 0.4980 -0.6208 -0.739 -0.660 0.133 199 181 159 0 0
-0.7714 0.4967 -0.6210 -0.399 -0.859 0.320 201 183 166 0 0
-0.7690 0.4957 -0.6213 0.121 -0.929 0.350 207 191 175 0 0
-0.7617 0.4957 -0.6243 0.099 -0.637 0.765 201 185 166 0 0
-0.7265 0.4790 -0.6279 0.016 -0.999 0.047 201 183 164 0 0
