ply
format ascii 1.0
element vertex 822
property float x
property float y
property float z
property float nx
property float ny
property float nz
property uchar diffuse_red
property uchar diffuse_green
property uchar diffuse_blue
property uchar class
property uchar detection
end_header
-5.0881 -0.4979 -4.7909 0.756 0.300 0.582 209 204 209 0 0
-5.0839 -0.5127 -4.7894 0.752 0.434 0.496 209 205 209 0 0
-5.0798 -0.5274 -4.7879 0.607 0.607 0.513 209 204 209 0 0
-5.0699 -0.5431 -4.7824 0.405 0.397 0.823 210 207 211 0 0
-5.0650 -0.5580 -4.7804 0.398 0.244 0.884 213 208 211 0 0
-5.0592 -0.5730 -4.7777 0.424 0.224 0.877 213 209 212 0 0
-5.0590 -0.5870 -4.7789 0.224 -0.075 0.972 214 209 213 0 0
-5.0568 -0.6717 -4.7854 0.116 0.086 0.990 209 201 200 0 0
-5.0721 -0.7400 -4.8026 0.029 -0.065 0.997 208 200 198 0 0
-5.0750 -1.0124 -4.8304 0.785 -0.313 0.535 214 211 218 0 0
-5.0876 -1.0985 -4.8473 0.579 0.340 0.741 215 209 211 0 0
-5.0625 -1.1740 -4.8369 0.158 0.168 0.973 216 210 213 0 0
-5.0406 -1.2345 -4.8272 0.515 -0.033 0.856 218 212 216 0 0
-5.0480 -1.2486 -4.8337 0.599 -0.117 0.792 216 211 215 0 0
-5.0417 -1.2638 -4.8307 0.946 0.011 0.323 215 209 213 0 0
-5.0562 -1.3219 -4.8464 0.712 -0.185 0.677 215 208 208 0 0
-5.0564 -1.3367 -4.8479 0.589 -0.125 0.798 215 207 205 0 0
-5.0514 -1.3815 -4.8487 0.062 0.269 0.961 215 206 206 0 0
-5.0443 -1.4863 -4.8536 0.322 0.086 0.943 215 209 213 0 0
-5.0535 -1.5309 -4.8643 0.492 0.371 0.788 216 210 214 0 0
-5.0637 -1.5758 -4.8757 0.953 -0.222 -0.205 212 207 212 0 0
-5.0687 -1.6060 -4.8820 0.988 0.002 0.154 211 208 217 0 0
-5.0685 -1.6211 -4.8833 0.988 0.002 0.154 215 214 227 0 0
-5.0724 -1.6362 -4.8875 0.882 0.060 0.468 216 217 230 0 0
-5.0550 -1.6822 -4.8796 0.641 0.317 0.699 218 215 223 0 0
-5.0554 -1.9900 -4.9090 0.562 0.325 0.760 217 207 214 0 0
-5.0716 -2.0060 -4.9219 0.405 0.459 0.790 218 208 216 0 0
-5.0630 -2.0214 -4.9173 0.405 0.459 0.790 218 208 216 0 0
-5.0484 -2.0365 -4.9084 0.434 0.744 0.508 218 208 216 0 0
-5.0348 -2.0516 -4.9003 0.271 0.851 0.449 216 206 215 0 0
-4.8490 -2.1664 -4.7804 0.224 0.967 0.118 206 98 113 0 0
-4.7562 -2.1914 -4.7176 0.414 0.721 0.555 208 63 69 0 0
-4.7579 -2.2218 -4.7216 0.330 0.868 0.371 206 48 47 0 0
-4.7472 -2.2363 -4.7155 0.315 0.859 0.403 204 50 45 0 0
-4.5069 -2.4712 -4.5687 0.790 -0.118 0.602 208 104 69 0 0
-4.4906 -2.5141 -4.5613 0.394 0.344 0.852 206 100 64 0 0
-4.4776 -2.5575 -4.5562 0.544 0.396 0.740 221 125 89 0 0
-4.4720 -2.5717 -4.5537 0.741 0.268 0.616 210 105 71 0 0
-4.4689 -2.5863 -4.5529 0.687 0.413 0.598 212 111 70 0 0
-4.4641 -2.6007 -4.5508 0.759 0.193 0.622 218 126 82 0 0
-4.2652 -4.5167 -4.5920 0.445 0.839 0.313 219 124 122 0 0
-4.2486 -4.5262 -4.5812 0.591 0.707 0.390 224 162 138 0 0
-4.2381 -4.5384 -4.5750 0.591 0.707 0.390 197 91 79 0 0
-4.2308 -4.5520 -4.5711 0.615 0.608 0.502 207 78 69 0 0
-4.2208 -4.5643 -4.5653 0.631 0.559 0.537 208 81 67 0 0
-4.1803 -4.6300 -4.5430 -0.380 0.734 0.563 208 152 112 0 0
-4.4297 -5.3008 -4.7818 0.154 0.434 0.888 178 164 207 0 0
-4.3994 -5.3569 -4.7658 0.171 0.373 0.912 219 198 203 0 0
-4.3916 -5.3707 -4.7616 0.171 0.373 0.912 219 199 202 0 0
-4.3579 -5.5898 -4.7586 0.273 0.271 0.923 218 211 217 0 0
-4.3262 -5.6075 -4.7380 0.302 0.392 0.869 221 212 217 0 0
-4.2920 -5.7155 -4.7242 0.229 0.086 0.970 220 211 212 0 0
-4.2711 -5.8506 -4.7222 0.192 0.133 0.972 219 212 216 0 0
-4.2664 -5.8662 -4.7204 0.263 0.385 0.885 216 209 212 0 0
-4.2603 -5.8808 -4.7175 0.234 0.454 0.860 213 203 205 0 0
-4.2519 -5.8939 -4.7128 0.234 0.454 0.860 213 203 204 0 0
-4.2400 -5.9046 -4.7054 0.094 0.556 0.826 216 206 207 0 0
-4.1457 -6.2516 -4.6719 0.260 -0.007 0.966 218 208 207 0 0
-4.1321 -6.2604 -4.6632 0.088 0.026 0.996 218 208 206 0 0
-4.0796 -6.4292 -4.6422 0.454 0.151 0.878 217 208 210 0 0
-3.9909 -6.7985 -4.6147 0.062 0.457 0.888 218 209 210 0 0
-3.8842 -7.2109 -4.5786 0.349 0.215 0.912 217 210 210 0 0
-3.8768 -7.2435 -4.5765 0.487 -0.014 0.873 215 208 208 0 0
-3.8738 -7.2604 -4.5761 0.191 0.148 0.970 217 208 209 0 0
-3.8646 -7.3109 -4.5743 0.258 -0.076 0.963 215 207 205 0 0
-3.8626 -7.3288 -4.5746 0.242 -0.039 0.969 217 208 207 0 0
-3.8449 -7.3911 -4.5680 0.269 0.646 0.714 219 213 210 0 0
-3.8415 -7.4276 -4.5691 0.574 0.301 0.762 220 212 210 0 0
-3.8276 -7.4538 -4.5618 0.696 0.454 0.556 218 211 209 0 0
-3.8107 -7.4969 -4.5540 0.500 -0.262 0.825 217 209 207 0 0
-3.8127 -7.5189 -4.5575 0.310 -0.143 0.940 215 207 205 0 0
-3.8208 -7.5470 -4.5658 0.524 -0.342 0.780 212 204 202 0 0
-3.8303 -7.5967 -4.5772 0.486 -0.343 0.804 215 208 206 0 0
-3.7772 -7.6433 -4.5443 0.060 0.435 0.898 211 206 203 0 0
-3.7739 -7.6600 -4.5435 0.388 0.184 0.903 216 208 206 0 0
-3.7657 -7.6917 -4.5407 0.471 0.206 0.858 215 209 209 0 0
-3.7619 -7.7079 -4.5396 0.822 0.526 0.219 215 209 209 0 0
-3.7335 -7.7387 -4.5225 0.596 0.778 0.198 215 209 209 0 0
-3.7389 -7.8456 -4.5365 0.081 0.012 0.997 216 207 207 0 0
-3.6007 -8.4094 -4.4925 0.919 -0.341 0.197 214 206 203 0 0
-3.5312 -8.4296 -4.4456 0.334 -0.051 0.941 214 205 203 0 0
-3.5361 -8.4564 -4.4516 0.412 -0.127 0.902 214 207 203 0 0
-3.5500 -8.5779 -4.4728 0.231 0.106 0.967 216 210 207 0 0
-3.5454 -8.5933 -4.4710 0.449 0.076 0.890 216 209 207 0 0
-3.5436 -8.6121 -4.4716 0.587 0.071 0.807 215 206 203 0 0
-3.5408 -8.6296 -4.4712 0.549 0.083 0.832 213 204 200 0 0
-3.5372 -8.6462 -4.4702 0.297 0.610 0.735 212 203 198 0 0
-3.5046 -8.8592 -4.4674 0.254 0.078 0.964 210 199 195 0 0
-5.2986 0.7335 -4.8046 0.064 0.080 0.995 204 201 207 0 0
-5.2799 0.7139 -4.7933 0.118 0.045 0.992 204 201 206 0 0
-5.2709 0.6846 -4.7898 0.321 0.591 0.740 202 199 205 0 0
-5.2584 0.6673 -4.7826 0.285 0.388 0.876 200 197 203 0 0
-5.2584 0.6542 -4.7839 0.779 0.359 0.514 201 197 203 0 0
-5.2536 0.6394 -4.7819 0.866 0.195 0.461 200 198 204 0 0
-5.2616 0.4437 -4.8059 0.019 0.241 0.970 200 196 199 0 0
-5.2647 0.4313 -4.8092 0.130 0.691 0.711 199 196 199 0 0
-5.2615 0.4169 -4.8083 0.179 0.772 0.610 203 198 202 0 0
-5.1928 0.3429 -4.7671 0.399 0.316 0.860 207 202 207 0 0
-5.2223 0.1635 -4.8046 0.363 0.664 0.654 208 206 212 0 0
-5.1362 -0.0486 -4.7642 0.553 0.404 0.728 203 198 203 0 0
-5.1284 -0.0641 -4.7602 0.250 0.514 0.821 203 198 201 0 0
-5.1262 -0.1601 -4.7676 0.111 -0.011 0.994 206 198 200 0 0
-5.1228 -0.1745 -4.7666 0.122 -0.084 0.989 206 197 198 0 0
-5.1286 -0.2419 -4.7770 0.138 0.299 0.944 204 194 189 0 0
-5.1211 -0.2573 -4.7732 0.543 0.252 0.801 205 196 191 0 0
-5.1225 -0.2845 -4.7767 0.287 0.063 0.956 207 199 197 0 0
-5.1164 -0.3134 -4.7752 0.287 0.369 0.884 210 209 214 0 0
-5.0964 -0.4284 -4.7719 0.660 -0.089 0.746 215 213 219 0 0
-5.0899 -0.4992 -4.7740 0.483 0.317 0.816 214 209 213 0 0
-5.1009 -0.5252 -4.7842 0.443 0.133 0.887 211 206 210 0 0
-5.0897 -0.5412 -4.7778 0.214 0.341 0.916 211 206 210 0 0
-5.0883 -0.5555 -4.7781 0.227 0.610 0.759 213 208 209 0 0
-5.0859 -0.6403 -4.7844 0.361 0.650 0.669 213 207 210 0 0
-5.1018 -1.0252 -4.8317 0.792 -0.357 0.495 218 215 221 0 0
-5.1029 -1.0396 -4.8338 0.786 -0.390 0.480 219 216 223 0 0
-5.1081 -1.0829 -4.8415 0.861 -0.204 0.465 214 210 211 0 0
-5.1127 -1.0971 -4.8460 0.479 -0.006 0.878 214 209 210 0 0
-5.1041 -1.1567 -4.8456 0.124 0.374 0.919 212 206 208 0 0
-5.0887 -1.1728 -4.8363 0.286 0.374 0.882 213 207 210 0 0
-5.0848 -1.1878 -4.8350 0.138 0.595 0.792 215 209 212 0 0
-5.0743 -1.2034 -4.8291 0.244 0.565 0.788 217 212 215 0 0
-5.0529 -1.2345 -4.8170 0.519 0.186 0.834 218 212 216 0 0
-5.0510 -1.2641 -4.8185 0.772 0.014 0.635 215 209 212 0 0
-5.0497 -1.2789 -4.8190 0.603 -0.200 0.773 214 208 211 0 0
-5.0633 -1.3075 -4.8312 0.574 -0.556 0.602 214 207 209 0 0
-5.0712 -1.3218 -4.8381 0.569 -0.184 0.801 215 206 205 0 0
-5.0726 -1.3365 -4.8404 0.569 -0.184 0.801 214 204 202 0 0
-5.0763 -1.3809 -4.8472 0.062 0.269 0.961 215 206 205 0 0
-5.0723 -1.4858 -4.8542 0.136 -0.048 0.990 215 210 211 0 0
-5.0736 -1.6065 -4.8665 0.919 -0.100 0.381 212 207 215 0 0
-5.0744 -1.6216 -4.8685 0.919 -0.100 0.381 213 211 221 0 0
-5.0626 -1.7589 -4.8730 0.330 0.031 0.943 217 210 216 0 0
-5.0811 -1.9598 -4.9049 0.357 0.555 0.751 217 207 213 0 0
-5.0918 -2.0226 -4.9182 0.169 0.599 0.783 219 209 218 0 0
-5.0778 -2.0378 -4.9098 0.131 0.688 0.714 219 209 218 0 0
-5.0527 -2.0525 -4.8937 0.183 0.848 0.498 219 209 217 0 0
-4.8901 -2.1534 -4.7892 0.464 0.841 0.279 199 128 153 0 0
-4.8630 -2.1673 -4.7715 0.342 0.919 0.196 205 94 106 0 0
-4.8173 -2.1799 -4.7407 0.373 0.880 0.293 208 77 83 0 0
-4.7751 -2.1926 -4.7123 0.616 0.530 0.583 209 62 68 0 0
-4.7692 -2.2226 -4.7110 0.312 0.836 0.452 206 49 45 0 0
-4.7586 -2.2371 -4.7049 0.315 0.859 0.403 204 50 43 0 0
-4.5220 -2.4725 -4.5612 0.455 0.149 0.878 201 94 56 0 0
-4.4969 -2.5445 -4.5504 0.480 0.380 0.791 215 115 77 0 0
-4.4897 -2.5586 -4.5467 0.544 0.396 0.740 215 116 79 0 0
-4.4775 -2.6020 -4.5422 0.769 -0.275 0.578 211 111 70 0 0
-4.4757 -2.6168 -4.5423 0.496 0.293 0.817 222 127 82 0 0
-4.4737 -2.6316 -4.5423 0.477 0.237 0.846 227 135 87 0 0
-4.4708 -2.6462 -4.5417 0.560 0.167 0.812 225 121 85 0 0
-4.4684 -2.6760 -4.5427 0.238 0.115 0.964 215 75 62 0 0
-4.5903 -2.8629 -4.6457 0.598 0.801 -0.031 231 109 95 0 0
-4.5623 -2.8738 -4.6272 0.572 0.818 -0.066 234 117 102 0 0
-4.2577 -4.5278 -4.5689 0.655 0.711 0.255 237 200 175 0 0
-4.2388 -4.5531 -4.5580 0.758 0.627 0.180 200 93 79 0 0
-4.2367 -4.5690 -4.5580 0.858 0.322 0.400 208 80 63 0 0
-4.2313 -4.6003 -4.5572 0.563 0.057 0.825 211 128 68 0 0
-4.2077 -4.6402 -4.5444 -0.344 0.830 0.438 242 193 114 0 0
-4.4571 -5.2943 -4.7805 0.171 0.373 0.912 185 161 205 0 0
-4.4480 -5.3075 -4.7753 0.154 0.434 0.888 182 157 197 0 0
-4.4428 -5.3230 -4.7731 0.111 0.522 0.846 190 159 192 0 0
-4.4150 -5.3623 -4.7573 0.254 0.499 0.829 219 197 203 0 0
-4.4058 -5.3754 -4.7521 0.240 0.566 0.789 218 198 202 0 0
-4.3696 -5.5932 -4.7472 0.149 0.543 0.826 218 206 208 0 0
-4.3473 -5.6166 -4.7338 0.247 0.337 0.908 219 208 210 0 0
-4.3082 -5.7218 -4.7162 0.140 0.120 0.983 222 213 214 0 0
-4.2931 -5.8609 -4.7187 0.245 0.379 0.892 219 216 222 0 0
-4.2849 -5.8743 -4.7142 0.234 0.454 0.860 218 213 220 0 0
-4.2765 -5.8874 -4.7096 0.234 0.454 0.860 218 211 214 0 0
-4.2681 -5.9005 -4.7049 0.234 0.454 0.860 218 209 210 0 0
-4.2595 -5.9135 -4.7001 0.258 0.497 0.829 217 207 208 0 0
-4.2384 -5.9366 -4.6875 0.175 0.262 0.949 218 209 209 0 0
-4.1537 -6.3097 -4.6631 0.135 0.565 0.814 212 203 203 0 0
-4.0621 -6.6400 -4.6300 0.114 -0.071 0.991 217 207 206 0 0
-4.0086 -6.8081 -4.6083 0.053 0.242 0.969 216 208 209 0 0
-3.9669 -6.8887 -4.5866 0.282 0.247 0.927 216 208 206 0 0
-3.9744 -6.9147 -4.5943 0.110 0.064 0.992 215 207 206 0 0
-3.9719 -6.9709 -4.5978 0.233 -0.090 0.968 213 206 204 0 0
-3.9128 -7.1724 -4.5753 0.330 0.462 0.823 214 206 206 0 0
-3.8938 -7.2534 -4.5696 0.426 -0.011 0.905 217 209 208 0 0
-3.8367 -7.5364 -4.5561 0.069 -0.036 0.997 215 207 205 0 0
-3.8165 -7.6164 -4.5494 0.509 0.632 0.585 210 203 204 0 0
-3.8077 -7.6277 -4.5444 0.565 0.462 0.684 210 203 204 0 0
-3.7870 -7.6669 -4.5336 0.321 0.279 0.905 215 210 207 0 0
-3.7833 -7.6831 -4.5325 0.449 0.212 0.868 215 210 208 0 0
-3.6630 -8.2256 -4.4991 0.200 0.268 0.942 213 205 202 0 0
-3.6484 -8.3123 -4.4969 0.212 0.132 0.968 211 201 197 0 0
-3.6446 -8.3287 -4.4958 0.012 0.597 0.802 206 195 190 0 0
-3.6340 -8.3370 -4.4892 -0.231 0.630 0.741 207 196 192 0 0
-3.6207 -8.3421 -4.4803 -0.230 0.669 0.707 209 198 194 0 0
-3.6175 -8.3591 -4.4797 0.126 0.339 0.932 212 203 199 0 0
-3.6055 -8.3865 -4.4739 0.743 -0.175 0.646 214 206 203 0 0
-3.6029 -8.4042 -4.4737 0.827 -0.418 0.376 215 207 204 0 0
-3.5585 -8.4757 -4.4493 0.256 -0.345 0.903 214 206 202 0 0
-3.5646 -8.5669 -4.4622 0.378 -0.212 0.901 212 205 201 0 0
-3.5635 -8.6077 -4.4652 0.348 -0.006 0.937 212 203 199 0 0
-3.5623 -8.6272 -4.4662 0.181 0.144 0.973 212 203 198 0 0
-3.5007 -8.8883 -4.4475 -0.029 0.371 0.928 210 200 196 0 0
-5.3537 0.7896 -4.8199 0.130 0.243 0.961 200 197 202 0 0
-5.3324 0.7689 -4.8069 0.009 0.105 0.994 201 197 202 0 0
-5.2856 0.6871 -4.7819 0.352 0.672 0.652 203 200 206 0 0
-5.2686 0.6682 -4.7718 0.354 0.693 0.628 201 198 204 0 0
-5.2926 0.6632 -4.7890 0.161 0.344 0.925 200 197 204 0 0
-5.2513 0.6361 -4.7626 0.971 0.221 -0.089 200 197 203 0 0
-5.2564 0.6116 -4.7685 0.935 -0.145 0.324 201 198 205 0 0
-5.2825 0.5806 -4.7896 0.779 0.520 0.351 203 200 207 0 0
-5.2598 0.5600 -4.7757 0.688 0.699 0.197 204 201 208 0 0
-5.3130 0.5107 -4.8174 -0.011 0.324 0.946 205 200 205 0 0
-5.2982 0.4526 -4.8125 0.033 0.047 0.998 199 195 198 0 0
-5.3092 0.4426 -4.8211 0.404 0.238 0.883 199 195 198 0 0
-5.3097 0.4293 -4.8227 0.353 0.597 0.720 201 197 199 0 0
-5.2830 0.4077 -4.8060 0.257 0.641 0.723 203 199 201 0 0
-5.2610 0.3877 -4.7926 0.169 0.664 0.729 203 198 202 0 0
-5.2316 0.3120 -4.7791 0.410 -0.313 0.857 207 203 208 0 0
-5.2632 0.2403 -4.8078 0.578 0.103 0.809 207 205 210 0 0
-5.2630 0.2267 -4.8089 0.544 -0.078 0.835 208 206 209 0 0
-5.2617 0.2128 -4.8094 0.631 0.142 0.762 208 204 208 0 0
-5.2511 0.1963 -4.8035 0.557 0.476 0.681 206 202 208 0 0
-5.2486 0.1820 -4.8031 0.611 0.591 0.527 205 201 207 0 0
-5.2352 0.1648 -4.7953 0.538 0.687 0.488 205 202 207 0 0
-5.1533 -0.1283 -4.7655 0.202 0.012 0.979 205 198 198 0 0
-5.1517 -0.1424 -4.7656 0.202 0.012 0.979 206 198 199 0 0
-5.1498 -0.1566 -4.7656 0.193 0.018 0.981 207 199 199 0 0
-5.1449 -0.1714 -4.7636 0.122 -0.084 0.989 206 199 197 0 0
-5.1560 -0.1826 -4.7724 0.298 -0.174 0.939 206 198 196 0 0
-5.1721 -0.2342 -4.7884 0.519 0.766 0.380 204 195 190 0 0
-5.1597 -0.2507 -4.7813 0.531 0.819 0.218 205 195 192 0 0
-5.1598 -0.2646 -4.7827 0.448 0.461 0.766 208 200 197 0 0
-5.1546 -0.2934 -4.7817 0.337 0.497 0.800 208 204 206 0 0
-5.1089 -0.4834 -4.7675 0.452 0.226 0.863 216 211 215 0 0
-5.1109 -0.4970 -4.7702 0.575 -0.168 0.801 217 212 216 0 0
-5.1055 -0.5120 -4.7678 0.902 -0.005 0.433 216 211 215 0 0
-5.1038 -0.5263 -4.7679 0.839 -0.123 0.530 215 210 214 0 0
-5.1128 -0.5387 -4.7754 0.485 0.241 0.841 214 209 212 0 0
-5.1052 -0.5541 -4.7715 0.646 0.522 0.557 212 208 211 0 0
-5.1286 -0.6065 -4.7927 0.239 -0.241 0.940 213 207 207 0 0
-5.1013 -0.6393 -4.7767 0.225 0.542 0.810 212 207 206 0 0
-5.1128 -0.9815 -4.8166 0.407 -0.185 0.894 214 208 211 0 0
-5.1267 -1.0383 -4.8316 0.443 -0.327 0.834 215 211 215 0 0
-5.1263 -1.0529 -4.8327 0.401 -0.313 0.861 215 210 214 0 0
-5.1294 -1.0673 -4.8362 0.337 -0.127 0.933 214 209 210 0 0
-5.1141 -1.0981 -4.8283 0.109 -0.000 0.994 212 206 208 0 0
-5.1227 -1.1709 -4.8412 0.138 0.595 0.792 214 208 209 0 0
-5.0997 -1.2023 -4.8280 0.330 0.517 0.790 213 207 209 0 0
-5.0890 -1.2179 -4.8220 0.232 0.404 0.885 214 208 210 0 0
-5.0667 -1.2491 -4.8094 0.307 0.271 0.912 214 209 211 0 0
-5.0929 -1.4107 -4.8426 0.167 0.054 0.985 215 209 209 0 0
-5.0903 -1.4258 -4.8423 0.167 0.054 0.985 215 209 210 0 0
-5.1106 -1.5454 -4.8676 0.482 0.062 0.874 216 211 215 0 0
-5.1143 -1.5605 -4.8715 0.515 -0.033 0.856 216 211 215 0 0
-5.0823 -1.6069 -4.8535 0.936 -0.252 0.246 216 211 216 0 0
-5.0806 -1.6221 -4.8538 0.919 -0.100 0.381 216 211 218 0 0
-5.0840 -1.6676 -4.8603 0.592 -0.057 0.804 219 215 220 0 0
-5.0866 -1.7900 -4.8736 0.445 -0.293 0.846 218 211 215 0 0
-5.0875 -1.8363 -4.8785 0.374 -0.109 0.921 216 207 209 0 0
-5.0863 -1.8517 -4.8791 0.212 0.246 0.946 215 205 209 0 0
-5.1138 -1.9609 -4.9085 0.592 0.288 0.753 221 212 219 0 0
-5.0883 -2.0384 -4.8979 0.202 0.797 0.569 218 208 217 0 0
-5.0702 -2.0534 -4.8866 0.255 0.829 0.497 218 208 216 0 0
-5.0429 -2.0679 -4.8689 0.107 0.858 0.503 218 208 216 0 0
-4.8730 -2.1679 -4.7597 0.481 0.796 0.368 208 95 107 0 0
-4.8208 -2.1802 -4.7244 0.344 0.853 0.393 207 75 82 0 0
-4.7818 -2.1931 -4.6984 0.531 0.410 0.742 208 59 66 0 0
-4.5129 -2.5461 -4.5436 0.476 0.230 0.849 215 118 76 0 0
-4.4864 -2.6630 -4.5360 0.840 -0.197 0.505 239 161 110 0 0
-4.5307 -2.7299 -4.5731 0.978 0.158 -0.138 221 82 69 0 0
-4.2635 -4.5279 -4.5540 0.655 0.711 0.255 230 176 167 0 0
-4.2523 -4.5398 -4.5473 0.758 0.627 0.180 247 239 221 0 0
-4.2473 -4.5544 -4.5452 0.865 0.483 0.136 225 186 164 0 0
-4.2432 -4.5694 -4.5438 0.858 0.322 0.400 201 106 90 0 0
-4.2392 -4.5845 -4.5424 0.895 0.057 0.443 206 98 73 0 0
-4.2451 -4.6210 -4.5499 0.572 -0.196 0.796 215 114 79 0 0
-4.1342 -4.6871 -4.4786 -0.268 0.721 0.639 227 142 90 0 0
-4.2218 -4.7632 -4.5469 -0.264 -0.235 0.935 232 158 98 0 0
-4.2457 -4.9646 -4.5823 -0.128 0.902 0.413 212 144 100 0 0
-4.2955 -5.1312 -4.6325 0.787 -0.561 -0.255 200 135 118 0 0
-4.4689 -5.3158 -4.7708 0.213 0.409 0.887 190 142 164 0 0
-4.4652 -5.3320 -4.7697 0.018 0.682 0.732 199 155 173 0 0
-4.4416 -5.3555 -4.7554 -0.025 0.732 0.681 215 191 199 0 0
-4.4209 -5.3805 -4.7433 0.192 0.628 0.754 218 198 204 0 0
-4.3319 -5.7143 -4.7122 0.126 0.221 0.967 219 210 211 0 0
-4.3148 -5.8710 -4.7148 0.146 0.114 0.983 222 218 225 0 0
-4.2176 -6.1811 -4.6759 0.168 0.147 0.975 217 211 215 0 0
-4.1786 -6.2855 -4.6584 0.360 0.100 0.927 213 209 214 0 0
-4.1593 -6.3282 -4.6489 0.078 0.558 0.826 219 212 214 0 0
-4.1167 -6.4864 -4.6339 0.205 0.042 0.978 217 208 209 0 0
-4.0982 -6.6062 -4.6322 0.187 -0.087 0.978 218 210 208 0 0
-4.0922 -6.6206 -4.6293 0.209 -0.058 0.976 217 209 207 0 0
-3.9839 -7.0150 -4.5905 0.169 0.016 0.985 214 205 205 0 0
-3.9532 -7.1643 -4.5829 0.393 0.200 0.898 215 208 211 0 0
-3.9102 -7.2627 -4.5620 0.426 -0.011 0.905 218 210 208 0 0
-3.8611 -7.5341 -4.5530 -0.004 0.114 0.993 216 208 206 0 0
-3.8180 -7.6315 -4.5320 0.507 0.676 0.534 213 208 206 0 0
-3.8036 -7.6772 -4.5263 0.261 0.321 0.910 213 208 207 0 0
-3.7976 -7.6912 -4.5233 0.471 0.206 0.858 214 206 206 0 0
-3.7911 -7.7046 -4.5201 0.379 0.169 0.910 215 208 209 0 0
-3.7863 -7.7198 -4.5181 0.257 0.059 0.965 216 209 209 0 0
-3.7646 -7.9203 -4.5217 0.518 0.131 0.846 216 208 206 0 0
-3.7616 -7.9375 -4.5212 0.661 -0.185 0.727 216 208 206 0 0
-3.7035 -8.1403 -4.4995 0.327 0.114 0.938 212 202 198 0 0
-3.7057 -8.1635 -4.5032 0.123 0.377 0.918 212 204 200 0 0
-3.6804 -8.2380 -4.4925 0.254 0.263 0.931 216 206 204 0 0
-3.6802 -8.2585 -4.4942 0.175 0.495 0.851 216 207 205 0 0
-3.6743 -8.2725 -4.4915 0.667 -0.164 0.727 218 210 208 0 0
-3.6649 -8.3240 -4.4897 0.530 0.317 0.787 209 201 196 0 0
-3.6594 -8.3384 -4.4872 0.367 0.463 0.807 205 195 191 0 0
-3.6447 -8.3420 -4.4773 -0.216 0.585 0.781 206 196 192 0 0
-3.6326 -8.3484 -4.4694 -0.212 0.611 0.763 208 200 195 0 0
-3.6103 -8.4052 -4.4591 0.834 -0.434 0.341 214 207 203 0 0
-3.5687 -8.4593 -4.4351 -0.078 -0.106 0.991 214 205 202 0 0
-3.5863 -8.5016 -4.4514 0.256 -0.345 0.903 213 204 202 0 0
-3.5927 -8.5724 -4.4624 -0.078 0.082 0.994 212 204 200 0 0
-3.5863 -8.6278 -4.4631 0.184 0.028 0.983 211 202 197 0 0
-3.5809 -8.6422 -4.4607 0.031 0.186 0.982 210 200 194 0 0
-3.5396 -8.6961 -4.4369 0.685 -0.133 0.716 211 202 197 0 0
-3.4962 -8.8738 -4.4232 0.074 0.168 0.983 211 201 196 0 0
-5.3646 0.7776 -4.8105 0.521 0.708 0.477 201 199 202 0 0
-5.3479 0.7585 -4.8006 0.521 0.708 0.477 199 197 201 0 0
-5.3350 0.7277 -4.7945 0.266 0.720 0.641 204 200 205 0 0
-5.3025 0.7034 -4.7742 0.341 0.739 0.581 204 201 206 0 0
-5.2773 0.5764 -4.7683 0.728 0.446 0.521 203 201 206 0 0
-5.2609 0.5579 -4.7587 0.651 0.698 0.298 204 201 207 0 0
-5.3317 0.5276 -4.8107 0.027 -0.202 0.979 205 199 203 0 0
-5.3399 0.5168 -4.8174 0.055 0.232 0.971 204 198 203 0 0
-5.3261 0.4454 -4.8144 0.410 0.291 0.864 201 196 197 0 0
-5.3271 0.4322 -4.8163 0.412 0.535 0.738 201 197 198 0 0
-5.3111 0.4139 -4.8069 0.359 0.632 0.687 203 199 200 0 0
-5.2858 0.3928 -4.7913 0.173 0.676 0.716 205 200 204 0 0
-5.2829 0.2572 -4.8018 0.960 0.081 0.267 201 198 203 0 0
-5.2809 0.2430 -4.8017 0.924 0.237 0.300 205 202 208 0 0
-5.2799 0.2292 -4.8022 0.868 0.193 0.458 210 208 212 0 0
-5.2742 0.2140 -4.7997 0.855 0.312 0.414 212 210 214 0 0
-5.2638 0.1976 -4.7940 0.557 0.476 0.681 213 211 216 0 0
-5.2588 0.1826 -4.7919 0.611 0.591 0.527 210 208 213 0 0
-5.2459 0.1655 -4.7845 0.538 0.687 0.488 208 206 211 0 0
-5.1833 -0.0411 -4.7601 0.221 0.028 0.975 205 201 202 0 0
-5.1730 -0.1394 -4.7620 0.103 0.036 0.994 206 198 198 0 0
-5.1726 -0.1532 -4.7630 0.121 0.073 0.990 208 200 199 0 0
-5.1672 -0.1682 -4.7606 0.117 0.033 0.993 208 202 199 0 0
-5.1730 -0.1806 -4.7658 0.155 -0.147 0.977 208 202 199 0 0
-5.2052 -0.1872 -4.7888 0.751 0.159 0.641 209 201 200 0 0
-5.1785 -0.2347 -4.7746 0.603 0.723 0.337 210 204 205 0 0
-5.1647 -0.2515 -4.7666 0.538 0.808 0.240 210 204 206 0 0
-5.1685 -0.2645 -4.7704 0.383 0.172 0.908 210 205 208 0 0
-5.1640 -0.2794 -4.7686 0.418 0.131 0.899 211 208 212 0 0
-5.1637 -0.2933 -4.7698 0.337 0.260 0.905 211 209 214 0 0
-5.1198 -0.3855 -4.7478 0.458 -0.192 0.868 214 212 217 0 0
-5.1255 -0.4820 -4.7606 0.391 0.270 0.880 215 210 214 0 0
-5.1269 -0.4957 -4.7629 0.182 0.126 0.975 215 210 214 0 0
-5.1263 -0.5239 -4.7651 0.351 0.148 0.925 215 210 214 0 0
-5.1073 -0.5413 -4.7534 0.813 0.237 0.532 214 210 210 0 0
-5.1037 -0.5559 -4.7523 0.813 0.237 0.532 214 210 211 0 0
-5.1402 -0.5778 -4.7797 -0.033 -0.004 0.999 213 207 208 0 0
-5.1354 -0.5927 -4.7778 -0.021 -0.078 0.997 213 207 207 0 0
-5.1246 -0.6370 -4.7743 0.166 0.630 0.759 211 205 202 0 0
-5.1264 -0.9666 -4.8060 0.348 -0.153 0.925 213 207 208 0 0
-5.1273 -0.9811 -4.8080 0.376 -0.243 0.894 214 208 210 0 0
-5.1601 -1.1538 -4.8468 0.046 0.435 0.899 214 208 210 0 0
-5.0773 -1.5322 -4.8242 -0.026 0.387 0.922 217 211 215 0 0
-5.1063 -1.6374 -4.8540 0.862 -0.327 0.386 218 212 216 0 0
-5.1010 -1.6527 -4.8518 0.518 0.125 0.846 218 212 215 0 0
-5.0982 -1.6680 -4.8512 0.518 0.125 0.846 217 211 215 0 0
-5.1168 -1.8524 -4.8811 0.078 0.279 0.957 215 206 208 0 0
-5.1267 -1.9616 -4.8981 0.592 0.288 0.753 218 212 219 0 0
-5.1224 -1.9771 -4.8966 0.451 0.234 0.861 218 211 218 0 0
-5.1141 -2.0396 -4.8966 0.243 0.636 0.733 217 207 215 0 0
-5.0999 -2.0547 -4.8881 0.243 0.636 0.733 215 204 212 0 0
-5.0554 -2.0686 -4.8584 0.182 0.795 0.579 215 204 212 0 0
-5.0796 -2.0853 -4.8768 0.095 0.738 0.668 215 204 211 0 0
-4.8981 -2.1541 -4.7570 0.317 0.782 0.537 205 134 157 0 0
-4.8734 -2.1680 -4.7411 0.354 0.725 0.591 207 95 105 0 0
-4.8328 -2.1810 -4.7141 0.299 0.818 0.491 206 73 81 0 0
-4.7887 -2.1936 -4.6847 0.457 0.429 0.779 207 57 65 0 0
-4.5016 -2.6345 -4.5258 0.452 0.229 0.862 223 143 87 0 0
-4.4976 -2.6490 -4.5244 0.559 0.033 0.828 224 149 90 0 0
-4.5280 -2.7290 -4.5529 0.978 0.158 -0.138 220 81 69 0 0
-4.6206 -3.1344 -4.6547 0.265 0.960 -0.087 239 164 140 0 0
-4.2565 -4.5392 -4.5314 0.758 0.627 0.180 239 203 206 0 0
-4.2505 -4.5533 -4.5285 0.865 0.483 0.136 253 250 240 0 0
-4.2499 -4.5699 -4.5296 0.961 0.216 0.172 242 224 208 0 0
-4.2470 -4.5855 -4.5291 0.901 0.265 0.343 248 218 179 0 0
-4.2431 -4.6006 -4.5277 0.901 0.265 0.343 242 196 144 0 0
-4.2457 -4.6866 -4.5375 -0.299 0.802 0.517 213 128 84 0 0
-4.2088 -4.6862 -4.5118 -0.301 0.808 0.506 215 128 85 0 0
-4.1794 -4.6892 -4.4917 -0.278 0.846 0.455 215 127 83 0 0
-4.1431 -4.8068 -4.4772 0.815 -0.519 -0.257 205 102 63 0 0
-4.1612 -4.8328 -4.4923 0.830 -0.463 -0.311 203 101 61 0 0
-4.1761 -4.8573 -4.5048 0.855 -0.427 -0.294 205 106 65 0 0
-4.4313 -5.5487 -4.7461 0.416 0.115 0.902 222 210 210 0 0
-4.4073 -5.5899 -4.7333 0.106 0.529 0.842 219 206 203 0 0
-4.3987 -5.6033 -4.7285 0.050 0.524 0.850 219 204 200 0 0
-4.3917 -5.6176 -4.7249 -0.086 0.361 0.929 217 199 194 0 0
-4.3813 -5.6298 -4.7189 0.019 0.201 0.979 213 196 193 0 0
-4.3769 -5.6456 -4.7173 0.069 0.231 0.970 215 202 201 0 0
-4.3681 -5.6773 -4.7141 0.150 -0.080 0.986 215 204 205 0 0
-4.3414 -5.8282 -4.7095 0.143 -0.077 0.987 217 207 208 0 0
-4.3322 -5.8971 -4.7094 -0.045 0.329 0.943 219 210 213 0 0
-4.3275 -5.9128 -4.7076 -0.111 0.534 0.838 220 210 213 0 0
-4.3137 -5.9225 -4.6989 -0.110 0.553 0.826 219 210 211 0 0
-4.3004 -5.9324 -4.6906 -0.110 0.553 0.826 219 209 210 0 0
-4.1867 -6.3248 -4.6478 0.171 0.529 0.831 218 212 217 0 0
-4.1758 -6.3358 -4.6413 0.135 0.565 0.814 219 213 215 0 0
-4.1505 -6.4120 -4.6307 0.210 0.059 0.976 217 208 211 0 0
-4.1131 -6.6323 -4.6250 0.442 0.080 0.893 215 205 206 0 0
-4.0193 -7.0406 -4.5976 0.063 0.324 0.944 214 205 203 0 0
-3.9757 -7.1790 -4.5800 0.183 0.120 0.976 215 207 206 0 0
-3.9614 -7.1856 -4.5707 0.121 0.382 0.916 215 207 206 0 0
-3.8915 -7.5377 -4.5546 -0.011 0.171 0.985 214 206 204 0 0
-3.8914 -7.5578 -4.5564 0.086 0.477 0.875 214 206 204 0 0
-3.8828 -7.5694 -4.5515 0.143 0.579 0.803 214 206 203 0 0
-3.8320 -7.6594 -4.5246 0.101 0.670 0.736 214 208 208 0 0
-3.8106 -7.6979 -4.5132 0.379 0.169 0.910 215 207 206 0 0
-3.8066 -7.7140 -4.5119 0.379 0.169 0.910 217 208 207 0 0
-3.8014 -7.9118 -4.5266 0.611 0.172 0.773 213 204 203 0 0
-3.7946 -7.9250 -4.5230 0.342 0.280 0.897 214 206 204 0 0
-3.7891 -7.9396 -4.5206 0.342 0.280 0.897 215 207 205 0 0
-3.7094 -8.0369 -4.4742 0.049 0.616 0.786 204 194 190 0 0
-3.7034 -8.0917 -4.4751 0.329 -0.197 0.924 213 205 201 0 0
-3.7052 -8.1143 -4.4784 0.295 -0.136 0.946 212 203 200 0 0
-3.7196 -8.1511 -4.4918 0.251 0.099 0.963 212 203 199 0 0
-3.7137 -8.1857 -4.4909 0.107 0.313 0.944 214 205 203 0 0
-3.6980 -8.2301 -4.4841 0.102 0.220 0.970 214 206 203 0 0
-3.6997 -8.2527 -4.4874 0.171 0.450 0.877 215 207 204 0 0
-3.7004 -8.2743 -4.4899 0.167 0.356 0.920 217 209 207 0 0
-3.6806 -8.3347 -4.4817 0.366 0.235 0.901 213 204 202 0 0
-3.6709 -8.3442 -4.4758 -0.117 0.632 0.766 210 200 198 0 0
-3.6486 -8.3596 -4.4617 -0.186 0.655 0.732 209 200 198 0 0
-3.6297 -8.3997 -4.4523 0.736 -0.289 0.613 213 205 201 0 0
-3.6228 -8.4124 -4.4487 0.361 0.015 0.932 214 206 203 0 0
-3.6209 -8.4310 -4.4491 0.361 0.015 0.932 214 206 203 0 0
-3.6150 -8.5286 -4.4540 0.238 -0.325 0.915 213 205 202 0 0
-3.6190 -8.5967 -4.4631 -0.150 0.204 0.967 213 205 203 0 0
-3.5982 -8.6555 -4.4540 -0.049 0.058 0.997 206 194 189 0 0
-3.5944 -8.6719 -4.4529 -0.049 0.058 0.997 204 191 185 0 0
-5.2476 0.5642 -4.7310 0.439 0.887 0.145 202 200 205 0 0
-5.3582 0.5067 -4.8128 0.098 0.412 0.906 208 203 206 0 0
-5.3389 0.4603 -4.8037 0.177 -0.051 0.983 203 199 199 0 0
-5.3411 0.4475 -4.8064 0.400 0.484 0.778 202 196 197 0 0
-5.2822 0.3222 -4.7771 0.330 0.292 0.898 206 204 207 0 0
-5.2879 0.2969 -4.7834 0.873 -0.239 0.426 206 203 207 0 0
-5.2951 0.2583 -4.7919 0.978 0.179 0.106 201 196 202 0 0
-5.2895 0.2432 -4.7894 0.997 -0.065 0.049 199 197 202 0 0
-5.2908 0.2300 -4.7915 0.993 -0.092 0.068 205 204 211 0 0
-5.2807 0.2136 -4.7860 0.855 0.312 0.414 210 210 218 0 0
-5.2766 0.1989 -4.7845 0.557 0.476 0.681 212 213 221 0 0
-5.2340 0.1331 -4.7611 0.465 0.669 0.580 206 205 211 0 0
-5.2452 0.0952 -4.7723 0.173 -0.036 0.984 206 203 210 0 0
-5.2666 0.0872 -4.7879 0.281 0.024 0.960 206 203 209 0 0
-5.2172 -0.0075 -4.7623 0.105 0.097 0.990 204 199 203 0 0
-5.2398 -0.1259 -4.7888 0.171 0.576 0.799 205 196 195 0 0
-5.2135 -0.1458 -4.7725 0.050 0.264 0.963 206 198 196 0 0
-5.1975 -0.1632 -4.7629 0.264 -0.165 0.950 208 200 198 0 0
-5.2135 -0.1873 -4.7762 0.902 -0.107 0.419 212 207 207 0 0
-5.2108 -0.2017 -4.7757 0.853 -0.037 0.521 212 209 213 0 0
-5.1881 -0.2344 -4.7630 0.588 0.786 0.193 212 211 220 0 0
-5.1853 -0.2628 -4.7636 0.383 0.172 0.908 213 212 221 0 0
-5.1583 -0.3796 -4.7556 0.312 0.354 0.882 212 210 215 0 0
-5.1408 -0.5370 -4.7579 0.448 0.399 0.800 208 203 205 0 0
-5.1714 -0.5457 -4.7800 0.338 -0.169 0.926 211 204 205 0 0
-5.1685 -0.5604 -4.7793 -0.055 0.049 0.997 211 204 202 0 0
-5.1653 -0.5751 -4.7784 -0.055 0.049 0.997 211 203 201 0 0
-5.1629 -0.5897 -4.7781 -0.021 -0.078 0.997 209 201 199 0 0
-5.1634 -0.6180 -4.7810 0.025 -0.167 0.986 212 204 202 0 0
-5.1470 -0.6349 -4.7712 0.166 0.630 0.759 211 203 200 0 0
-5.1421 -0.9806 -4.7995 0.349 0.098 0.932 213 207 209 0 0
-5.1796 -1.1087 -4.8373 0.686 0.371 0.626 212 205 207 0 0
-5.1845 -1.1379 -4.8433 0.310 0.402 0.862 210 204 205 0 0
-5.1776 -1.1533 -4.8399 0.409 0.378 0.831 212 206 208 0 0
-5.1635 -1.1694 -4.8316 0.343 0.641 0.687 213 207 209 0 0
-5.1319 -1.5158 -4.8415 0.232 -0.101 0.967 217 212 216 0 0
-5.0829 -1.5628 -4.8119 0.034 0.412 0.911 216 210 215 0 0
-5.1106 -1.6531 -4.8393 0.397 0.071 0.915 219 213 215 0 0
-5.1396 -1.9622 -4.8878 0.592 0.288 0.753 217 209 216 0 0
-5.1395 -1.9779 -4.8891 0.592 0.113 0.798 217 209 216 0 0
-5.1254 -2.0559 -4.8865 0.062 0.599 0.799 216 205 213 0 0
-5.0840 -2.0700 -4.8592 0.070 0.221 0.973 215 204 212 0 0
-5.0771 -2.0853 -4.8558 0.107 0.178 0.978 214 203 209 0 0
-4.9128 -2.1550 -4.7484 0.129 0.738 0.662 201 126 147 0 0
-4.8042 -2.1946 -4.6769 0.398 0.410 0.821 207 56 64 0 0
-4.6149 -2.3764 -4.5624 0.561 0.392 0.729 196 97 63 0 0
-4.5172 -2.6211 -4.5172 0.424 0.122 0.898 218 126 79 0 0
-4.5143 -2.6357 -4.5166 0.424 0.122 0.898 222 137 84 0 0
-4.5109 -2.6504 -4.5156 0.483 0.069 0.873 222 143 86 0 0
-4.6019 -2.8320 -4.5952 0.562 0.677 -0.475 225 85 77 0 0
-4.5736 -2.8428 -4.5766 0.520 0.739 -0.428 226 85 76 0 0
-4.5618 -3.1530 -4.5969 0.384 0.915 -0.122 230 161 136 0 0
-4.4891 -3.1845 -4.5494 0.773 0.146 0.618 200 53 45 0 0
-4.4883 -3.2001 -4.5503 0.854 0.371 0.365 199 58 45 0 0
-4.2514 -4.5512 -4.5101 0.926 0.376 0.035 227 179 194 0 0
-4.2586 -4.5714 -4.5170 0.991 0.076 0.108 250 235 238 0 0
-4.1960 -4.8988 -4.5036 0.881 -0.404 -0.244 211 110 65 0 0
-4.3639 -5.7825 -4.7009 0.216 0.061 0.975 219 209 210 0 0
-4.3350 -5.9324 -4.6947 -0.088 0.545 0.834 217 206 207 0 0
-4.3129 -5.9553 -4.6814 -0.081 0.417 0.905 218 208 209 0 0
-4.2711 -6.0587 -4.6619 0.080 0.182 0.980 220 211 213 0 0
-4.2050 -6.3146 -4.6397 0.329 0.237 0.914 216 211 213 0 0
-4.2023 -6.3317 -4.6393 0.132 0.473 0.871 217 210 213 0 0
-4.1931 -6.3439 -4.6341 0.132 0.473 0.871 218 211 213 0 0
-4.1882 -6.3594 -4.6321 0.126 0.389 0.913 219 210 213 0 0
-4.1810 -6.3730 -4.6284 0.148 0.198 0.969 218 209 212 0 0
-4.0481 -6.9227 -4.5867 0.142 -0.054 0.988 214 205 204 0 0
-4.0496 -6.9436 -4.5897 0.168 -0.129 0.977 215 206 204 0 0
-4.0385 -7.0321 -4.5901 0.101 -0.024 0.995 212 203 199 0 0
-3.9348 -7.3732 -4.5496 0.297 0.079 0.952 219 213 213 0 0
-3.9306 -7.3891 -4.5481 0.261 0.144 0.955 220 215 212 0 0
-3.9262 -7.4049 -4.5466 0.299 0.022 0.954 221 215 214 0 0
-3.9225 -7.4213 -4.5455 0.261 0.144 0.955 220 214 211 0 0
-3.9025 -7.5825 -4.5465 0.021 0.569 0.822 213 206 204 0 0
-3.8934 -7.5937 -4.5412 0.781 0.436 0.447 214 206 204 0 0
-3.8904 -7.6108 -4.5406 0.809 0.581 0.091 216 208 206 0 0
-3.8817 -7.6223 -4.5357 0.882 0.465 0.077 217 212 209 0 0
-3.8790 -7.6398 -4.5354 0.311 0.871 0.381 217 212 210 0 0
-3.8439 -7.6648 -4.5134 0.288 0.166 0.943 216 207 207 0 0
-3.8390 -7.6800 -4.5114 0.322 0.164 0.933 214 208 206 0 0
-3.8330 -7.6940 -4.5085 0.264 0.263 0.928 215 207 207 0 0
-3.8274 -7.7085 -4.5060 0.264 0.263 0.928 215 207 207 0 0
-3.8217 -7.7229 -4.5034 0.369 0.482 0.795 215 209 206 0 0
-3.8184 -7.7397 -4.5026 0.562 0.373 0.738 216 209 207 0 0
-3.8040 -7.8464 -4.5024 0.298 -0.109 0.948 213 205 203 0 0
-3.8012 -7.8638 -4.5021 0.268 -0.027 0.963 214 206 204 0 0
-3.7962 -7.8789 -4.5000 0.182 0.025 0.983 214 206 204 0 0
-3.7245 -8.0464 -4.4657 0.049 0.616 0.786 206 197 193 0 0
-3.7258 -8.1300 -4.4743 0.358 -0.241 0.902 214 206 203 0 0
-3.7460 -8.1734 -4.4922 0.257 0.302 0.918 215 207 203 0 0
-3.7229 -8.2510 -4.4834 0.265 0.319 0.910 213 205 202 0 0
-3.7135 -8.2610 -4.4778 0.127 0.632 0.764 213 204 202 0 0
-3.7129 -8.2812 -4.4792 -0.029 0.623 0.782 212 203 201 0 0
-3.7094 -8.2979 -4.4783 0.650 -0.028 0.759 212 204 201 0 0
-3.6932 -8.3417 -4.4711 0.537 0.234 0.810 216 208 206 0 0
-3.6380 -8.4436 -4.4423 0.361 0.015 0.932 215 206 204 0 0
-3.6509 -8.4800 -4.4545 0.358 0.183 0.916 216 208 205 0 0
-3.6486 -8.4982 -4.4546 0.412 0.067 0.909 216 208 205 0 0
-3.6225 -8.6774 -4.4529 -0.088 0.089 0.992 203 190 184 0 0
-5.4135 0.8158 -4.8046 0.500 0.750 0.433 211 210 216 0 0
-5.3492 0.6613 -4.7743 0.251 0.480 0.840 205 201 206 0 0
-5.3573 0.6508 -4.7809 0.416 -0.071 0.907 204 201 207 0 0
-5.3306 0.6286 -4.7645 0.294 0.423 0.857 204 200 207 0 0
-5.2966 0.5910 -4.7445 0.425 0.895 0.136 203 201 206 0 0
-5.3087 0.3276 -4.7768 0.746 0.568 0.348 209 204 208 0 0
-5.2990 0.3113 -4.7715 0.737 0.452 0.503 207 204 208 0 0
-5.2907 0.2954 -4.7673 0.970 0.163 0.181 207 203 208 0 0
-5.2928 0.2825 -4.7699 0.931 -0.212 0.298 206 202 208 0 0
-5.3004 0.2711 -4.7762 0.959 0.282 -0.034 204 199 205 0 0
-5.2984 0.2570 -4.7761 0.874 0.203 0.441 200 197 201 0 0
-5.2903 0.2141 -4.7744 0.991 -0.081 0.107 202 202 210 0 0
-5.2878 0.1998 -4.7740 0.689 0.549 0.473 206 209 219 0 0
-5.2844 0.1852 -4.7729 0.549 0.561 0.619 210 213 223 0 0
-5.2661 0.0849 -4.7695 0.176 -0.076 0.981 205 203 208 0 0
-5.2667 0.0714 -4.7711 0.276 0.109 0.955 204 202 207 0 0
-5.2604 0.0561 -4.7681 0.291 0.334 0.897 204 202 207 0 0
-5.2533 0.0406 -4.7647 0.291 0.334 0.897 206 201 207 0 0
-5.2508 0.0263 -4.7642 0.177 0.185 0.967 206 201 206 0 0
-5.2391 -0.0040 -4.7589 0.192 0.286 0.939 206 201 203 0 0
-5.2404 -0.0174 -4.7611 0.184 -0.251 0.950 206 202 203 0 0
-5.2361 -0.0322 -4.7594 0.241 0.045 0.969 207 202 202 0 0
-5.2674 -0.1215 -4.7891 0.268 0.664 0.698 204 196 193 0 0
-5.2552 -0.1381 -4.7822 0.392 0.563 0.728 204 196 193 0 0
-5.2436 -0.1546 -4.7758 0.373 0.554 0.744 206 197 195 0 0
-5.2321 -0.1711 -4.7693 0.373 0.554 0.744 209 200 198 0 0
-5.2240 -0.1868 -4.7651 0.733 0.128 0.668 211 206 207 0 0
-5.2239 -0.2007 -4.7663 0.691 0.666 0.282 213 212 217 0 0
-5.2093 -0.2178 -4.7578 0.644 0.704 0.299 216 215 224 0 0
-5.1934 -0.2351 -4.7484 0.593 0.759 0.269 214 215 226 0 0
-5.2067 -0.2461 -4.7586 0.706 0.414 0.574 214 216 227 0 0
-5.1993 -0.2894 -4.7574 0.604 0.627 0.492 215 216 227 0 0
-5.1876 -0.3058 -4.7509 0.604 0.627 0.492 214 213 220 0 0
-5.1988 -0.3313 -4.7609 0.354 -0.008 0.935 210 208 213 0 0
-5.1668 -0.3518 -4.7407 0.230 0.533 0.814 210 208 213 0 0
-5.1794 -0.5318 -4.7657 0.122 -0.037 0.992 209 201 202 0 0
-5.1906 -0.5440 -4.7746 0.296 -0.027 0.955 208 200 199 0 0
-5.1950 -0.5574 -4.7788 0.071 0.101 0.992 208 200 197 0 0
-5.1920 -0.5863 -4.7794 0.076 -0.144 0.987 208 198 196 0 0
-5.1732 -0.6037 -4.7680 0.173 0.031 0.984 209 201 198 0 0
-5.1722 -0.9055 -4.7948 0.116 0.189 0.975 215 209 211 0 0
-5.1603 -0.9797 -4.7933 0.306 0.255 0.917 211 205 207 0 0
-5.2135 -1.0622 -4.8376 0.770 0.556 0.313 219 214 218 0 0
-5.2071 -1.0776 -4.8345 0.505 0.431 0.748 219 216 218 0 0
-5.1847 -1.3781 -4.8464 0.805 -0.369 0.464 217 215 222 0 0
-5.1116 -1.5777 -4.8141 0.389 -0.285 0.876 218 212 215 0 0
-5.1471 -1.6072 -4.8413 0.256 0.034 0.966 215 209 211 0 0
-5.1638 -1.8537 -4.8752 0.294 0.476 0.829 216 206 207 0 0
-5.1581 -1.8692 -4.8728 0.104 0.238 0.966 216 206 209 0 0
-5.1564 -1.8847 -4.8730 0.371 -0.111 0.922 216 207 212 0 0
-5.1632 -1.9631 -4.8848 0.577 -0.041 0.816 217 207 215 0 0
-5.1542 -1.9786 -4.8800 0.473 0.073 0.878 217 207 215 0 0
-5.1460 -2.0412 -4.8800 0.433 0.183 0.883 217 206 213 0 0
-5.1465 -2.0569 -4.8818 0.081 0.543 0.836 217 206 213 0 0
-5.1095 -2.0712 -4.8575 0.037 0.245 0.969 217 206 212 0 0
-5.1008 -2.0865 -4.8530 0.107 0.178 0.978 216 205 211 0 0
-4.9237 -2.1557 -4.7371 0.088 0.832 0.548 201 124 141 0 0
-4.8141 -2.1952 -4.6651 0.336 0.269 0.903 208 59 65 0 0
-4.6282 -2.3775 -4.5535 0.710 0.398 0.581 196 95 61 0 0
-4.6212 -2.3918 -4.5500 0.722 0.101 0.684 198 98 65 0 0
-4.6192 -2.4067 -4.5499 0.722 0.101 0.684 199 99 64 0 0
-4.5272 -2.6521 -4.5088 0.446 0.190 0.875 223 135 82 0 0
-4.5684 -3.1377 -4.5814 0.082 0.986 0.145 254 255 246 0 0
-4.4898 -3.1994 -4.5328 0.452 0.479 0.753 191 57 42 0 0
-4.2384 -4.5766 -4.4847 0.973 0.171 -0.158 207 126 147 0 0
-4.2151 -5.0786 -4.5143 0.700 -0.151 0.698 207 133 93 0 0
-4.2650 -5.2643 -4.5656 0.857 -0.030 0.515 210 169 158 0 0
-4.4276 -5.4655 -4.6961 0.750 -0.661 -0.035 218 203 206 0 0
-4.3879 -5.8688 -4.7053 0.117 -0.035 0.993 223 214 215 0 0
-4.3712 -5.9333 -4.6997 -0.079 0.618 0.782 214 203 202 0 0
-4.3567 -5.9426 -4.6905 -0.082 0.618 0.782 212 200 200 0 0
-4.3430 -5.9524 -4.6820 -0.074 0.492 0.867 216 205 205 0 0
-4.3226 -5.9765 -4.6701 0.031 0.325 0.945 218 209 210 0 0
-4.2962 -6.0905 -4.6623 0.240 0.022 0.971 219 210 211 0 0
-4.2972 -6.1102 -4.6648 0.192 0.150 0.970 217 208 210 0 0
-4.2907 -6.1816 -4.6668 0.529 0.114 0.841 218 209 211 0 0
-4.2705 -6.2243 -4.6567 0.017 0.689 0.724 216 206 207 0 0
-4.2108 -6.3524 -4.6272 0.166 0.406 0.899 220 211 214 0 0
-4.2099 -6.3708 -4.6283 0.135 0.231 0.963 220 211 214 0 0
-4.1848 -6.5245 -4.6249 0.219 -0.120 0.968 219 210 211 0 0
-4.1106 -6.7750 -4.5966 0.227 0.017 0.974 216 208 208 0 0
-4.1077 -6.7920 -4.5961 0.313 -0.142 0.939 216 208 206 0 0
-4.1145 -6.8171 -4.6030 0.308 0.536 0.786 215 206 206 0 0
-4.1025 -6.8267 -4.5956 0.200 0.323 0.925 213 205 204 0 0
-3.9561 -7.3872 -4.5457 0.233 0.188 0.954 219 214 212 0 0
-3.9506 -7.4020 -4.5432 0.168 0.142 0.976 221 216 213 0 0
-3.9469 -7.4185 -4.5422 0.163 0.101 0.981 221 215 214 0 0
-3.9412 -7.4330 -4.5396 0.247 0.145 0.958 218 212 209 0 0
-3.9376 -7.4497 -4.5386 0.255 0.049 0.966 216 208 206 0 0
-3.9356 -7.4677 -4.5388 0.246 0.016 0.969 216 208 207 0 0
-3.9231 -7.5360 -4.5365 0.363 0.133 0.922 214 208 206 0 0
-3.9189 -7.5519 -4.5350 0.380 0.048 0.924 213 207 205 0 0
-3.9098 -7.5631 -4.5297 0.311 0.054 0.949 213 208 205 0 0
-3.9098 -7.5833 -4.5316 0.225 0.272 0.936 213 207 205 0 0
-3.8805 -7.6348 -4.5161 0.059 0.414 0.908 215 207 206 0 0
-3.8574 -7.6921 -4.5053 0.440 0.002 0.898 216 208 206 0 0
-3.8447 -7.8212 -4.5083 0.082 0.393 0.916 217 209 207 0 0
-3.8372 -7.8338 -4.5043 0.125 0.388 0.913 217 209 207 0 0
-3.8241 -7.8608 -4.4978 0.298 -0.109 0.948 213 205 203 0 0
-3.8208 -7.8777 -4.4970 0.268 -0.027 0.963 213 204 202 0 0
-3.7704 -8.0281 -4.4759 0.110 0.443 0.890 209 199 197 0 0
-3.7629 -8.0405 -4.4718 0.064 0.448 0.892 209 199 198 0 0
-3.7338 -8.2767 -4.4732 0.362 0.380 0.851 212 202 200 0 0
-3.7172 -8.3202 -4.4658 0.586 0.136 0.799 211 203 201 0 0
-3.6805 -8.4655 -4.4537 0.545 -0.345 0.764 215 206 203 0 0
-5.4202 0.8155 -4.7912 0.604 0.689 0.400 206 205 211 0 0
-5.3753 0.6143 -4.7785 0.770 0.127 0.625 205 203 208 0 0
-5.3646 0.5974 -4.7726 0.647 0.484 0.589 206 204 209 0 0
-5.3897 0.5386 -4.7952 0.979 0.203 0.032 207 204 209 0 0
-5.3638 0.4362 -4.7866 0.501 0.564 0.656 209 207 212 0 0
-5.3190 0.3283 -4.7656 0.727 0.612 0.310 208 205 208 0 0
-5.3055 0.3109 -4.7579 0.692 0.469 0.548 208 206 209 0 0
-5.2978 0.2817 -4.7553 0.962 -0.069 0.264 206 201 206 0 0
-5.2984 0.2683 -4.7569 0.957 0.284 -0.063 206 201 206 0 0
-5.3051 0.2567 -4.7625 0.874 0.203 0.441 205 202 206 0 0
-5.2995 0.2415 -4.7601 0.888 0.168 0.428 205 203 206 0 0
-5.2951 0.2131 -4.7596 0.894 0.199 0.401 206 204 208 0 0
-5.2880 0.1976 -4.7561 0.868 0.428 0.251 207 207 214 0 0
-5.3002 -0.1158 -4.7928 0.467 0.840 0.276 207 199 196 0 0
-5.2814 -0.1341 -4.7815 0.315 0.533 0.785 207 199 197 0 0
-5.2693 -0.1508 -4.7747 0.391 0.628 0.673 207 198 195 0 0
-5.2546 -0.1680 -4.7662 0.518 0.700 0.492 207 200 198 0 0
-5.2357 -0.2000 -4.7561 0.675 0.606 0.421 208 206 210 0 0
-5.2137 -0.2187 -4.7427 0.491 0.779 0.389 212 210 217 0 0
-5.2376 -0.2274 -4.7599 0.820 0.234 0.522 215 214 224 0 0
-5.1857 -0.3218 -4.7328 0.422 0.835 0.353 211 209 216 0 0
-5.2152 -0.4280 -4.7626 0.212 0.228 0.951 209 204 204 0 0
-5.2085 -0.4434 -4.7593 0.308 0.173 0.935 209 203 205 0 0
-5.2667 -0.5323 -4.8074 0.489 0.801 0.345 209 201 200 0 0
-5.1967 -0.5871 -4.7642 0.153 0.353 0.923 207 199 197 0 0
-5.2103 -0.6562 -4.7798 0.902 -0.195 0.385 214 209 211 0 0
-5.2075 -0.6710 -4.7792 0.954 -0.117 0.275 214 209 212 0 0
-5.2031 -0.6860 -4.7775 0.892 0.288 0.347 213 208 211 0 0
-5.2117 -0.8727 -4.8003 0.137 0.308 0.941 211 204 206 0 0
-5.2046 -0.8882 -4.7968 0.094 0.261 0.961 212 206 208 0 0
-5.1945 -0.9040 -4.7913 0.180 -0.058 0.982 213 207 208 0 0
-5.1727 -0.9649 -4.7818 0.334 0.264 0.905 213 207 208 0 0
-5.1746 -0.9793 -4.7844 0.476 0.272 0.836 211 205 207 0 0
-5.2200 -1.0626 -4.8231 0.962 0.202 -0.184 215 212 219 0 0
-5.2135 -1.0929 -4.8214 0.505 0.431 0.748 220 219 225 0 0
-5.1663 -1.5160 -4.8271 0.072 0.442 0.894 215 209 211 0 0
-5.1892 -1.8387 -4.8720 0.148 0.153 0.977 221 213 215 0 0
-5.1821 -1.8543 -4.8686 0.263 0.535 0.803 221 214 217 0 0
-5.1720 -1.9793 -4.8729 0.240 0.195 0.951 217 207 215 0 0
-5.1641 -2.0421 -4.8731 0.838 0.244 0.489 216 205 211 0 0
-5.1592 -2.0577 -4.8712 0.143 0.701 0.699 217 206 212 0 0
-4.9410 -2.1567 -4.7302 0.115 0.830 0.545 200 122 136 0 0
-4.8166 -2.1954 -4.6483 0.308 0.522 0.796 208 60 67 0 0
-4.6579 -2.3800 -4.5559 0.422 0.550 0.721 197 94 61 0 0
-4.6435 -2.3938 -4.5473 0.579 0.485 0.655 198 98 65 0 0
-4.6357 -2.4081 -4.5432 0.523 0.477 0.707 200 100 64 0 0
-4.6160 -2.4362 -4.5322 0.503 0.605 0.618 199 96 58 0 0
-4.6099 -2.4657 -4.5307 0.644 0.315 0.697 206 103 67 0 0
-4.6045 -2.4802 -4.5283 0.472 -0.307 0.826 207 101 65 0 0
-4.5980 -2.4945 -4.5251 0.404 0.000 0.915 198 90 52 0 0
-4.5474 -3.1481 -4.5494 0.426 0.882 -0.201 254 241 213 0 0
-4.5431 -3.1629 -4.5477 0.161 0.975 0.153 220 117 96 0 0
-4.2660 -5.1379 -4.5356 0.920 0.390 0.038 205 133 99 0 0
-4.2752 -5.2667 -4.5536 0.936 -0.133 0.325 202 150 123 0 0
-4.4085 -5.8593 -4.6986 0.268 -0.107 0.958 223 214 216 0 0
-4.4091 -5.9162 -4.7042 0.196 0.387 0.901 222 215 219 0 0
-4.4042 -5.9319 -4.7022 0.127 0.672 0.729 217 209 213 0 0
-4.3916 -5.9426 -4.6945 0.029 0.604 0.796 211 202 205 0 0
-4.3774 -5.9521 -4.6856 0.038 0.694 0.719 212 201 202 0 0
-4.3663 -5.9637 -4.6790 -0.042 0.559 0.828 217 207 208 0 0
-4.1732 -6.7429 -4.6167 0.274 0.235 0.933 217 209 207 0 0
-4.1250 -6.8205 -4.5906 0.282 0.323 0.903 216 208 206 0 0
-4.1190 -6.8351 -4.5878 0.240 0.254 0.937 216 208 206 0 0
-4.1127 -6.8494 -4.5848 0.187 0.299 0.936 216 208 206 0 0
-4.1199 -6.9339 -4.5974 -0.079 0.162 0.984 216 207 206 0 0
-4.0972 -6.9539 -4.5836 -0.049 0.024 0.999 215 208 205 0 0
-4.0579 -7.1169 -4.5713 -0.060 0.537 0.841 212 201 196 0 0
-3.9432 -7.5291 -4.5297 0.348 0.454 0.820 215 208 209 0 0
-3.9382 -7.5444 -4.5276 0.391 0.370 0.843 215 209 207 0 0
-3.9318 -7.5583 -4.5245 0.476 0.147 0.867 214 209 206 0 0
-3.9270 -7.5737 -4.5226 0.440 0.182 0.879 214 207 205 0 0
-3.9269 -7.5938 -4.5244 0.283 0.222 0.933 214 206 203 0 0
-3.9217 -7.6088 -4.5221 -0.027 0.391 0.920 214 206 203 0 0
-3.8742 -7.7026 -4.4979 0.232 -0.018 0.973 214 207 204 0 0
-3.8585 -7.8493 -4.5004 0.265 0.236 0.935 215 207 205 0 0
-3.8439 -7.8543 -4.4908 0.298 -0.109 0.948 215 206 205 0 0
-3.8444 -7.8753 -4.4931 0.298 -0.109 0.948 216 206 204 0 0
-3.8402 -7.8913 -4.4917 0.261 -0.015 0.965 215 206 203 0 0
-3.8388 -7.9102 -4.4924 0.261 -0.015 0.965 213 205 202 0 0
-3.8409 -7.9330 -4.4959 0.335 0.896 0.292 210 201 197 0 0
-3.8051 -8.0178 -4.4789 0.086 0.518 0.851 214 206 203 0 0
-3.7817 -8.0539 -4.4661 0.033 0.500 0.865 212 203 200 0 0
-3.7713 -8.0631 -4.4598 0.040 0.519 0.854 211 203 200 0 0
-3.7380 -8.2740 -4.4559 0.203 0.476 0.856 213 205 202 0 0
-3.7196 -8.3779 -4.4527 0.274 0.474 0.837 215 206 204 0 0
-3.6985 -8.4580 -4.4454 0.352 -0.391 0.850 215 205 203 0 0
-3.6987 -8.4793 -4.4475 0.359 -0.314 0.879 215 206 203 0 0
-5.3964 0.6186 -4.7744 0.184 0.038 0.982 207 205 209 0 0
-5.3986 0.5524 -4.7819 0.872 0.478 0.104 207 205 208 0 0
-5.3896 0.5360 -4.7771 0.942 0.331 0.059 208 206 208 0 0
-5.3336 0.3303 -4.7573 0.282 0.254 0.925 206 201 205 0 0
-5.3291 0.2748 -4.7592 0.436 -0.007 0.900 206 201 206 0 0
-5.3276 0.2608 -4.7594 0.535 0.077 0.842 204 201 205 0 0
-5.3132 -0.1148 -4.7832 0.406 0.735 0.543 211 205 206 0 0
-5.3050 -0.1306 -4.7790 0.357 0.538 0.764 211 205 207 0 0
-5.2870 -0.1486 -4.7683 0.307 0.552 0.775 210 205 206 0 0
-5.2801 -0.1641 -4.7649 0.506 0.739 0.444 208 205 206 0 0
-5.2364 -0.2156 -4.7396 0.482 0.796 0.366 209 207 213 0 0
-5.2506 -0.2264 -4.7504 0.885 0.217 0.412 212 210 217 0 0
-5.2411 -0.2424 -4.7453 0.710 0.207 0.674 213 212 219 0 0
-5.2332 -0.2580 -4.7412 0.718 0.310 0.623 212 211 218 0 0
-5.2305 -0.2725 -4.7407 0.615 0.394 0.683 212 211 217 0 0
-5.2377 -0.3270 -4.7505 0.314 -0.005 0.949 209 203 206 0 0
-5.2368 -0.3412 -4.7512 0.347 -0.011 0.938 207 202 204 0 0
-5.2274 -0.3571 -4.7462 0.336 0.196 0.921 207 201 203 0 0
-5.2024 -0.4181 -4.7345 0.133 0.372 0.919 209 203 203 0 0
-5.2132 -0.4301 -4.7430 0.257 0.403 0.878 209 203 203 0 0
-5.2657 -0.5341 -4.7882 0.504 0.348 0.791 208 200 198 0 0
-5.2458 -0.5518 -4.7762 0.139 -0.076 0.987 208 200 198 0 0
-5.2155 -0.6856 -4.7675 0.847 0.309 0.432 216 214 218 0 0
-5.2302 -0.7410 -4.7825 0.205 -0.152 0.967 210 205 207 0 0
-5.2432 -0.8554 -4.8016 0.247 0.500 0.830 209 201 199 0 0
-5.2297 -0.8864 -4.7951 0.116 0.231 0.966 209 202 204 0 0
-5.1907 -0.9641 -4.7754 0.334 0.264 0.905 214 208 209 0 0
-5.2219 -1.0488 -4.8044 0.702 -0.293 0.649 213 209 214 0 0
-5.2383 -1.0768 -4.8181 0.505 0.268 0.820 211 209 217 0 0
-5.2244 -1.0929 -4.8100 0.549 0.233 0.802 215 214 221 0 0
-5.1873 -1.5159 -4.8225 0.135 0.397 0.908 211 204 206 0 0
-5.1873 -1.7151 -4.8404 0.208 0.022 0.978 217 208 210 0 0
-5.1890 -1.7305 -4.8429 0.271 -0.131 0.954 217 208 210 0 0
-5.1875 -1.7460 -4.8432 0.286 -0.006 0.958 218 209 212 0 0
-5.1877 -1.9329 -4.8601 0.176 0.082 0.981 218 211 218 0 0
-5.1958 -2.0118 -4.8728 0.389 0.567 0.726 215 204 210 0 0
-4.8847 -2.1843 -4.6753 0.236 0.804 0.545 207 76 83 0 0
-4.8788 -2.2300 -4.6753 0.230 0.253 0.940 204 49 43 0 0
-4.6617 -2.3953 -4.5416 0.281 0.604 0.746 196 90 57 0 0
-4.6479 -2.4091 -4.5334 0.523 0.477 0.707 199 100 62 0 0
-4.6399 -2.4234 -4.5292 0.529 0.667 0.525 199 100 61 0 0
-4.6282 -2.4373 -4.5225 0.462 0.721 0.516 199 98 57 0 0
-4.5529 -2.6699 -4.4918 0.638 0.049 0.768 215 120 74 0 0
-4.5452 -3.1467 -4.5292 0.205 0.974 0.100 254 232 205 0 0
-4.5356 -3.1604 -4.5238 0.188 0.976 0.113 212 95 75 0 0
-4.2865 -5.1282 -4.5296 0.689 0.024 0.724 224 145 87 0 0
-4.2836 -5.1442 -4.5291 0.742 -0.106 0.662 211 134 88 0 0
-4.2838 -5.2860 -4.5420 0.763 -0.217 0.609 200 144 118 0 0
-4.3430 -5.3734 -4.5902 0.927 -0.207 -0.311 222 207 210 0 0
-4.4379 -5.6864 -4.6832 -0.055 0.687 0.725 218 206 206 0 0
-4.4466 -5.7291 -4.6930 0.103 0.262 0.960 219 208 208 0 0
-4.4285 -5.9248 -4.6981 0.168 0.428 0.888 219 216 224 0 0
-4.4229 -5.9401 -4.6957 0.055 0.556 0.829 215 209 217 0 0
-4.4128 -5.9524 -4.6899 0.049 0.491 0.870 211 203 208 0 0
-4.4002 -5.9631 -4.6822 0.088 0.543 0.835 215 206 209 0 0
-4.3907 -5.9757 -4.6769 0.074 0.500 0.863 218 209 210 0 0
-4.3830 -5.9895 -4.6728 0.075 0.459 0.885 219 210 208 0 0
-4.3269 -6.2173 -4.6548 0.367 0.568 0.736 216 207 208 0 0
-4.2494 -6.3908 -4.6173 0.125 0.202 0.971 219 210 211 0 0
-4.2526 -6.5282 -4.6318 0.298 -0.019 0.955 216 207 208 0 0
-4.2450 -6.5806 -4.6313 0.272 0.418 0.867 218 209 209 0 0
-4.2370 -6.5938 -4.6270 -0.028 0.386 0.922 216 208 207 0 0
-4.1526 -6.7990 -4.5876 0.221 -0.102 0.970 219 211 209 0 0
-4.1506 -6.8169 -4.5879 0.177 0.014 0.984 218 210 208 0 0
-4.1578 -6.9211 -4.6022 0.520 -0.281 0.807 218 210 208 0 0
-4.1562 -6.9593 -4.6045 0.267 0.181 0.946 217 208 206 0 0
-4.0703 -7.1420 -4.5621 -0.011 0.433 0.901 213 203 201 0 0
-4.0595 -7.1720 -4.5574 0.155 0.012 0.988 215 205 203 0 0
-4.0578 -7.2102 -4.5596 0.272 0.219 0.937 216 208 206 0 0
-4.0500 -7.2231 -4.5554 0.147 0.364 0.920 219 211 209 0 0
-4.0375 -7.2515 -4.5494 0.255 0.127 0.959 218 211 212 0 0
-3.9858 -7.4634 -4.5330 0.074 0.099 0.992 216 208 206 0 0
-3.9522 -7.5720 -4.5198 0.363 0.133 0.922 213 207 204 0 0
-3.9434 -7.5834 -4.5148 0.417 0.042 0.908 214 206 204 0 0
-3.9411 -7.6014 -4.5148 0.428 0.147 0.891 214 206 203 0 0
-3.9416 -7.6222 -4.5170 -0.027 0.391 0.920 212 204 201 0 0
-3.9151 -7.6565 -4.5020 -0.090 0.456 0.885 217 209 207 0 0
-3.8647 -7.8898 -4.4884 0.298 -0.109 0.948 213 206 203 0 0
-3.8653 -7.9109 -4.4906 0.298 -0.109 0.948 211 203 200 0 0
-3.8660 -7.9322 -4.4930 0.367 0.917 0.154 208 200 198 0 0
-3.8490 -7.9346 -4.4816 0.335 0.896 0.292 208 200 198 0 0
-3.8344 -8.0424 -4.4813 0.069 0.340 0.938 214 204 202 0 0
-3.7831 -8.1101 -4.4522 0.042 0.312 0.949 212 204 201 0 0
-3.7642 -8.2965 -4.4560 0.358 0.066 0.932 215 207 204 0 0
-3.7622 -8.3150 -4.4563 0.440 0.069 0.895 215 207 204 0 0
-3.7478 -8.3612 -4.4505 0.411 0.340 0.846 209 199 197 0 0
-3.7415 -8.3749 -4.4475 0.336 0.698 0.632 209 199 197 0 0
-3.7321 -8.3848 -4.4419 0.148 0.475 0.868 211 201 199 0 0
-3.7045 -8.3944 -4.4239 0.382 0.524 0.761 213 204 202 0 0
-3.6905 -8.3989 -4.4147 0.613 0.302 0.730 213 204 201 0 0
-3.5779 -8.8515 -4.3782 0.259 -0.097 0.961 214 205 199 0 0
-5.4580 0.8102 -4.7813 0.369 0.649 0.665 207 205 210 0 0
-5.4207 0.5164 -4.7819 0.470 0.501 0.727 211 209 214 0 0
-5.4133 0.5006 -4.7783 0.593 0.404 0.697 212 211 215 0 0
-5.4049 0.4845 -4.7740 0.731 0.201 0.652 213 212 216 0 0
-5.3867 0.3842 -4.7705 -0.003 0.295 0.956 207 202 205 0 0
-5.3141 0.1458 -4.7423 0.552 -0.024 0.833 208 207 210 0 0
-5.3380 0.1110 -4.7616 0.637 -0.076 0.767 205 203 207 0 0
