ply
format ascii 1.0
element vertex 825
property float x
property float y
property float z
property float nx
property float ny
property float nz
property uchar diffuse_red
property uchar diffuse_green
property uchar diffuse_blue
property uchar class
property uchar detection
end_header
-0.9255 2.1454 -0.0117 -0.183 -0.460 0.869 196 181 163 0 0
-0.9173 2.1542 -0.0121 0.334 -0.760 0.558 198 182 166 0 0
-2.0298 1.0969 0.0438 0.356 -0.308 0.882 187 167 138 0 0
-1.9967 1.1195 0.0417 0.573 -0.027 0.819 191 172 142 0 0
-1.9987 1.1268 0.0421 0.574 -0.018 0.819 179 159 129 0 0
-1.9735 1.1624 0.0412 0.366 -0.611 0.702 197 181 155 0 0
-1.9681 1.1635 0.0407 0.400 -0.754 0.520 203 187 162 0 0
-1.9638 1.1655 0.0404 0.400 -0.754 0.520 202 186 160 0 0
-1.9595 1.1676 0.0401 0.400 -0.754 0.520 192 176 149 0 0
-1.8614 1.2461 0.0341 0.449 -0.255 0.856 195 178 150 0 0
-1.7343 1.4074 0.0287 0.467 -0.471 0.748 200 182 156 0 0
-0.9783 0.6761 -0.0679 0.854 -0.028 0.520 142 76 40 0 0
-0.9707 0.6712 -0.0688 0.363 -0.876 -0.317 142 77 38 0 0
-0.9683 0.6728 -0.0689 0.577 -0.800 -0.166 145 80 42 0 0
-0.9194 0.6606 -0.0738 -0.105 -0.950 0.293 184 149 44 0 0
-0.9087 0.7039 -0.0732 0.348 -0.382 -0.856 192 164 56 0 0
-0.7613 0.8299 -0.0818 -0.217 -0.717 -0.663 201 182 149 0 0
-0.7047 0.7858 -0.0886 0.998 -0.041 0.041 161 112 45 0 0
-0.7099 0.8748 -0.0848 0.633 -0.256 -0.730 201 182 156 0 0
-1.1338 1.8553 -0.0090 0.851 -0.434 0.294 204 188 170 0 0
-1.1306 1.8606 -0.0091 0.928 -0.291 0.234 203 187 167 0 0
-0.9655 2.0990 -0.0151 0.875 -0.149 0.461 200 183 167 0 0
-0.9643 2.1112 -0.0148 0.838 -0.167 0.519 195 179 160 0 0
-0.9607 2.1168 -0.0149 0.676 -0.271 0.686 191 173 154 0 0
-0.9587 2.1270 -0.0147 0.520 -0.326 0.789 192 174 155 0 0
-0.9558 2.1349 -0.0146 0.366 -0.323 0.873 191 174 156 0 0
-2.0635 1.0477 0.0405 0.623 -0.035 0.782 197 181 155 0 0
-2.0621 1.0520 0.0405 0.467 -0.258 0.846 194 175 149 0 0
-1.9771 1.1535 0.0365 0.186 -0.486 0.854 187 170 143 0 0
-1.8591 1.2309 0.0287 0.539 -0.148 0.829 193 175 147 0 0
-1.8569 1.2413 0.0289 0.531 -0.168 0.831 196 179 151 0 0
-0.9766 0.6736 -0.0711 0.839 0.078 0.539 144 77 40 0 0
-0.9705 0.6705 -0.0717 0.536 -0.844 -0.026 146 79 42 0 0
-0.9411 0.6654 -0.0745 -0.159 -0.915 0.371 162 113 40 0 0
-0.9188 0.6595 -0.0768 -0.103 -0.946 0.308 215 183 68 0 0
-0.9073 0.7067 -0.0761 0.029 -0.454 -0.890 165 135 46 0 0
-0.9104 0.7363 -0.0748 0.313 -0.149 0.938 187 159 55 0 0
-0.8979 0.7339 -0.0760 -0.322 -0.510 0.797 190 163 61 0 0
-0.8925 0.7313 -0.0765 -0.452 -0.537 0.712 188 159 60 0 0
-0.8834 0.7232 -0.0777 -0.503 -0.573 0.647 181 150 56 0 0
-0.7876 0.7234 -0.0863 0.752 -0.586 0.302 183 165 91 0 0
-0.7853 0.7250 -0.0864 0.404 -0.896 -0.185 184 168 95 0 0
-1.3331 1.7132 -0.0013 0.928 -0.214 0.306 223 201 42 0 0
-0.6992 0.7938 -0.0917 0.866 -0.168 0.471 172 124 53 0 0
-0.7092 0.8592 -0.0884 0.824 -0.054 -0.564 193 166 123 0 0
-0.7101 0.8678 -0.0880 0.816 -0.212 -0.537 198 179 150 0 0
-1.9783 1.0976 0.0301 0.286 -0.215 0.934 187 168 137 0 0
-1.9705 1.1416 0.0309 0.290 -0.342 0.894 203 186 160 0 0
-1.8503 1.2344 0.0234 0.470 -0.276 0.838 193 176 148 0 0
-0.9007 0.7325 -0.0787 -0.158 -0.500 0.852 187 159 59 0 0
-0.8924 0.7256 -0.0797 -0.267 -0.520 0.812 187 158 59 0 0
-0.8833 0.7176 -0.0808 -0.445 -0.564 0.696 186 156 59 0 0
-0.7858 0.7201 -0.0894 0.917 -0.393 0.073 178 159 86 0 0
-0.7861 0.7261 -0.0892 0.733 -0.627 -0.262 181 163 89 0 0
-1.3323 1.7112 -0.0064 0.873 -0.142 0.467 215 190 36 0 0
-0.7374 0.8160 -0.0904 -0.586 -0.796 -0.150 181 137 46 0 0
-0.6963 0.7751 -0.0955 0.842 -0.024 0.538 183 139 55 0 0
-0.7136 0.8542 -0.0912 0.853 0.042 -0.520 183 142 69 0 0
-0.7107 0.8551 -0.0914 0.779 -0.606 -0.162 186 154 96 0 0
-0.7108 0.8621 -0.0912 0.772 -0.489 -0.407 195 172 137 0 0
-1.1836 1.8874 -0.0136 0.227 -0.303 0.926 205 188 164 0 0
-1.1810 1.8939 -0.0136 0.417 -0.184 0.890 206 191 170 0 0
-0.8556 2.1315 -0.0344 0.709 -0.181 0.681 193 177 161 0 0
-0.8335 2.1842 -0.0346 0.473 -0.274 0.837 192 179 160 0 0
-1.9524 1.1311 0.0243 0.167 -0.326 0.930 199 183 157 0 0
-1.9194 1.1424 0.0218 0.181 -0.320 0.930 205 189 165 0 0
-1.8456 1.2169 0.0177 0.344 -0.363 0.866 187 169 138 0 0
-1.8433 1.2209 0.0176 0.407 -0.276 0.871 194 176 147 0 0
-0.9274 0.6608 -0.0817 -0.014 -0.963 0.270 190 156 54 0 0
-0.8938 0.7221 -0.0826 -0.150 -0.493 0.857 184 155 54 0 0
-0.8864 0.7166 -0.0834 -0.355 -0.574 0.738 183 154 56 0 0
-0.8767 0.7179 -0.0843 -0.428 -0.883 0.194 170 138 49 0 0
-0.8833 0.7379 -0.0830 -0.182 -0.630 0.755 164 131 49 0 0
-0.8721 0.7423 -0.0839 0.806 0.038 -0.590 158 127 45 0 0
-0.7832 0.7154 -0.0926 0.984 -0.177 -0.022 176 154 81 0 0
-0.7166 0.8598 -0.0937 0.796 -0.118 -0.593 183 145 72 0 0
-0.8439 2.1455 -0.0403 0.612 -0.234 0.756 187 170 152 0 0
-0.8380 2.1620 -0.0402 0.851 -0.206 0.484 187 170 153 0 0
-2.0255 1.0430 0.0234 0.165 -0.541 0.825 200 184 159 0 0
-2.0181 1.0425 0.0227 -0.032 -0.561 0.827 195 179 151 0 0
-1.9650 1.0800 0.0192 0.257 -0.350 0.901 189 171 144 0 0
-1.9592 1.0806 0.0188 0.311 -0.247 0.918 189 170 141 0 0
-1.9020 1.1495 0.0159 0.709 0.133 0.693 196 180 154 0 0
-1.8692 1.1430 0.0128 0.923 -0.310 0.228 189 170 140 0 0
-1.8645 1.1504 0.0127 0.641 -0.735 0.220 186 165 135 0 0
-1.8435 1.2083 0.0126 0.296 -0.394 0.870 189 168 138 0 0
-1.7765 1.2998 0.0096 0.151 -0.447 0.881 193 174 147 0 0
-1.7628 1.3120 0.0088 0.091 -0.613 0.785 192 172 145 0 0
-1.7519 1.3137 0.0079 0.368 -0.296 0.881 204 188 162 0 0
-1.7306 1.3245 0.0064 0.264 -0.379 0.887 194 174 148 0 0
-1.7277 1.3281 0.0062 0.377 -0.308 0.874 193 173 145 0 0
-1.6792 1.3921 0.0040 0.274 -0.463 0.843 197 180 151 0 0
-0.9627 0.6642 -0.0813 0.537 -0.806 0.250 157 94 37 0 0
-0.8733 0.7024 -0.0879 0.711 -0.603 0.362 177 146 49 0 0
-0.8766 0.7174 -0.0872 0.893 -0.451 0.000 170 138 50 0 0
-0.8779 0.7244 -0.0869 0.360 -0.910 0.204 163 131 48 0 0
-0.7230 0.8522 -0.0964 0.937 -0.085 -0.339 185 145 58 0 0
-0.7231 0.8590 -0.0962 0.289 -0.494 -0.820 184 142 57 0 0
-0.7208 0.8612 -0.0963 0.242 -0.523 -0.817 185 143 63 0 0
-1.2057 1.8606 -0.0228 0.137 -0.124 0.983 194 174 143 0 0
-1.1994 1.8596 -0.0234 -0.016 -0.186 0.982 199 180 151 0 0
-1.1966 1.8656 -0.0234 0.079 -0.153 0.985 197 177 148 0 0
-0.9473 2.0149 -0.0406 0.583 -0.399 0.707 197 180 161 0 0
-0.8427 2.1233 -0.0463 0.362 -0.369 0.856 194 179 162 0 0
-0.8409 2.1350 -0.0461 0.642 -0.228 0.732 190 173 156 0 0
-0.8380 2.1433 -0.0461 0.710 -0.162 0.685 187 170 152 0 0
-0.8243 2.1697 -0.0465 0.263 -0.554 0.790 182 164 145 0 0
-0.7614 2.2352 -0.0500 0.852 -0.093 0.516 194 183 165 0 0
-2.0424 1.0087 0.0193 0.509 0.045 0.859 191 171 144 0 0
-2.0395 1.0220 0.0195 0.284 -0.343 0.896 195 178 152 0 0
-1.9559 1.0720 0.0137 0.330 -0.297 0.896 191 174 145 0 0
-1.8941 1.1247 0.0099 0.526 -0.283 0.802 185 166 136 0 0
-1.8920 1.1285 0.0099 0.526 -0.283 0.802 188 169 139 0 0
-1.7561 1.3044 0.0033 0.058 -0.546 0.835 192 172 144 0 0
-1.7264 1.3126 0.0010 0.406 -0.560 0.722 192 172 145 0 0
-1.7195 1.3186 0.0005 0.661 -0.383 0.645 190 169 140 0 0
-1.7196 1.3254 0.0007 0.676 -0.111 0.728 190 169 140 0 0
-1.6632 1.3945 -0.0021 0.229 -0.272 0.935 197 176 147 0 0
-0.9646 0.6572 -0.0842 0.554 -0.771 -0.315 180 131 39 0 0
-0.9645 0.6616 -0.0841 0.718 -0.635 0.286 166 112 35 0 0
-0.9620 0.6631 -0.0843 0.396 -0.767 0.504 162 104 32 0 0
-0.9539 0.6619 -0.0850 0.083 -0.899 0.429 171 119 37 0 0
-0.8728 0.7013 -0.0909 0.711 -0.603 0.362 178 148 50 0 0
-0.8725 0.7060 -0.0908 0.837 -0.533 0.126 178 144 51 0 0
-0.8745 0.7139 -0.0904 0.644 -0.587 0.490 171 136 49 0 0
-0.7497 0.8318 -0.0977 -0.426 -0.786 -0.447 177 134 42 0 0
-0.7452 0.8296 -0.0981 -0.495 -0.804 -0.329 182 139 46 0 0
-1.1707 1.8466 -0.0314 0.701 -0.480 0.527 181 160 129 0 0
-1.0079 1.9718 -0.0418 0.701 -0.084 0.708 195 177 158 0 0
-0.9557 2.0072 -0.0452 0.221 -0.936 0.272 198 180 161 0 0
-0.9495 2.0052 -0.0458 0.237 -0.971 -0.028 195 177 158 0 0
-0.9446 2.0217 -0.0458 0.689 -0.172 0.704 194 177 157 0 0
-0.8947 2.0495 -0.0493 0.235 -0.551 0.801 190 173 156 0 0
-0.8847 2.0681 -0.0496 0.713 -0.260 0.651 193 177 159 0 0
-0.8432 2.1067 -0.0520 0.631 -0.157 0.760 192 176 160 0 0
-0.8216 2.1600 -0.0523 0.739 -0.299 0.604 177 159 138 0 0
-0.8059 2.1618 -0.0536 0.014 -0.525 0.851 192 176 160 0 0
-0.7952 2.1619 -0.0546 0.664 -0.116 0.739 196 182 166 0 0
-0.7515 2.2378 -0.0561 0.492 -0.335 0.804 194 179 164 0 0
-2.0333 0.9962 0.0137 0.343 -0.111 0.933 201 184 157 0 0
-2.0234 1.0194 0.0135 0.309 -0.472 0.825 193 176 150 0 0
-1.9463 1.0635 0.0082 0.287 -0.359 0.888 195 179 152 0 0
-1.9390 1.0682 0.0077 0.350 -0.359 0.865 192 173 147 0 0
-1.9305 1.1051 0.0080 0.528 -0.078 0.846 195 177 149 0 0
-1.7931 1.2260 -0.0004 0.481 -0.400 0.780 197 179 151 0 0
-1.7900 1.2291 -0.0006 0.398 -0.430 0.810 196 178 150 0 0
-1.7181 1.3097 -0.0045 0.229 -0.628 0.744 182 158 128 0 0
-1.7149 1.3130 -0.0047 0.374 -0.445 0.814 184 160 130 0 0
-1.6561 1.3856 -0.0077 0.299 -0.279 0.913 199 179 150 0 0
-0.9641 0.6607 -0.0871 0.718 -0.635 0.286 169 120 27 0 0
-0.9579 0.6621 -0.0876 0.303 -0.921 0.247 178 129 28 0 0
-0.9531 0.6606 -0.0880 0.291 -0.921 0.259 189 146 43 0 0
-0.9423 0.6607 -0.0889 -0.238 -0.931 0.275 188 151 47 0 0
-0.8808 0.6974 -0.0932 0.163 -0.393 0.905 169 138 46 0 0
-0.8715 0.6990 -0.0939 0.464 -0.774 0.432 180 151 51 0 0
-0.8729 0.7061 -0.0936 0.762 -0.645 0.064 178 147 50 0 0
-0.8758 0.7154 -0.0931 0.563 -0.681 -0.468 171 139 48 0 0
-0.8765 0.7216 -0.0929 0.868 -0.358 -0.344 164 129 45 0 0
-0.7647 0.7557 -0.1015 0.748 -0.159 -0.645 167 131 43 0 0
-0.7653 0.7624 -0.1013 0.953 0.074 -0.294 180 146 68 0 0
-1.1697 1.8323 -0.0369 0.424 -0.296 0.856 197 178 153 0 0
-1.1692 1.8430 -0.0367 0.701 -0.480 0.527 196 176 150 0 0
-0.8948 2.0334 -0.0549 0.628 -0.441 0.642 188 170 150 0 0
-0.8915 2.0393 -0.0550 0.607 -0.518 0.603 191 175 157 0 0
-0.8899 2.0507 -0.0548 0.385 -0.726 0.569 194 177 160 0 0
-0.8854 2.0533 -0.0551 0.338 -0.774 0.535 194 177 160 0 0
-0.8828 2.0615 -0.0551 0.574 -0.738 0.356 194 178 162 0 0
-0.8192 2.1511 -0.0581 0.831 -0.234 0.505 177 159 140 0 0
-0.7988 2.1548 -0.0597 0.112 -0.468 0.876 186 170 154 0 0
-0.7525 2.2205 -0.0618 0.533 -0.185 0.826 193 177 162 0 0
-0.7488 2.2265 -0.0620 0.434 -0.257 0.863 193 177 161 0 0
-2.0218 0.9819 0.0080 0.367 -0.067 0.928 196 179 153 0 0
-2.0222 0.9873 0.0081 0.331 -0.166 0.929 201 185 159 0 0
-2.0187 0.9897 0.0079 0.289 -0.265 0.920 200 184 159 0 0
-2.0050 1.0098 0.0073 0.210 -0.313 0.926 194 177 152 0 0
-1.9630 1.0339 0.0043 0.148 -0.627 0.765 189 170 141 0 0
-1.9291 1.0868 0.0029 0.538 -0.206 0.817 174 152 121 0 0
-1.9100 1.1037 0.0017 0.735 -0.670 0.104 186 166 138 0 0
-1.8782 1.1153 -0.0007 0.355 -0.193 0.915 196 179 152 0 0
-1.7887 1.2211 -0.0055 0.583 -0.365 0.726 192 174 144 0 0
-1.6914 1.3205 -0.0112 0.593 -0.056 0.803 200 180 155 0 0
-1.6871 1.3224 -0.0115 0.420 -0.225 0.879 199 179 154 0 0
-1.0166 0.6703 -0.0853 0.294 -0.871 -0.395 201 173 65 0 0
-0.9586 0.6626 -0.0904 0.440 -0.889 0.127 183 140 30 0 0
-0.9419 0.6598 -0.0919 -0.225 -0.932 0.283 182 144 38 0 0
-0.8770 0.6768 -0.0969 0.362 -0.354 0.862 131 106 38 0 0
-0.8758 0.6800 -0.0969 0.417 -0.415 0.809 140 114 39 0 0
-0.8697 0.7012 -0.0969 0.032 -0.991 0.127 181 150 51 0 0
-0.8706 0.7076 -0.0967 -0.052 -0.997 -0.054 174 142 44 0 0
-0.7702 0.7591 -0.1038 0.273 -0.853 -0.444 163 123 37 0 0
-1.0014 1.9538 -0.0531 0.416 -0.177 0.892 192 174 154 0 0
-0.9464 1.9952 -0.0566 -0.175 -0.797 0.578 185 164 143 0 0
-0.9371 1.9994 -0.0573 0.517 -0.229 0.825 194 177 157 0 0
-0.9318 1.9998 -0.0578 0.821 -0.092 0.563 202 185 168 0 0
-0.9003 2.0173 -0.0600 0.720 -0.313 0.619 191 174 155 0 0
-0.8897 2.0333 -0.0604 0.525 -0.428 0.736 192 176 159 0 0
-0.8208 2.1374 -0.0636 0.888 -0.241 0.390 189 173 154 0 0
-0.7804 2.1273 -0.0672 0.775 -0.379 0.506 192 177 162 0 0
-0.7734 2.1397 -0.0675 0.376 -0.913 0.156 194 181 165 0 0
-0.7681 2.1399 -0.0680 -0.183 -0.904 0.386 190 174 159 0 0
-0.7617 2.1360 -0.0686 0.190 -0.977 0.098 187 169 155 0 0
-0.7571 2.1381 -0.0689 0.633 -0.773 0.045 188 172 156 0 0
-0.7543 2.1474 -0.0689 0.839 -0.307 0.449 191 176 160 0 0
-1.9117 1.0880 -0.0031 0.447 -0.120 0.886 183 162 133 0 0
-1.8669 1.1103 -0.0063 0.411 -0.169 0.896 202 187 161 0 0
-1.7846 1.2165 -0.0106 0.493 -0.467 0.734 188 167 137 0 0
-1.7787 1.2231 -0.0109 0.184 -0.556 0.811 192 172 144 0 0
-1.6800 1.3141 -0.0170 0.479 -0.177 0.860 195 175 148 0 0
-0.8729 0.6804 -0.1000 0.909 -0.002 0.416 163 130 38 0 0
-0.8698 0.7009 -0.0998 -0.283 -0.909 -0.305 191 163 60 0 0
-0.8704 0.7069 -0.0996 -0.170 -0.972 0.160 189 161 54 0 0
-0.7714 0.7608 -0.1065 0.482 -0.710 -0.514 164 126 40 0 0
-0.7173 0.8594 -0.1087 0.764 -0.355 -0.538 193 172 135 0 0
-1.0000 1.9221 -0.0591 0.178 -0.335 0.925 192 174 155 0 0
-0.9953 1.9376 -0.0591 0.384 -0.196 0.902 193 175 155 0 0
-0.9579 1.9962 -0.0608 0.628 -0.666 0.403 190 172 152 0 0
-0.9453 1.9916 -0.0619 -0.168 -0.668 0.725 188 169 149 0 0
-0.9085 2.0092 -0.0646 0.023 -0.651 0.759 186 167 147 0 0
-0.9016 2.0048 -0.0653 0.528 -0.527 0.667 186 166 145 0 0
-0.8983 2.0106 -0.0654 0.879 -0.221 0.424 187 168 148 0 0
-0.8953 2.0176 -0.0655 0.747 -0.309 0.588 189 170 151 0 0
-0.8435 2.0710 -0.0685 0.500 -0.237 0.833 196 180 163 0 0
-0.8100 2.1184 -0.0702 0.367 -0.289 0.884 197 183 167 0 0
-0.7844 2.1218 -0.0722 0.709 -0.351 0.611 196 183 167 0 0
-0.7795 2.1233 -0.0726 0.764 -0.273 0.585 198 185 169 0 0
-0.7754 2.1275 -0.0729 0.964 -0.229 0.132 198 185 169 0 0
-0.7729 2.1373 -0.0728 0.437 -0.724 0.534 194 180 166 0 0
-0.7618 2.1352 -0.0738 0.030 -0.987 0.155 188 172 156 0 0
-0.7557 2.1322 -0.0744 0.195 -0.976 0.093 188 171 155 0 0
-0.7240 2.1911 -0.0756 -0.185 -0.278 0.943 190 175 160 0 0
-0.4632 2.4241 -0.0918 0.204 -0.255 0.945 188 175 164 0 0
-0.4575 2.4202 -0.0923 0.133 -0.266 0.955 190 178 167 0 0
-1.7839 1.2091 -0.0154 0.543 -0.223 0.810 184 164 133 0 0
-1.7780 1.2095 -0.0159 0.390 -0.487 0.781 187 166 137 0 0
-1.7739 1.2115 -0.0162 0.338 -0.621 0.707 189 168 139 0 0
-0.8735 0.6859 -0.1027 0.912 -0.004 0.410 188 158 50 0 0
-0.8667 0.6860 -0.1032 -0.251 -0.738 0.627 195 168 56 0 0
-0.8658 0.6897 -0.1032 -0.340 -0.879 0.333 196 170 57 0 0
-0.8432 0.6817 -0.1053 -0.423 -0.838 0.345 209 185 73 0 0
-0.8335 0.6724 -0.1063 0.196 -0.980 0.017 202 177 78 0 0
-0.8139 0.7579 -0.1060 -0.452 -0.528 0.719 168 144 72 0 0
-0.7903 0.7305 -0.1085 -0.047 -0.908 0.417 162 137 67 0 0
-0.7873 0.7309 -0.1088 -0.042 -0.943 0.331 157 132 63 0 0
-0.7536 0.8374 -0.1092 -0.317 -0.932 -0.175 179 135 41 0 0
-0.7436 0.8378 -0.1100 0.582 -0.607 -0.542 175 132 40 0 0
-0.7276 0.8526 -0.1110 0.600 -0.633 -0.489 190 154 64 0 0
-0.7218 0.8544 -0.1114 0.581 -0.808 -0.099 191 155 80 0 0
-0.7193 0.8562 -0.1116 0.693 -0.665 -0.280 192 163 117 0 0
-0.9944 1.9074 -0.0649 0.116 -0.269 0.956 193 175 155 0 0
-0.8982 1.9943 -0.0709 0.407 -0.648 0.643 184 163 142 0 0
-0.8965 2.0046 -0.0708 0.720 -0.313 0.619 183 163 140 0 0
-0.8330 2.0708 -0.0746 0.506 -0.210 0.836 189 172 156 0 0
-0.8113 2.1043 -0.0756 0.384 -0.269 0.883 200 184 168 0 0
-0.7759 2.1281 -0.0780 0.639 -0.527 0.560 201 187 174 0 0
-0.7711 2.1299 -0.0784 -0.018 -0.863 0.504 197 183 168 0 0
-0.7533 2.1420 -0.0796 0.787 -0.332 0.520 192 176 161 0 0
-0.4747 2.3641 -0.0976 0.311 -0.146 0.939 185 172 159 0 0
-0.4604 2.4038 -0.0979 0.204 -0.255 0.945 186 172 161 0 0
-1.9471 1.0041 -0.0109 0.532 -0.115 0.839 172 149 120 0 0
-1.7738 1.2048 -0.0209 0.405 -0.444 0.799 190 169 140 0 0
-0.9459 0.6639 -0.1001 -0.236 -0.797 0.556 182 145 35 0 0
-0.8645 0.6629 -0.1067 0.841 0.087 0.534 189 158 52 0 0
-0.8289 0.6652 -0.1096 0.509 -0.588 0.628 202 181 71 0 0
-0.8219 0.6647 -0.1102 0.723 -0.649 0.235 207 188 75 0 0
-0.8187 0.6953 -0.1098 0.973 0.139 0.185 189 164 71 0 0
-0.8201 0.7131 -0.1093 0.849 0.133 0.512 182 158 71 0 0
-0.7542 0.8382 -0.1121 -0.317 -0.932 -0.175 178 134 41 0 0
-0.7444 0.8389 -0.1129 0.554 -0.767 -0.325 168 126 39 0 0
-0.7220 0.8545 -0.1144 0.581 -0.808 -0.099 190 155 79 0 0
-0.7197 0.8566 -0.1145 0.678 -0.710 -0.190 193 166 119 0 0
-1.0484 1.8927 -0.0658 0.170 -0.795 0.582 200 183 163 0 0
-1.0435 1.8940 -0.0662 0.094 -0.754 0.651 200 183 163 0 0
-0.8124 2.0892 -0.0810 0.275 -0.595 0.755 196 182 165 0 0
-0.8075 2.0906 -0.0814 0.307 -0.507 0.806 198 182 166 0 0
-0.8028 2.0928 -0.0817 0.307 -0.507 0.806 197 183 166 0 0
-0.7983 2.0954 -0.0820 0.350 -0.459 0.817 201 188 172 0 0
-0.7939 2.0983 -0.0824 0.350 -0.459 0.817 200 187 171 0 0
-0.7895 2.1014 -0.0826 0.108 -0.467 0.878 198 184 167 0 0
-1.9831 0.9606 -0.0132 0.283 -0.534 0.796 175 152 125 0 0
-1.8281 1.1251 -0.0226 0.696 0.132 0.705 181 158 127 0 0
-1.8000 1.1513 -0.0243 0.633 0.063 0.772 188 164 133 0 0
-1.6434 1.3053 -0.0340 0.223 -0.307 0.925 191 168 136 0 0
-1.6395 1.3077 -0.0343 0.231 -0.307 0.923 188 164 132 0 0
-0.8536 0.6862 -0.1100 -0.294 -0.603 0.742 254 254 238 0 0
-0.8265 0.6663 -0.1126 0.204 -0.705 0.679 225 211 100 0 0
-0.8140 0.6775 -0.1134 0.855 0.074 0.514 196 172 72 0 0
-0.8097 0.6862 -0.1135 0.933 0.059 0.356 188 163 72 0 0
-0.8124 0.7383 -0.1123 -0.270 -0.572 0.775 169 143 68 0 0
-0.7728 0.7855 -0.1146 0.956 0.240 0.166 182 146 69 0 0
-0.7704 0.8552 -0.1134 -0.673 -0.704 -0.229 182 141 67 0 0
-0.7477 0.8383 -0.1156 0.628 -0.729 -0.273 176 132 41 0 0
-0.7450 0.8397 -0.1158 0.554 -0.767 -0.325 166 123 40 0 0
-0.7426 0.8415 -0.1160 0.203 -0.914 -0.352 163 121 43 0 0
-1.1474 1.7832 -0.0650 0.904 0.134 0.406 198 179 155 0 0
-1.0012 1.8827 -0.0749 -0.171 -0.410 0.896 196 178 157 0 0
-0.9231 1.9579 -0.0798 0.684 -0.349 0.641 200 185 165 0 0
-0.8330 2.0355 -0.0856 0.721 -0.264 0.640 194 178 162 0 0
-0.8327 2.0512 -0.0853 0.805 -0.341 0.485 195 180 162 0 0
-0.7967 2.0892 -0.0875 0.523 -0.540 0.659 201 187 171 0 0
-0.6882 2.1922 -0.0943 0.721 -0.106 0.684 188 171 156 0 0
-0.6851 2.2013 -0.0943 0.575 -0.211 0.790 186 168 153 0 0
-0.4704 2.3344 -0.1092 0.998 -0.047 -0.029 187 173 161 0 0
-0.4661 2.3389 -0.1094 0.960 -0.060 0.272 185 171 158 0 0
-0.4648 2.3633 -0.1091 0.687 -0.467 0.557 184 169 156 0 0
-0.4590 2.3585 -0.1096 0.583 -0.626 0.518 183 168 155 0 0
-0.4560 2.3720 -0.1096 0.434 -0.519 0.737 183 168 156 0 0
-0.4507 2.3710 -0.1100 -0.100 -0.510 0.854 185 173 161 0 0
-1.9832 0.9552 -0.0176 0.392 -0.578 0.716 169 147 118 0 0
-1.9055 1.0481 -0.0222 0.200 -0.792 0.578 185 164 134 0 0
-1.7949 1.1460 -0.0293 0.590 0.087 0.803 189 167 136 0 0
-1.6371 1.2976 -0.0393 0.275 -0.383 0.882 194 172 142 0 0
-1.0101 0.6563 -0.1008 0.179 -0.899 0.399 168 135 33 0 0
-0.8674 0.6860 -0.1117 -0.103 -0.515 0.851 222 203 73 0 0
-0.8646 0.6870 -0.1119 -0.083 -0.494 0.866 235 219 98 0 0
-0.8631 0.6898 -0.1120 -0.322 -0.584 0.745 251 245 164 0 0
-0.8428 0.6752 -0.1139 -0.393 -0.603 0.694 254 254 227 0 0
-0.8039 0.6719 -0.1170 0.952 -0.227 0.207 191 167 72 0 0
-0.8084 0.6839 -0.1165 0.933 0.059 0.356 189 164 70 0 0
-0.7736 0.7688 -0.1178 0.206 -0.866 -0.456 165 130 49 0 0
-0.7764 0.7974 -0.1170 0.964 0.242 0.105 184 151 83 0 0
-0.7602 0.8422 -0.1175 -0.483 -0.873 -0.069 170 125 33 0 0
-0.7433 0.8425 -0.1189 0.203 -0.914 -0.352 162 120 45 0 0
-0.7398 0.8423 -0.1192 -0.064 -0.968 -0.241 163 123 46 0 0
-0.9973 1.8725 -0.0804 -0.094 -0.458 0.884 199 181 161 0 0
-0.9814 1.8726 -0.0817 0.565 -0.403 0.720 197 180 160 0 0
-0.9550 1.8864 -0.0835 0.162 -0.838 0.521 193 175 156 0 0
-0.8442 2.0041 -0.0903 0.350 -0.320 0.880 200 185 170 0 0
-0.8286 2.0374 -0.0910 0.921 -0.281 0.270 193 178 159 0 0
-0.8008 2.0843 -0.0924 0.186 -0.833 0.521 189 173 154 0 0
-0.7954 2.0839 -0.0928 0.523 -0.540 0.659 194 179 161 0 0
-0.7769 2.0924 -0.0942 0.756 -0.396 0.521 189 172 155 0 0
-0.7291 2.1078 -0.0977 0.684 -0.124 0.718 191 175 160 0 0
-0.4774 2.3142 -0.1142 0.815 -0.459 0.354 191 177 165 0 0
-0.4728 2.3167 -0.1145 0.989 -0.095 -0.113 190 176 163 0 0
-0.4631 2.3513 -0.1147 0.609 -0.427 0.668 188 174 161 0 0
-0.4585 2.3544 -0.1150 0.583 -0.626 0.518 186 172 160 0 0
-0.4539 2.3570 -0.1154 0.439 -0.696 0.569 185 171 159 0 0
-0.4493 2.3604 -0.1157 0.279 -0.838 0.469 187 175 163 0 0
-0.4440 2.3583 -0.1161 -0.404 -0.799 0.446 188 176 164 0 0
-1.9780 0.9312 -0.0227 0.695 -0.133 0.707 183 162 134 0 0
-1.9795 0.9372 -0.0225 0.845 0.053 0.532 182 161 132 0 0
-1.9796 0.9422 -0.0224 0.785 0.012 0.619 183 162 133 0 0
-1.7901 1.1235 -0.0345 0.240 -0.162 0.957 199 181 152 0 0
-1.7872 1.1382 -0.0345 0.486 -0.023 0.874 194 174 143 0 0
-1.7874 1.1443 -0.0344 0.498 -0.043 0.866 194 173 143 0 0
-1.6688 1.2332 -0.0424 0.242 -0.653 0.718 192 171 142 0 0
-1.6359 1.2890 -0.0441 0.232 -0.310 0.922 194 174 144 0 0
-1.0098 0.6556 -0.1038 0.297 -0.834 0.465 168 132 37 0 0
-0.9980 0.6639 -0.1046 0.460 -0.703 0.542 193 156 48 0 0
-0.9328 0.6598 -0.1098 0.133 -0.976 -0.172 178 143 37 0 0
-0.8307 0.6669 -0.1178 0.030 -0.395 0.918 223 211 97 0 0
-0.8144 0.6574 -0.1192 0.782 0.137 0.608 215 195 89 0 0
-0.7737 0.7629 -0.1208 0.533 -0.841 -0.094 164 134 60 0 0
-0.7741 0.7694 -0.1206 0.833 -0.500 0.236 166 134 57 0 0
-0.7750 0.7945 -0.1201 0.959 0.248 -0.137 179 142 71 0 0
-0.7684 0.8506 -0.1198 -0.539 -0.842 -0.019 175 130 46 0 0
-0.7548 0.8510 -0.1208 -0.014 -0.974 -0.228 172 127 42 0 0
-0.7460 0.8472 -0.1216 -0.600 -0.798 -0.059 163 121 45 0 0
-0.7403 0.8428 -0.1221 -0.135 -0.946 -0.294 163 123 47 0 0
-0.7373 0.8436 -0.1223 -0.119 -0.950 -0.290 172 134 50 0 0
-0.7340 0.8437 -0.1226 0.633 -0.660 -0.405 182 143 56 0 0
-0.7382 0.8651 -0.1219 0.343 -0.886 -0.310 192 159 73 0 0
-0.9784 1.8645 -0.0870 0.913 -0.395 0.105 194 177 156 0 0
-0.9758 1.8714 -0.0871 0.570 -0.600 0.562 193 175 155 0 0
-0.9630 1.8791 -0.0880 0.136 -0.770 0.623 188 171 149 0 0
-0.9438 1.8840 -0.0894 0.116 -0.992 0.042 195 177 158 0 0
-0.9386 1.8842 -0.0898 0.441 -0.882 -0.165 193 175 156 0 0
-0.9356 1.8901 -0.0900 0.864 -0.458 0.211 189 170 149 0 0
-0.9294 1.9017 -0.0903 0.880 -0.272 0.390 191 172 151 0 0
-0.9259 1.9063 -0.0905 0.973 -0.094 0.212 194 177 156 0 0
-0.9234 1.9138 -0.0905 0.884 -0.076 0.461 196 179 160 0 0
-0.8388 2.0029 -0.0958 0.231 -0.389 0.892 193 177 161 0 0
-0.8097 2.0264 -0.0978 0.937 0.101 0.334 193 176 158 0 0
-0.8027 2.0900 -0.0973 -0.056 -0.872 -0.486 184 165 145 0 0
-0.7952 2.0823 -0.0980 0.365 -0.907 -0.211 188 169 150 0 0
-0.7830 2.0767 -0.0991 -0.364 -0.862 0.351 190 173 154 0 0
-0.7747 2.0839 -0.0996 0.270 -0.548 0.792 188 171 154 0 0
-0.7673 2.0763 -0.1003 0.584 -0.507 0.634 187 170 152 0 0
-0.6752 2.1798 -0.1060 0.614 -0.026 0.789 185 169 153 0 0
-0.4721 2.3112 -0.1199 0.644 -0.134 0.753 189 175 163 0 0
-0.4692 2.3245 -0.1200 0.713 -0.080 0.696 189 174 163 0 0
-0.4624 2.3458 -0.1201 0.143 -0.281 0.949 188 175 162 0 0
-0.4580 2.3496 -0.1204 0.396 -0.573 0.718 188 176 162 0 0
-0.4534 2.3524 -0.1208 0.417 -0.546 0.727 188 175 162 0 0
-0.4485 2.3534 -0.1211 0.150 -0.762 0.630 190 178 165 0 0
-0.4434 2.3533 -0.1215 -0.247 -0.741 0.624 188 177 164 0 0
-1.8961 1.0075 -0.0323 0.014 -0.586 0.810 187 167 137 0 0
-1.8905 1.0081 -0.0328 0.324 -0.381 0.866 189 171 142 0 0
-1.7817 1.1325 -0.0395 0.699 0.114 0.706 198 178 149 0 0
-1.7840 1.1405 -0.0392 0.687 0.013 0.727 197 177 147 0 0
-1.7827 1.1452 -0.0392 0.308 -0.322 0.895 197 177 150 0 0
-1.6838 1.2294 -0.0458 0.233 -0.588 0.775 182 159 128 0 0
-1.6678 1.2252 -0.0471 0.150 -0.684 0.714 184 160 131 0 0
-1.6629 1.2263 -0.0475 0.129 -0.691 0.711 187 165 137 0 0
-1.6265 1.2778 -0.0496 0.303 -0.329 0.894 199 179 149 0 0
-1.6228 1.2804 -0.0498 0.413 -0.321 0.852 193 173 143 0 0
-1.6188 1.2826 -0.0501 0.542 -0.377 0.751 188 164 134 0 0
-1.6156 1.2857 -0.0503 0.672 -0.316 0.670 186 162 130 0 0
-1.6105 1.2866 -0.0507 -0.023 -0.781 0.624 185 161 128 0 0
-1.0091 0.6544 -0.1068 0.384 -0.917 0.109 171 135 46 0 0
-1.0022 0.6596 -0.1072 0.803 -0.594 -0.053 154 112 37 0 0
-0.9995 0.6609 -0.1074 0.632 -0.743 0.219 156 112 39 0 0
-0.9970 0.6623 -0.1076 0.512 -0.858 0.041 164 115 42 0 0
-0.9945 0.6638 -0.1078 0.512 -0.858 0.041 171 120 45 0 0
-0.9379 0.6568 -0.1123 0.158 -0.962 -0.223 195 161 52 0 0
-0.8970 0.6493 -0.1156 -0.312 -0.328 0.892 148 112 20 0 0
-0.7757 0.7954 -0.1230 0.943 0.267 -0.198 174 137 70 0 0
-0.7693 0.8519 -0.1227 -0.542 -0.840 0.019 169 120 35 0 0
-0.7540 0.8426 -0.1240 -0.460 -0.884 -0.088 177 132 45 0 0
-0.7375 0.8436 -0.1253 -0.234 -0.927 -0.293 170 131 51 0 0
-0.7344 0.8442 -0.1256 0.535 -0.750 -0.389 182 145 56 0 0
-0.7379 0.8641 -0.1250 0.188 -0.981 0.057 193 159 74 0 0
-1.0148 1.8359 -0.0895 0.612 -0.030 0.790 193 174 153 0 0
-0.9723 1.8618 -0.0924 0.554 -0.800 0.229 192 175 155 0 0
-0.9597 1.8701 -0.0933 0.091 -0.776 0.624 194 175 156 0 0
-0.9427 1.8805 -0.0945 0.327 -0.930 0.170 200 183 166 0 0
-0.9401 1.8875 -0.0946 0.344 -0.920 0.189 195 177 157 0 0
-0.9352 1.8885 -0.0950 0.864 -0.458 0.211 187 168 146 0 0
-0.9285 1.8986 -0.0953 0.836 -0.548 0.026 188 170 148 0 0
-0.9231 1.9124 -0.0956 0.914 -0.392 0.108 196 178 158 0 0
-0.7642 2.0648 -0.1058 0.150 -0.525 0.838 185 168 150 0 0
-0.7233 2.0845 -0.1087 0.849 -0.257 0.462 193 177 162 0 0
-0.6970 2.1015 -0.1106 0.178 -0.487 0.855 193 180 164 0 0
-0.4723 2.2804 -0.1256 0.502 -0.164 0.849 190 177 162 0 0
-0.4693 2.2925 -0.1257 0.644 -0.134 0.753 190 176 163 0 0
-0.4663 2.3051 -0.1257 0.774 -0.084 0.628 188 174 160 0 0
-0.4511 2.3361 -0.1265 0.498 -0.263 0.827 186 173 160 0 0
-0.4471 2.3430 -0.1267 0.498 -0.263 0.827 186 173 159 0 0
-0.4426 2.3465 -0.1270 -0.096 -0.439 0.893 185 172 158 0 0
-0.4375 2.3459 -0.1274 -0.231 -0.437 0.870 182 168 157 0 0
-0.4328 2.3476 -0.1277 -0.106 -0.470 0.876 185 171 159 0 0
-1.9747 0.9376 -0.0315 0.105 -0.651 0.752 178 154 126 0 0
-1.9652 0.9401 -0.0322 0.319 -0.494 0.809 182 158 130 0 0
-1.8969 1.0025 -0.0367 -0.084 -0.741 0.667 180 159 128 0 0
-1.8891 1.0065 -0.0372 0.194 -0.679 0.708 187 167 137 0 0
-1.8499 1.0104 -0.0402 0.212 -0.441 0.872 190 170 142 0 0
-1.8463 1.0126 -0.0405 0.493 -0.108 0.864 189 170 142 0 0
-1.8443 1.0592 -0.0400 0.458 0.045 0.888 190 170 143 0 0
-1.8045 1.1129 -0.0424 0.477 -0.366 0.799 188 168 136 0 0
-1.7685 1.1080 -0.0453 0.995 0.091 0.041 195 175 144 0 0
-1.6741 1.2250 -0.0511 -0.389 -0.845 0.367 181 158 128 0 0
-1.6200 1.2633 -0.0548 0.347 -0.187 0.919 190 169 139 0 0
-1.6166 1.2661 -0.0550 0.221 -0.251 0.943 195 174 143 0 0
-1.0115 0.6524 -0.1095 0.397 -0.895 0.205 172 132 47 0 0
-1.0087 0.6536 -0.1097 0.580 -0.810 0.091 157 114 40 0 0
-1.0062 0.6550 -0.1099 0.687 -0.723 0.072 158 114 45 0 0
-1.0033 0.6561 -0.1101 0.645 -0.738 0.196 148 103 37 0 0
-0.9993 0.6602 -0.1104 0.632 -0.743 0.219 141 97 33 0 0
-0.9822 0.6529 -0.1118 0.378 -0.900 0.217 167 107 49 0 0
-0.9767 0.6597 -0.1121 0.301 -0.896 0.326 169 125 39 0 0
-0.9737 0.6606 -0.1124 0.301 -0.896 0.326 169 124 28 0 0
-0.9436 0.6592 -0.1147 0.084 -0.885 0.458 200 167 52 0 0
-0.9388 0.6577 -0.1151 0.299 -0.932 -0.205 196 160 51 0 0
-0.9363 0.6590 -0.1153 0.414 -0.888 -0.201 182 145 42 0 0
-0.9333 0.6598 -0.1155 0.473 -0.802 -0.364 181 145 39 0 0
-0.9342 0.6656 -0.1154 0.795 -0.451 -0.405 181 145 42 0 0
-0.8473 0.6416 -0.1224 0.566 -0.217 0.795 192 160 44 0 0
-0.8298 0.6698 -0.1234 0.832 -0.058 0.551 206 184 75 0 0
-0.8045 0.7241 -0.1246 -0.157 -0.988 -0.005 168 138 64 0 0
-0.8009 0.7237 -0.1249 0.079 -0.918 -0.388 178 149 66 0 0
-0.7730 0.7667 -0.1265 0.912 -0.325 0.252 187 161 80 0 0
-0.7722 0.7712 -0.1265 0.998 0.044 -0.044 178 146 65 0 0
-0.7726 0.8198 -0.1259 0.216 -0.093 -0.972 195 172 136 0 0
-0.7546 0.8433 -0.1270 -0.560 -0.827 -0.049 178 133 44 0 0
-0.7381 0.8444 -0.1283 -0.275 -0.919 -0.282 170 131 55 0 0
-0.7380 0.8639 -0.1280 0.031 -0.970 0.243 192 158 73 0 0
-1.0211 1.7753 -0.0947 0.088 -0.703 0.706 203 187 168 0 0
-0.9589 1.8673 -0.0983 0.071 -0.682 0.728 196 177 158 0 0
-0.9490 1.8687 -0.0991 0.037 -0.479 0.877 195 177 156 0 0
-0.9392 1.8705 -0.0998 0.152 -0.600 0.785 192 175 156 0 0
-0.9190 1.9005 -0.1010 0.425 -0.769 0.478 195 178 157 0 0
-0.8635 1.9653 -0.1045 0.410 -0.332 0.850 183 162 143 0 0
-0.8205 1.9767 -0.1077 0.057 -0.607 0.792 192 176 158 0 0
-0.7087 2.0674 -0.1152 0.350 -0.260 0.900 192 176 160 0 0
-0.6947 2.0915 -0.1160 0.051 -0.486 0.872 198 185 169 0 0
-0.6893 2.0904 -0.1164 -0.045 -0.460 0.887 199 185 171 0 0
-0.4718 2.2759 -0.1309 0.430 -0.153 0.890 187 172 157 0 0
-0.4683 2.2850 -0.1310 0.427 -0.170 0.888 187 173 160 0 0
-0.4647 2.2937 -0.1312 0.484 -0.154 0.862 187 173 158 0 0
-1.9687 0.9326 -0.0363 0.317 -0.258 0.913 177 151 125 0 0
-1.9108 0.9571 -0.0404 0.601 -0.127 0.789 168 143 115 0 0
-1.9046 0.9623 -0.0409 0.181 -0.576 0.797 163 138 108 0 0
-1.8937 0.9943 -0.0413 -0.126 -0.748 0.651 176 154 122 0 0
-1.8896 0.9960 -0.0416 -0.077 -0.745 0.662 176 154 123 0 0
-1.8816 0.9947 -0.0423 -0.097 -0.728 0.678 180 159 130 0 0
-1.8778 0.9967 -0.0425 0.092 -0.703 0.705 186 165 135 0 0
-1.8389 1.0059 -0.0454 0.504 -0.155 0.850 192 174 147 0 0
-1.8320 1.0479 -0.0455 0.415 0.047 0.909 188 168 141 0 0
-1.7961 1.1046 -0.0476 0.541 -0.521 0.660 186 164 131 0 0
-1.0183 0.6513 -0.1120 0.295 -0.955 0.010 178 141 52 0 0
-1.0153 0.6522 -0.1122 0.003 -0.999 0.040 177 138 48 0 0
-0.9752 0.6575 -0.1152 0.589 -0.783 -0.202 157 107 36 0 0
-0.9447 0.6556 -0.1175 0.314 -0.910 0.270 198 163 52 0 0
-0.9422 0.6570 -0.1177 0.495 -0.849 0.185 198 164 50 0 0
-0.9395 0.6583 -0.1179 0.393 -0.898 0.197 189 152 44 0 0
-0.9331 0.6592 -0.1184 0.326 -0.903 0.280 180 143 37 0 0
-0.9366 0.6685 -0.1180 0.871 -0.380 0.310 181 145 42 0 0
-0.8418 0.6575 -0.1254 0.789 -0.141 0.598 206 140 70 0 0
-0.8035 0.7220 -0.1276 -0.093 -0.996 0.000 177 146 65 0 0
-0.8018 0.7247 -0.1277 0.581 -0.578 -0.573 198 169 71 0 0
-0.7378 0.8434 -0.1313 0.048 -0.955 -0.293 173 134 59 0 0
-0.7350 0.8710 -0.1312 0.466 -0.876 -0.126 191 158 80 0 0
-1.0214 1.7635 -0.0996 0.018 -0.818 -0.575 207 191 175 0 0
-1.0091 1.7835 -0.1004 0.224 -0.326 0.918 197 179 157 0 0
-0.9570 1.8617 -0.1035 0.138 -0.481 0.865 192 173 152 0 0
-0.9496 1.8561 -0.1041 -0.018 -0.503 0.864 193 173 152 0 0
-0.9221 1.8939 -0.1058 0.867 -0.262 0.424 192 174 154 0 0
-0.8591 1.9516 -0.1100 0.410 -0.295 0.863 197 180 162 0 0
-0.8553 1.9558 -0.1102 0.410 -0.322 0.853 194 176 156 0 0
-0.8278 1.9665 -0.1122 0.398 -0.363 0.842 191 174 156 0 0
-1.8994 0.9576 -0.0456 0.078 -0.612 0.787 166 143 111 0 0
-1.8791 0.9666 -0.0470 0.782 0.249 0.571 176 155 125 0 0
-1.8782 0.9863 -0.0469 0.328 -0.241 0.913 179 157 128 0 0
-1.8667 1.0026 -0.0476 0.344 -0.411 0.844 191 173 145 0 0
-1.7987 1.1008 -0.0518 0.496 -0.323 0.806 179 155 124 0 0
-1.7924 1.1007 -0.0523 0.665 -0.419 0.619 182 157 126 0 0
-1.7899 1.1041 -0.0525 0.656 -0.475 0.586 183 160 126 0 0
-1.6588 1.2078 -0.0614 -0.065 -0.579 0.813 188 167 139 0 0
-1.6572 1.2123 -0.0615 -0.398 -0.771 0.497 192 171 144 0 0
-1.6081 1.2359 -0.0650 0.707 -0.377 0.598 189 166 136 0 0
-1.6076 1.2419 -0.0650 0.612 -0.217 0.761 187 163 133 0 0
-1.6060 1.2465 -0.0651 0.456 -0.271 0.848 183 158 127 0 0
-1.6061 1.2532 -0.0650 0.648 -0.024 0.761 178 154 121 0 0
-1.0182 0.6507 -0.1149 0.314 -0.947 0.072 177 137 51 0 0
-1.0094 0.6537 -0.1155 0.694 -0.714 -0.088 146 96 36 0 0
-1.0042 0.6564 -0.1159 0.572 -0.815 -0.091 145 94 38 0 0
-0.9758 0.6580 -0.1180 0.559 -0.777 -0.290 143 93 30 0 0
-0.9736 0.6597 -0.1182 0.620 -0.759 -0.200 140 90 28 0 0
-0.9717 0.6619 -0.1183 0.582 -0.792 -0.185 146 97 31 0 0
-0.9499 0.6527 -0.1200 0.352 -0.936 0.028 173 123 36 0 0
-0.9392 0.6574 -0.1208 0.197 -0.923 0.330 184 146 40 0 0
-0.8378 0.6562 -0.1285 0.784 -0.445 0.432 197 130 65 0 0
-0.8362 0.6588 -0.1286 0.637 -0.547 0.543 174 130 56 0 0
-0.8331 0.6592 -0.1288 0.545 -0.394 0.740 173 138 59 0 0
-0.8316 0.6619 -0.1289 0.579 -0.318 0.751 176 146 58 0 0
-0.8043 0.7231 -0.1304 0.341 -0.876 -0.341 198 172 65 0 0
-0.8029 0.7263 -0.1305 0.559 -0.442 -0.701 214 191 83 0 0
-0.7908 0.7174 -0.1315 0.132 -0.959 0.250 213 194 92 0 0
-0.7482 0.8433 -0.1335 -0.279 -0.822 0.497 155 115 40 0 0
-0.7411 0.8494 -0.1340 0.998 -0.031 0.049 178 140 61 0 0
-0.7413 0.8562 -0.1339 0.990 -0.084 0.112 188 151 62 0 0
-0.7369 0.8677 -0.1341 0.341 -0.927 0.154 194 160 76 0 0
-0.7347 0.8699 -0.1343 0.597 -0.789 0.149 191 158 83 0 0
-1.0224 1.7650 -0.1044 0.475 -0.485 0.735 209 194 175 0 0
-1.0041 1.7711 -0.1057 0.531 -0.299 0.793 195 177 157 0 0
-0.8661 1.9257 -0.1147 0.266 -0.319 0.910 190 173 154 0 0
-0.8636 1.9337 -0.1148 0.505 -0.230 0.832 198 180 163 0 0
-0.8606 1.9398 -0.1150 0.505 -0.230 0.832 203 187 171 0 0
-0.8570 1.9447 -0.1152 0.466 -0.243 0.851 202 186 170 0 0
-0.8522 1.9458 -0.1155 0.472 -0.270 0.839 198 182 164 0 0
-0.8384 1.9508 -0.1165 -0.182 -0.469 0.864 187 169 149 0 0
-0.8273 1.9483 -0.1174 0.351 -0.255 0.901 185 165 146 0 0
-0.6989 2.0477 -0.1262 0.528 -0.304 0.793 192 176 160 0 0
-0.6640 2.0884 -0.1284 0.918 -0.025 0.395 190 173 158 0 0
-0.3762 2.3661 -0.1476 0.353 -0.360 0.863 194 184 174 0 0
-1.9454 0.9189 -0.0467 0.196 -0.317 0.928 177 153 124 0 0
-1.9407 0.9202 -0.0470 0.161 -0.321 0.933 177 155 127 0 0
-1.7932 1.0399 -0.0571 0.588 -0.432 0.684 187 167 139 0 0
-1.7966 1.0927 -0.0565 0.666 -0.211 0.716 170 145 113 0 0
-1.7948 1.0968 -0.0566 0.705 -0.205 0.679 170 146 113 0 0
-1.7901 1.0982 -0.0569 0.739 -0.372 0.561 182 157 126 0 0
-1.6413 1.2012 -0.0672 -0.379 -0.797 0.469 191 170 140 0 0
-1.6100 1.2245 -0.0694 0.961 -0.241 0.137 182 157 126 0 0
-1.5935 1.2650 -0.0703 0.036 -0.580 0.814 194 173 142 0 0
-0.9761 0.6580 -0.1209 0.722 -0.669 -0.175 137 85 28 0 0
-0.9742 0.6601 -0.1210 0.722 -0.669 -0.175 138 86 29 0 0
-0.9726 0.6627 -0.1211 0.661 -0.750 -0.016 144 94 33 0 0
-0.9443 0.6545 -0.1233 0.489 -0.854 0.176 193 155 50 0 0
-0.9418 0.6559 -0.1235 0.428 -0.878 0.215 192 155 48 0 0
-0.8778 0.6742 -0.1281 -0.448 -0.446 -0.775 166 128 31 0 0
-0.8366 0.6541 -0.1313 0.350 -0.747 0.565 172 111 49 0 0
-0.8362 0.6584 -0.1313 0.137 -0.619 0.773 166 123 52 0 0
-0.8173 0.7272 -0.1322 -0.387 -0.612 0.689 161 133 56 0 0
-0.8052 0.7241 -0.1332 0.635 -0.690 -0.348 206 183 70 0 0
-0.7903 0.7162 -0.1343 0.265 -0.849 0.458 210 189 87 0 0
-0.7873 0.7223 -0.1345 0.556 -0.822 -0.122 211 189 88 0 0
-0.7777 0.7507 -0.1350 0.618 -0.689 0.377 160 140 72 0 0
-0.7381 0.8695 -0.1371 0.541 -0.841 0.010 194 158 75 0 0
-0.7363 0.8727 -0.1372 0.574 -0.818 -0.044 191 158 84 0 0
-1.0225 1.7645 -0.1092 0.326 -0.518 0.791 207 190 171 0 0
-1.0099 1.7597 -0.1101 -0.123 -0.632 0.765 211 197 179 0 0
-1.0042 1.7585 -0.1106 0.369 -0.311 0.876 207 190 170 0 0
-1.0010 1.7631 -0.1108 0.577 -0.228 0.784 192 173 150 0 0
-0.9637 1.8374 -0.1130 0.136 -0.377 0.916 177 153 130 0 0
-0.9587 1.8379 -0.1134 0.276 -0.326 0.904 177 154 130 0 0
-0.9563 1.8450 -0.1135 0.180 -0.344 0.921 181 159 136 0 0
-0.8596 1.9210 -0.1202 0.606 -0.251 0.755 205 191 174 0 0
-0.8569 1.9284 -0.1203 0.607 -0.203 0.768 207 195 179 0 0
-0.8378 1.9327 -0.1217 0.031 -0.273 0.962 192 175 157 0 0
-0.8350 1.9398 -0.1218 -0.022 -0.347 0.938 190 172 153 0 0
-0.7093 2.0105 -0.1307 0.855 -0.443 0.270 196 182 166 0 0
-0.6964 2.0371 -0.1315 0.557 -0.321 0.766 188 172 156 0 0
-0.6743 2.0485 -0.1330 0.010 -0.525 0.851 183 166 148 0 0
-0.4630 2.2182 -0.1475 0.312 -0.215 0.925 187 172 158 0 0
-0.4052 2.2868 -0.1513 0.613 -0.158 0.774 186 172 160 0 0
-0.3912 2.3282 -0.1520 0.630 -0.235 0.740 190 178 167 0 0
-0.3869 2.3328 -0.1523 0.921 -0.138 0.364 190 177 168 0 0
-0.3811 2.3255 -0.1528 0.377 -0.290 0.879 191 177 168 0 0
-1.9853 0.8535 -0.0484 0.662 -0.240 0.710 184 163 135 0 0
-1.9488 0.9018 -0.0508 0.291 -0.117 0.949 168 142 117 0 0
-1.9477 0.9057 -0.0508 0.150 -0.330 0.932 167 142 118 0 0
-1.9426 0.9067 -0.0512 0.046 -0.462 0.886 170 145 120 0 0
-1.9408 0.9102 -0.0513 0.062 -0.525 0.849 171 148 120 0 0
-1.9344 0.9102 -0.0518 0.062 -0.525 0.849 184 164 135 0 0
-1.9298 0.9115 -0.0521 0.122 -0.401 0.908 191 172 146 0 0
-1.8971 0.9400 -0.0544 0.441 -0.309 0.843 177 156 125 0 0
-1.8986 0.9461 -0.0542 0.426 -0.382 0.820 180 159 129 0 0
-1.8768 0.9537 -0.0558 0.480 -0.760 0.438 191 173 145 0 0
-1.7904 1.0102 -0.0618 0.560 0.008 0.829 188 170 140 0 0
-1.7886 1.0300 -0.0618 0.686 -0.165 0.708 193 174 148 0 0
-1.7870 1.0340 -0.0619 0.695 -0.305 0.651 196 177 152 0 0
-1.7910 1.0815 -0.0614 0.438 -0.127 0.890 174 151 119 0 0
-1.7890 1.0909 -0.0614 0.435 -0.267 0.860 173 147 114 0 0
-1.7854 1.0933 -0.0617 0.402 -0.340 0.850 182 159 126 0 0
-1.6922 1.1431 -0.0683 0.062 -0.742 0.668 188 167 136 0 0
-1.6878 1.1446 -0.0686 0.176 -0.742 0.647 186 162 131 0 0
-1.6070 1.2207 -0.0741 0.772 -0.522 0.362 172 147 117 0 0
-1.6063 1.2263 -0.0741 0.564 -0.659 0.497 174 149 119 0 0
-1.5959 1.2343 -0.0748 0.381 -0.528 0.759 188 165 134 0 0
-0.9926 0.6507 -0.1226 0.496 -0.868 -0.008 138 87 31 0 0
-0.9767 0.6583 -0.1238 0.750 -0.602 -0.274 135 82 27 0 0
-0.9746 0.6604 -0.1239 0.709 -0.650 -0.275 135 84 27 0 0
-0.9728 0.6626 -0.1240 0.559 -0.829 0.013 144 93 34 0 0
-0.9471 0.6531 -0.1260 0.381 -0.896 -0.228 182 139 41 0 0
-0.9414 0.6550 -0.1264 0.297 -0.955 0.020 191 153 46 0 0
-0.9384 0.6558 -0.1266 0.220 -0.934 0.282 186 146 41 0 0
-0.9351 0.6655 -0.1268 0.892 -0.357 0.278 178 140 42 0 0
-0.7772 0.7496 -0.1379 0.618 -0.689 0.377 162 143 73 0 0
-0.7390 0.8710 -0.1400 0.673 -0.715 -0.187 194 158 76 0 0
-0.7365 0.8727 -0.1402 0.752 -0.615 -0.236 189 156 83 0 0
-0.9684 1.8223 -0.1176 0.188 -0.271 0.944 187 165 142 0 0
-0.9599 1.8272 -0.1182 0.175 -0.266 0.948 181 158 136 0 0
-0.8382 1.9025 -0.1268 0.239 -0.151 0.959 203 189 173 0 0
-0.8345 1.9068 -0.1270 0.239 -0.151 0.959 201 186 169 0 0
-0.8318 1.9140 -0.1272 0.210 -0.148 0.966 199 184 166 0 0
-0.7093 2.0096 -0.1356 0.701 -0.344 0.625 205 191 177 0 0
-0.7053 2.0136 -0.1359 0.763 -0.469 0.444 197 182 168 0 0
-0.6980 2.0236 -0.1364 0.499 -0.430 0.753 184 167 149 0 0
-0.6902 2.0319 -0.1369 0.449 -0.385 0.806 185 168 152 0 0
-0.6874 2.0403 -0.1371 0.423 -0.320 0.847 185 168 151 0 0
-0.5544 2.1787 -0.1461 0.535 -0.295 0.792 179 163 147 0 0
-0.4215 2.2632 -0.1554 0.475 -0.118 0.872 186 172 158 0 0
-0.4160 2.2586 -0.1558 0.392 -0.113 0.913 189 175 164 0 0
-0.4094 2.2804 -0.1562 0.413 -0.083 0.907 190 178 166 0 0
-0.4049 2.2830 -0.1565 0.431 -0.080 0.899 188 176 163 0 0
-0.3920 2.2960 -0.1574 0.567 -0.194 0.801 191 179 168 0 0
-0.3829 2.3007 -0.1580 0.266 -0.275 0.924 193 180 170 0 0
-0.3788 2.3060 -0.1583 0.343 -0.256 0.904 192 179 170 0 0
-1.9334 0.9042 -0.0561 0.056 -0.571 0.819 194 176 148 0 0
-1.9271 0.9042 -0.0565 0.015 -0.598 0.802 195 177 150 0 0
-1.9206 0.9041 -0.0570 0.056 -0.571 0.819 196 179 154 0 0
-1.9140 0.9039 -0.0575 0.173 -0.386 0.906 194 177 152 0 0
-1.8892 0.9284 -0.0592 0.372 -0.258 0.891 179 157 126 0 0
-1.8914 0.9351 -0.0590 0.512 -0.314 0.799 177 155 124 0 0
-1.8936 0.9466 -0.0588 0.515 -0.569 0.641 184 164 134 0 0
-1.8648 0.9486 -0.0609 0.363 -0.386 0.848 186 167 137 0 0
-1.8530 0.9642 -0.0617 0.313 -0.264 0.912 191 172 145 0 0
-1.7793 1.0815 -0.0666 0.355 -0.139 0.925 183 159 129 0 0
-1.6921 1.1365 -0.0727 0.476 -0.436 0.764 188 167 137 0 0
-1.0460 0.6601 -0.1216 0.183 -0.870 0.457 189 164 128 0 0
-0.9722 0.6616 -0.1270 0.544 -0.817 0.192 146 96 37 0 0
-0.9479 0.6538 -0.1288 0.151 -0.939 -0.308 180 134 38 0 0
-0.9320 0.6517 -0.1300 0.533 -0.526 0.663 182 143 40 0 0
-0.9343 0.6641 -0.1297 0.848 -0.357 0.392 176 140 40 0 0
-0.9478 0.6866 -0.1287 0.954 0.217 0.205 177 139 40 0 0
-0.7854 0.7238 -0.1403 0.513 -0.840 -0.178 213 198 101 0 0
-0.7790 0.7465 -0.1407 0.605 -0.656 0.451 186 170 89 0 0
-0.7767 0.7483 -0.1409 0.809 -0.509 0.294 178 157 76 0 0
-0.7758 0.7524 -0.1409 0.917 -0.386 0.105 196 172 80 0 0
-0.7403 0.8664 -0.1430 0.567 -0.785 0.249 195 159 74 0 0
-0.7366 0.8726 -0.1433 0.850 -0.502 -0.161 189 156 84 0 0
-0.8272 1.8842 -0.1325 0.292 -0.105 0.951 202 187 169 0 0
-0.8262 1.8963 -0.1326 0.177 -0.165 0.970 201 185 167 0 0
-0.7628 1.9340 -0.1370 0.517 -0.390 0.762 186 167 147 0 0
-0.7597 1.9404 -0.1372 0.405 -0.251 0.879 183 165 145 0 0
-0.6923 2.0202 -0.1418 0.432 -0.390 0.813 179 162 144 0 0
-0.6845 2.0282 -0.1423 0.327 -0.350 0.878 187 171 155 0 0
-0.5340 2.1745 -0.1527 0.415 -0.160 0.895 186 170 152 0 0
-0.3812 2.2862 -0.1633 0.195 -0.243 0.950 192 179 169 0 0
-0.3727 2.2951 -0.1639 0.291 -0.173 0.941 191 179 168 0 0
-0.2908 2.3825 -0.1695 0.044 -0.381 0.923 190 179 170 0 0
-1.9247 0.8550 -0.0610 0.491 -0.119 0.863 178 157 128 0 0
-1.9226 0.8580 -0.0612 0.566 -0.078 0.821 180 159 129 0 0
-1.9250 0.8645 -0.0610 0.448 -0.081 0.890 180 159 130 0 0
-1.9268 0.8751 -0.0608 0.545 0.115 0.831 182 162 134 0 0
-1.9259 0.8981 -0.0608 0.056 -0.571 0.819 195 177 151 0 0
-1.8870 0.9312 -0.0636 0.779 -0.220 0.587 183 162 132 0 0
-1.8516 0.9525 -0.0661 0.382 -0.516 0.767 188 168 139 0 0
-1.8421 0.9598 -0.0667 0.310 -0.251 0.917 191 172 145 0 0
-1.7754 1.0227 -0.0714 0.246 -0.379 0.892 190 170 142 0 0
-1.6104 1.2042 -0.0828 0.978 -0.133 0.162 194 172 143 0 0
-1.6082 1.2081 -0.0829 0.785 -0.476 0.397 195 173 145 0 0
-1.6058 1.2119 -0.0831 0.784 -0.492 0.379 193 170 141 0 0
-1.6035 1.2158 -0.0832 0.581 -0.410 0.704 188 164 134 0 0
-0.9922 0.6495 -0.1285 0.338 -0.940 0.047 141 89 33 0 0
-0.9735 0.6628 -0.1298 0.102 -0.903 0.417 138 87 29 0 0
-0.9384 0.6551 -0.1323 0.064 -0.992 -0.104 189 150 44 0 0
-0.9315 0.6508 -0.1328 0.816 -0.237 0.527 185 145 40 0 0
-0.9353 0.6650 -0.1325 0.918 -0.334 0.214 176 139 38 0 0
-0.8321 0.6515 -0.1400 0.939 -0.182 -0.293 139 95 34 0 0
-0.8314 0.6553 -0.1400 0.939 -0.182 -0.293 135 98 33 0 0
-0.8171 0.7205 -0.1409 -0.384 -0.767 0.514 183 152 59 0 0
-0.8089 0.7235 -0.1415 0.735 -0.678 0.033 202 179 72 0 0
-0.7786 0.7454 -0.1436 0.621 -0.723 0.303 189 168 81 0 0
-0.7397 0.8649 -0.1461 0.780 -0.497 0.380 193 158 72 0 0
-0.7396 0.8713 -0.1461 0.781 -0.595 -0.188 192 158 76 0 0
-0.7377 0.8743 -0.1462 0.543 -0.810 -0.220 189 157 85 0 0
-0.7354 0.8765 -0.1464 0.222 -0.975 -0.018 189 160 109 0 0
-1.0151 1.7219 -0.1243 0.978 0.092 0.187 194 175 150 0 0
-1.0152 1.7340 -0.1242 0.604 -0.257 0.754 189 168 142 0 0
-0.9266 1.8068 -0.1304 0.196 -0.412 0.890 197 180 158 0 0
-0.9182 1.8114 -0.1310 0.190 -0.437 0.879 190 172 148 0 0
-0.8359 1.8794 -0.1368 0.042 -0.346 0.937 201 186 168 0 0
-0.8173 1.8839 -0.1381 0.375 -0.140 0.916 192 176 156 0 0
-0.7491 1.9373 -0.1429 0.535 -0.302 0.789 200 185 169 0 0
-0.7451 1.9406 -0.1431 0.395 -0.369 0.841 199 186 169 0 0
-0.7389 1.9535 -0.1436 0.341 -0.469 0.814 187 170 151 0 0
-0.7348 1.9566 -0.1438 0.343 -0.434 0.833 182 163 143 0 0
-0.6723 2.0185 -0.1482 0.291 -0.380 0.878 199 185 170 0 0
-0.6647 2.0277 -0.1487 0.324 -0.518 0.792 197 184 169 0 0
-0.6597 2.0277 -0.1491 0.261 -0.330 0.907 194 180 164 0 0
-0.4195 2.2139 -0.1659 0.749 -0.203 0.630 186 170 156 0 0
-0.4186 2.2405 -0.1659 0.822 -0.077 0.564 187 171 159 0 0
-0.3998 2.2435 -0.1672 0.534 -0.085 0.841 189 177 163 0 0
-0.3893 2.2729 -0.1679 0.063 -0.210 0.976 188 176 164 0 0
-0.3419 2.3173 -0.1712 0.138 -0.252 0.958 193 183 175 0 0
-0.2980 2.3555 -0.1743 0.545 -0.166 0.822 186 175 167 0 0
-0.2938 2.3615 -0.1745 0.581 -0.215 0.785 186 175 166 0 0
-1.9176 0.8357 -0.0657 0.089 -0.390 0.916 182 162 131 0 0
-1.9129 0.8505 -0.0660 0.923 0.174 0.344 178 158 129 0 0
-1.9159 0.8619 -0.0658 0.894 0.330 0.302 194 175 148 0 0
-1.9196 0.8693 -0.0655 0.848 0.331 0.414 193 175 147 0 0
-1.9058 0.8920 -0.0665 0.056 -0.571 0.819 189 170 142 0 0
-1.8412 0.9437 -0.0710 0.522 -0.445 0.728 186 167 137 0 0
-1.8415 0.9489 -0.0710 0.572 -0.309 0.760 187 167 139 0 0
-1.7878 1.0278 -0.0747 0.411 -0.176 0.895 184 161 132 0 0
-1.6106 1.1601 -0.0872 0.533 -0.311 0.787 188 166 135 0 0
-1.5771 1.2245 -0.0895 0.549 -0.049 0.835 190 166 135 0 0
-0.9892 0.6501 -0.1316 0.420 -0.860 -0.290 156 105 40 0 0
-0.9864 0.6511 -0.1318 0.534 -0.822 0.198 168 117 39 0 0
-0.9730 0.6618 -0.1328 0.051 -0.988 0.143 131 80 23 0 0
-0.9305 0.6491 -0.1358 0.746 -0.463 0.479 188 148 44 0 0
-0.9304 0.6630 -0.1358 0.437 -0.345 0.830 174 138 39 0 0
-0.8327 0.6520 -0.1427 0.911 -0.094 -0.401 144 98 39 0 0
-0.8087 0.7121 -0.1444 -0.519 -0.743 0.422 193 165 66 0 0
-0.8086 0.7227 -0.1444 0.641 -0.761 -0.097 201 178 71 0 0
-0.8112 0.7432 -0.1442 0.982 0.180 0.066 214 198 103 0 0
-0.7941 0.7264 -0.1454 -0.002 -1.000 -0.028 216 201 108 0 0
-0.7800 0.7419 -0.1464 0.835 -0.541 0.100 189 168 78 0 0
-0.7779 0.7440 -0.1465 0.763 -0.612 0.208 196 174 81 0 0
-0.7763 0.7469 -0.1466 0.830 -0.533 0.164 200 176 80 0 0
-0.7756 0.7515 -0.1467 0.941 -0.336 0.047 198 172 77 0 0
-0.7390 0.8765 -0.1492 0.431 -0.902 -0.022 189 156 87 0 0
-0.7366 0.8785 -0.1494 -0.255 -0.958 0.133 191 162 112 0 0
-0.7352 0.8826 -0.1495 0.795 -0.606 0.021 193 170 134 0 0
-1.0117 1.7135 -0.1293 0.924 -0.114 0.365 194 176 151 0 0
-0.9229 1.7964 -0.1355 0.290 -0.324 0.900 197 179 159 0 0
-0.7920 1.8666 -0.1447 0.626 -0.308 0.716 183 164 145 0 0
-0.7816 1.8808 -0.1455 0.445 -0.278 0.851 187 170 152 0 0
-0.6646 2.0071 -0.1537 0.318 -0.326 0.890 200 186 170 0 0
-0.3764 2.2457 -0.1739 0.256 -0.304 0.918 188 175 164 0 0
-0.3726 2.2536 -0.1742 0.527 -0.292 0.798 188 175 163 0 0
-0.3253 2.2955 -0.1775 0.253 -0.273 0.928 190 177 168 0 0
-0.3209 2.2986 -0.1778 0.289 -0.239 0.927 188 176 167 0 0
-1.9087 0.8243 -0.0704 -0.007 -0.372 0.928 180 159 132 0 0
-1.9137 0.8599 -0.0700 0.894 0.330 0.302 187 168 140 0 0
-1.9061 0.8823 -0.0706 -0.028 -0.658 0.753 196 179 154 0 0
-1.8855 0.9339 -0.0721 0.512 -0.650 0.562 190 172 143 0 0
-1.8512 0.9413 -0.0745 0.438 -0.421 0.794 186 167 138 0 0
-1.8130 0.9602 -0.0772 0.383 -0.322 0.866 189 170 142 0 0
-1.8036 0.9574 -0.0778 0.391 -0.914 0.108 190 171 143 0 0
-1.7863 0.9734 -0.0791 -0.021 -0.863 0.505 180 157 128 0 0
-1.7861 0.9785 -0.0791 0.478 -0.595 0.646 185 165 136 0 0
-1.7446 1.0537 -0.0821 0.268 -0.056 0.962 197 178 154 0 0
-1.7376 1.0695 -0.0826 0.289 -0.115 0.951 191 170 143 0 0
-1.6054 1.1664 -0.0919 0.824 -0.183 0.536 185 160 130 0 0
-1.6030 1.1700 -0.0921 0.794 -0.055 0.605 179 154 126 0 0
-1.5652 1.2170 -0.0948 0.436 -0.235 0.869 194 171 140 0 0
-0.9873 0.6519 -0.1346 0.615 -0.768 -0.179 163 112 38 0 0
-0.9846 0.6530 -0.1348 0.828 -0.561 0.026 166 113 38 0 0
-0.9728 0.6613 -0.1357 0.022 -1.000 0.022 130 79 22 0 0
-0.9306 0.6628 -0.1386 0.604 -0.235 0.762 176 137 37 0 0
-0.8747 0.6778 -0.1426 -0.633 -0.759 0.155 110 75 26 0 0
-0.8664 0.6709 -0.1431 -0.312 -0.815 0.489 113 76 26 0 0
-0.8174 0.7149 -0.1466 -0.557 -0.752 0.354 162 129 46 0 0
-0.8109 0.7424 -0.1471 0.896 -0.442 0.046 214 199 102 0 0
-0.7977 0.7374 -0.1480 0.189 -0.365 0.912 215 200 106 0 0
-0.7848 0.7272 -0.1489 0.298 -0.926 0.231 217 201 110 0 0
-0.7851 0.7334 -0.1489 0.811 -0.501 0.300 215 201 108 0 0
-0.7800 0.7416 -0.1492 0.848 -0.504 0.164 199 176 82 0 0
-0.7781 0.7440 -0.1494 0.788 -0.566 0.243 202 178 81 0 0
-0.7767 0.7472 -0.1495 0.934 -0.287 0.213 200 176 79 0 0
-0.7765 0.7526 -0.1495 0.938 -0.343 0.054 197 168 69 0 0
-0.7747 0.7552 -0.1496 0.983 -0.097 -0.153 193 160 62 0 0
-0.7415 0.8743 -0.1521 0.818 -0.512 -0.262 192 156 75 0 0
-0.7373 0.8795 -0.1524 -0.520 -0.847 0.109 193 167 121 0 0
-0.8654 1.8462 -0.1444 0.609 -0.289 0.739 182 160 138 0 0
-0.7910 1.8627 -0.1496 0.792 -0.483 0.373 184 166 146 0 0
-0.7882 1.8695 -0.1498 0.868 -0.491 -0.081 183 165 145 0 0
-0.7854 1.8763 -0.1500 0.873 -0.434 -0.221 186 168 149 0 0
-0.7808 1.8774 -0.1503 0.946 -0.281 -0.162 187 168 150 0 0
-0.7819 1.8967 -0.1503 -0.019 -0.953 0.301 186 169 149 0 0
-0.7702 1.8909 -0.1511 0.022 -0.646 0.763 185 167 147 0 0
-0.7672 1.8971 -0.1513 0.530 -0.379 0.759 188 172 152 0 0
-0.7642 1.9035 -0.1515 0.753 -0.355 0.555 191 174 156 0 0
-0.7450 1.9221 -0.1529 0.805 -0.422 0.417 199 185 168 0 0
-0.7393 1.9364 -0.1533 0.859 -0.377 0.348 190 173 155 0 0
-0.7347 1.9375 -0.1536 0.085 -0.988 0.127 184 166 145 0 0
-0.6034 2.0571 -0.1629 0.055 -0.404 0.913 190 174 158 0 0
-0.5259 2.1286 -0.1684 0.632 -0.167 0.757 177 161 143 0 0
-0.3754 2.2373 -0.1790 0.578 -0.325 0.748 184 170 157 0 0
-0.3713 2.2419 -0.1793 0.527 -0.292 0.798 186 172 161 0 0
-0.3670 2.2455 -0.1796 0.536 -0.422 0.731 187 173 162 0 0
-0.3513 2.2722 -0.1808 0.189 -0.410 0.892 185 170 157 0 0
-0.3467 2.2738 -0.1811 0.263 -0.387 0.884 182 167 156 0 0
-0.3415 2.2695 -0.1815 0.241 -0.356 0.903 182 167 159 0 0
-0.3335 2.2827 -0.1820 0.115 -0.325 0.939 185 172 163 0 0
-0.3303 2.2969 -0.1823 0.014 -0.287 0.958 188 175 167 0 0
-0.3255 2.2957 -0.1826 -0.003 -0.273 0.962 188 175 166 0 0
-0.2599 2.3519 -0.1872 -0.436 -0.719 0.541 187 177 169 0 0
-0.2503 2.3485 -0.1879 0.085 -0.931 0.355 189 179 172 0 0
-0.2463 2.3576 -0.1882 0.607 -0.681 0.409 190 179 173 0 0
-0.2422 2.3652 -0.1885 0.476 -0.773 0.419 190 180 171 0 0
-0.2037 2.4219 -0.1912 0.263 -0.237 0.935 189 180 177 0 0
-1.8625 0.8865 -0.0778 0.960 0.174 0.221 182 162 133 0 0
