ply
format ascii 1.0
element vertex 826
property float x
property float y
property float z
property float nx
property float ny
property float nz
property uchar diffuse_red
property uchar diffuse_green
property uchar diffuse_blue
property uchar class
property uchar detection
end_header
-0.7557 0.8491 -0.1154 0.798 -0.166 0.580 173 132 42 0 0
-0.7556 0.8518 -0.1148 0.798 -0.166 0.580 139 102 35 0 0
-0.7584 0.8554 -0.1142 0.748 0.224 0.624 146 111 45 0 0
-1.4977 1.1825 -0.0880 0.388 -0.634 0.669 195 175 151 0 0
-1.4306 1.7013 0.0312 0.176 -0.241 0.954 196 182 169 0 0
-1.3651 1.8804 0.0750 0.676 -0.123 0.726 197 183 172 0 0
-1.3358 1.9698 0.0966 0.400 -0.621 0.674 182 163 149 0 0
-1.3672 2.1240 0.1288 0.218 -0.926 0.308 175 157 142 0 0
-1.3660 2.1284 0.1299 0.263 -0.725 0.636 175 156 142 0 0
-1.8332 -0.1205 -0.4019 0.748 -0.610 0.262 175 154 129 0 0
-1.8238 -0.0976 -0.3962 0.753 -0.379 0.539 184 164 143 0 0
-1.8214 -0.0937 -0.3952 0.405 -0.914 -0.028 182 162 139 0 0
-1.8201 -0.0900 -0.3943 0.376 -0.916 0.136 177 156 133 0 0
-1.8081 -0.0840 -0.3922 0.376 -0.926 0.030 174 153 129 0 0
-1.8148 0.0202 -0.3696 0.342 -0.111 0.933 184 164 142 0 0
-1.8134 0.0240 -0.3687 0.385 -0.443 0.810 187 169 147 0 0
-1.8114 0.0279 -0.3677 0.399 -0.420 0.815 191 173 152 0 0
-1.8031 0.0327 -0.3661 0.387 -0.790 0.475 190 173 149 0 0
-1.7953 0.0375 -0.3645 0.387 -0.790 0.475 185 167 145 0 0
-1.8132 0.0708 -0.3583 0.748 -0.526 0.405 183 164 142 0 0
-1.8094 0.0786 -0.3564 0.902 -0.431 -0.014 182 161 138 0 0
-1.8028 0.0940 -0.3525 0.862 -0.367 0.349 206 190 171 0 0
-1.8175 0.1214 -0.3474 0.293 -0.402 0.867 192 175 155 0 0
-1.8139 0.1255 -0.3463 0.354 -0.526 0.774 192 174 154 0 0
-1.8066 0.1374 -0.3432 0.419 -0.334 0.844 193 176 155 0 0
-1.8000 0.1455 -0.3410 0.425 -0.520 0.741 177 156 134 0 0
-1.7941 0.1905 -0.3306 0.397 -0.249 0.883 188 168 146 0 0
-1.8006 0.2086 -0.3270 0.214 -0.276 0.937 180 160 139 0 0
-1.7657 0.2637 -0.3126 0.464 0.284 0.839 187 167 143 0 0
-1.7700 0.2672 -0.3121 0.471 0.135 0.872 188 169 146 0 0
-1.6685 0.4166 -0.2726 0.201 -0.555 0.807 187 169 148 0 0
-0.8438 0.7603 -0.1434 0.121 -0.763 0.635 204 187 95 0 0
-0.8492 0.7645 -0.1428 0.920 -0.381 0.094 192 172 85 0 0
-0.8473 0.7668 -0.1422 0.701 -0.712 0.040 190 165 79 0 0
-0.8498 0.7702 -0.1416 0.855 -0.388 -0.343 195 170 84 0 0
-0.8427 0.7767 -0.1397 0.996 0.045 0.078 197 169 79 0 0
-0.8441 0.7799 -0.1391 0.965 0.259 0.041 197 170 78 0 0
-0.8139 0.8076 -0.1311 0.977 -0.022 -0.211 125 85 23 0 0
-0.7854 0.8265 -0.1250 0.814 -0.123 0.568 154 92 41 0 0
-0.7573 0.8448 -0.1192 0.920 -0.371 -0.128 181 138 49 0 0
-0.7553 0.8468 -0.1186 0.863 -0.504 0.038 178 136 47 0 0
-0.7546 0.8493 -0.1180 0.768 -0.315 0.557 164 123 52 0 0
-0.7542 0.8519 -0.1174 0.810 -0.171 0.561 127 97 39 0 0
-0.7540 0.8546 -0.1168 0.810 -0.171 0.561 148 115 51 0 0
-1.4877 1.1710 -0.0942 0.465 0.003 0.885 192 171 147 0 0
-1.4925 1.1772 -0.0931 0.379 -0.922 0.078 186 164 140 0 0
-1.4940 1.1821 -0.0921 0.531 -0.612 0.586 177 153 130 0 0
-1.4624 1.5903 0.0001 -0.035 -0.611 0.791 190 171 156 0 0
-1.4333 1.5971 0.0035 0.336 -0.298 0.893 190 172 158 0 0
-1.4356 1.6665 0.0187 0.799 0.138 0.586 180 159 142 0 0
-1.3467 2.0274 0.1042 0.448 0.101 0.888 190 174 160 0 0
-1.3529 2.0433 0.1073 0.508 0.282 0.814 187 169 155 0 0
-1.8277 -0.1188 -0.4052 0.615 -0.685 0.391 182 161 138 0 0
-1.8154 -0.1126 -0.4031 0.433 -0.690 0.580 181 161 140 0 0
-1.8120 -0.1050 -0.4012 0.701 -0.702 0.127 184 165 142 0 0
-1.8100 -0.1012 -0.4002 0.606 -0.209 0.768 184 164 143 0 0
-1.8164 -0.0956 -0.3994 0.320 -0.490 0.811 180 159 138 0 0
-1.8245 -0.0939 -0.3995 0.227 -0.653 0.722 177 155 134 0 0
-1.7847 -0.0753 -0.3928 0.294 -0.833 0.468 167 145 122 0 0
-1.7901 -0.0626 -0.3904 0.755 0.224 0.616 176 155 131 0 0
-1.7933 -0.0598 -0.3899 0.703 -0.552 0.449 171 150 126 0 0
-1.8265 -0.0347 -0.3866 0.381 -0.162 0.910 174 153 130 0 0
-1.8178 -0.0260 -0.3841 0.437 -0.803 0.406 174 153 129 0 0
-1.8142 -0.0219 -0.3830 0.589 -0.772 0.239 177 156 133 0 0
-1.8082 -0.0173 -0.3816 0.515 -0.844 0.152 179 158 135 0 0
-1.8090 0.0145 -0.3746 0.373 -0.256 0.892 184 165 143 0 0
-1.8047 0.0187 -0.3734 0.510 -0.139 0.849 182 161 139 0 0
-1.8077 0.0218 -0.3729 0.474 -0.153 0.867 178 158 134 0 0
-1.8038 0.0260 -0.3717 0.383 -0.651 0.656 181 162 140 0 0
-1.8007 0.0839 -0.3588 0.579 -0.420 0.699 179 158 137 0 0
-1.7989 0.1352 -0.3473 0.422 -0.065 0.904 180 159 137 0 0
-1.7988 0.1388 -0.3465 0.564 0.079 0.822 175 154 132 0 0
-1.7982 0.1426 -0.3457 0.588 0.341 0.733 173 152 129 0 0
-1.7919 0.1470 -0.3443 0.497 -0.438 0.749 172 151 128 0 0
-1.7883 0.1510 -0.3431 0.643 -0.444 0.624 176 154 131 0 0
-1.7859 0.1918 -0.3340 0.507 -0.370 0.778 189 171 151 0 0
-1.7853 0.1956 -0.3331 0.397 -0.249 0.883 186 167 147 0 0
-0.8950 0.6319 -0.1779 0.122 -0.762 -0.636 180 149 102 0 0
-0.8820 0.6487 -0.1733 0.613 -0.696 0.374 190 152 70 0 0
-0.8629 0.7158 -0.1573 0.834 -0.552 0.006 105 77 32 0 0
-0.8472 0.7813 -0.1418 0.878 0.473 -0.078 194 165 73 0 0
-0.8527 0.7856 -0.1412 0.341 -0.220 -0.914 192 163 68 0 0
-0.8424 0.7912 -0.1393 0.962 0.133 -0.240 190 157 59 0 0
-0.8144 0.8139 -0.1325 0.951 0.150 -0.269 124 73 26 0 0
-0.7527 0.8493 -0.1206 0.803 -0.264 0.534 147 110 53 0 0
-1.4822 1.1700 -0.0983 0.561 0.481 0.674 199 180 156 0 0
-1.4918 1.1779 -0.0971 0.899 -0.435 -0.050 202 183 162 0 0
-1.4919 1.1823 -0.0962 0.822 -0.212 0.528 197 178 155 0 0
-1.5159 1.2092 -0.0918 0.817 0.543 0.193 194 174 151 0 0
-1.4675 1.5655 -0.0101 0.446 0.099 0.890 179 161 145 0 0
-1.4226 1.5824 -0.0034 0.235 -0.547 0.804 196 180 166 0 0
-1.4189 1.5850 -0.0026 0.230 -0.503 0.833 192 176 162 0 0
-1.4251 1.5935 -0.0011 0.510 0.035 0.859 195 177 164 0 0
-1.4258 1.6567 0.0128 0.801 -0.038 0.597 182 163 148 0 0
-1.3976 1.8113 0.0487 0.551 0.085 0.830 194 177 167 0 0
-1.3235 1.9677 0.0881 0.437 -0.828 0.350 176 157 143 0 0
-1.3670 2.1107 0.1168 0.335 -0.371 0.866 182 164 150 0 0
-1.8175 -0.1161 -0.4080 0.412 -0.759 0.504 180 159 135 0 0
-1.8090 -0.1108 -0.4063 0.358 -0.841 0.406 178 158 135 0 0
-1.8151 -0.1087 -0.4062 0.351 -0.704 0.617 179 157 135 0 0
-1.8119 -0.1046 -0.4051 0.507 -0.515 0.691 180 159 138 0 0
-1.8112 -0.1010 -0.4043 0.436 -0.611 0.660 182 162 140 0 0
-1.8036 -0.0856 -0.4004 0.317 -0.687 0.654 164 141 119 0 0
-1.8015 -0.0817 -0.3994 0.380 -0.907 0.182 163 141 119 0 0
-1.7767 -0.0629 -0.3935 0.408 -0.329 0.852 174 153 129 0 0
-1.8079 -0.0448 -0.3917 0.697 -0.364 0.618 172 150 127 0 0
-1.8087 -0.0414 -0.3910 0.732 -0.252 0.633 173 151 127 0 0
-1.7995 -0.0187 -0.3854 0.753 -0.634 -0.176 172 151 126 0 0
-1.7957 -0.0145 -0.3842 0.756 -0.645 -0.111 174 152 128 0 0
-1.7919 -0.0103 -0.3830 0.674 -0.695 -0.250 157 135 111 0 0
-1.7997 0.0165 -0.3776 0.370 -0.227 0.901 181 160 138 0 0
-1.7967 0.0206 -0.3766 0.626 -0.048 0.778 176 154 131 0 0
-1.7783 0.0447 -0.3700 0.363 -0.505 0.783 186 168 148 0 0
-1.7780 0.0483 -0.3692 0.384 0.073 0.921 195 178 160 0 0
-1.7947 0.0781 -0.3638 0.353 -0.041 0.935 179 157 135 0 0
-1.7944 0.0853 -0.3622 0.558 -0.312 0.769 171 147 124 0 0
-1.7938 0.0962 -0.3597 0.732 -0.474 0.490 184 165 144 0 0
-1.7918 0.1001 -0.3587 0.643 -0.517 0.565 188 170 148 0 0
-1.7803 0.1088 -0.3560 0.557 -0.678 0.480 194 177 158 0 0
-1.7942 0.1436 -0.3493 0.588 0.341 0.733 162 140 118 0 0
-1.7862 0.1518 -0.3470 0.777 -0.456 0.434 170 149 126 0 0
-1.7849 0.1556 -0.3461 0.701 -0.529 0.478 178 158 135 0 0
-1.7758 0.1639 -0.3436 0.268 -0.825 0.498 184 163 142 0 0
-1.7723 0.1679 -0.3425 0.296 -0.409 0.863 187 167 144 0 0
-1.7778 0.1932 -0.3373 0.407 -0.302 0.862 194 177 157 0 0
-1.7756 0.1971 -0.3363 0.391 -0.441 0.808 192 175 155 0 0
-0.8881 0.6503 -0.1762 0.369 -0.899 0.235 190 153 69 0 0
-0.8730 0.6558 -0.1740 0.657 -0.132 0.742 190 153 64 0 0
-0.8729 0.6666 -0.1716 0.744 -0.005 0.668 177 136 46 0 0
-0.8734 0.6694 -0.1710 0.797 -0.431 0.424 163 122 37 0 0
-0.8711 0.6825 -0.1680 0.675 0.052 0.736 119 89 36 0 0
-0.8611 0.7298 -0.1569 0.495 0.432 0.754 93 69 28 0 0
-0.8456 0.7927 -0.1420 0.847 -0.440 0.300 189 152 49 0 0
-0.8477 0.7961 -0.1414 0.779 0.388 0.493 188 149 47 0 0
-0.8493 0.7994 -0.1408 0.927 0.326 0.187 188 147 43 0 0
-0.7600 0.8442 -0.1249 0.740 -0.562 -0.369 180 135 47 0 0
-0.7524 0.8498 -0.1231 0.842 -0.335 0.422 139 104 49 0 0
-0.7388 0.8560 -0.1208 0.342 -0.899 0.274 177 140 60 0 0
-1.4967 1.2515 -0.0855 0.454 -0.267 0.850 204 186 170 0 0
-1.4245 1.5800 -0.0084 0.180 -0.966 0.188 197 181 167 0 0
-1.4175 1.5806 -0.0078 0.746 -0.288 0.600 198 181 169 0 0
-1.4167 1.5849 -0.0068 0.746 -0.288 0.600 197 181 168 0 0
-1.4177 1.5903 -0.0057 0.717 0.220 0.662 196 180 167 0 0
-1.4214 1.6553 0.0083 0.897 -0.311 0.314 186 167 152 0 0
-1.4181 1.6580 0.0092 0.633 -0.189 0.750 191 174 158 0 0
-1.4019 1.6817 0.0155 0.324 -0.487 0.811 203 190 175 0 0
-1.3932 1.7200 0.0245 0.957 0.261 0.130 189 173 159 0 0
-1.3895 1.8068 0.0438 0.589 0.081 0.804 191 174 163 0 0
-1.3322 1.9559 0.0805 0.823 -0.526 0.213 187 169 157 0 0
-1.3111 1.9641 0.0837 0.340 -0.323 0.883 190 174 160 0 0
-1.3103 1.9685 0.0848 0.352 -0.273 0.896 190 174 160 0 0
-1.3504 2.1030 0.1116 0.504 -0.095 0.859 183 166 151 0 0
-1.8081 -0.1102 -0.4101 0.345 -0.892 0.291 177 155 132 0 0
-1.8089 -0.1069 -0.4095 0.362 -0.562 0.744 179 159 135 0 0
-1.8093 -0.1036 -0.4088 0.538 -0.676 0.503 181 160 139 0 0
-1.8040 -0.0990 -0.4074 0.419 -0.536 0.733 186 166 144 0 0
-1.8042 -0.0956 -0.4066 0.320 -0.489 0.811 192 171 151 0 0
-1.7902 -0.0789 -0.4020 0.329 -0.803 0.496 174 153 131 0 0
-1.7822 -0.0738 -0.4003 0.380 -0.907 0.182 175 154 133 0 0
-1.7681 -0.0675 -0.3980 0.405 -0.911 0.079 172 150 129 0 0
-1.8087 -0.0515 -0.3973 0.779 -0.604 0.168 170 149 124 0 0
-1.8058 -0.0474 -0.3962 0.779 -0.604 0.168 174 153 128 0 0
-1.8043 -0.0366 -0.3937 0.734 -0.282 0.618 183 164 140 0 0
-1.7960 -0.0176 -0.3890 0.834 -0.550 0.050 168 145 121 0 0
-1.7934 -0.0136 -0.3879 0.834 -0.550 0.050 167 145 120 0 0
-1.7925 -0.0100 -0.3871 0.721 -0.678 -0.145 167 145 121 0 0
-1.7902 0.0221 -0.3799 0.768 0.169 0.618 172 151 127 0 0
-1.7927 0.0253 -0.3793 0.664 0.259 0.701 165 143 118 0 0
-1.7932 0.0716 -0.3692 0.305 -0.478 0.823 174 154 130 0 0
-1.7844 0.0764 -0.3676 0.263 -0.142 0.954 178 158 134 0 0
-1.7866 0.0797 -0.3670 0.321 -0.037 0.946 177 155 131 0 0
-1.7858 0.1014 -0.3622 0.549 -0.637 0.541 184 163 141 0 0
-1.7770 0.1062 -0.3605 0.481 -0.806 0.346 188 168 146 0 0
-1.7680 0.1145 -0.3580 0.480 -0.823 0.304 191 172 150 0 0
-1.7331 0.1331 -0.3515 0.649 0.098 0.755 184 162 140 0 0
-1.7826 0.1564 -0.3499 0.390 -0.548 0.740 178 155 134 0 0
-1.7638 0.1657 -0.3465 0.252 -0.802 0.541 184 164 143 0 0
-1.7611 0.1696 -0.3455 0.322 -0.331 0.887 187 166 144 0 0
-1.7708 0.1944 -0.3407 0.385 -0.461 0.799 193 175 156 0 0
-1.7673 0.1984 -0.3396 0.391 -0.441 0.808 192 174 154 0 0
-1.7581 0.2324 -0.3315 0.799 0.602 -0.021 193 176 156 0 0
-1.7580 0.2361 -0.3307 0.980 0.134 0.148 198 182 161 0 0
-1.7577 0.2399 -0.3299 0.950 -0.108 -0.294 195 178 158 0 0
-1.7608 0.2434 -0.3293 0.951 -0.286 0.115 188 168 149 0 0
-1.7546 0.2512 -0.3272 0.465 -0.390 0.795 185 166 144 0 0
-1.7528 0.2551 -0.3262 0.470 -0.549 0.691 189 170 148 0 0
-1.7580 0.2585 -0.3258 0.291 -0.449 0.845 189 171 147 0 0
-1.7513 0.2701 -0.3228 0.229 -0.383 0.895 188 171 149 0 0
-0.8761 0.6434 -0.1797 0.062 -0.969 0.238 190 153 72 0 0
-0.8736 0.6700 -0.1737 0.818 -0.437 0.374 181 140 51 0 0
-0.8591 0.7134 -0.1632 0.673 -0.080 0.735 106 77 35 0 0
-0.8594 0.7162 -0.1626 0.725 -0.230 0.649 102 74 32 0 0
-0.8574 0.7295 -0.1595 0.354 0.007 0.935 102 78 36 0 0
-0.8481 0.7549 -0.1533 0.539 0.837 0.093 181 145 58 0 0
-0.8531 0.8010 -0.1435 0.822 0.352 -0.447 187 145 42 0 0
-0.8536 0.8040 -0.1429 0.749 -0.073 -0.659 186 142 40 0 0
-0.8240 0.8180 -0.1378 0.828 -0.428 -0.362 126 72 29 0 0
-0.7757 0.8863 -0.1194 0.672 0.688 -0.272 179 142 64 0 0
-1.4218 1.5796 -0.0127 0.137 -0.976 0.171 193 176 162 0 0
-1.4161 1.5811 -0.0120 0.569 -0.326 0.755 197 180 168 0 0
-1.4135 1.5842 -0.0111 0.682 -0.302 0.666 196 180 167 0 0
-1.4129 1.5887 -0.0101 0.671 -0.068 0.738 195 179 166 0 0
-1.4114 1.5925 -0.0091 0.816 -0.149 0.559 195 177 165 0 0
-1.3355 1.8234 0.0468 0.441 -0.247 0.863 192 178 165 0 0
-1.3040 1.9698 0.0811 0.269 -0.373 0.888 190 175 160 0 0
-1.2997 1.9713 0.0817 0.323 -0.280 0.904 190 174 159 0 0
-1.3204 1.9940 0.0853 0.538 -0.717 0.442 188 171 157 0 0
-1.3180 1.9971 0.0861 0.870 0.091 0.484 186 169 156 0 0
-1.3154 2.0001 0.0869 0.981 0.165 -0.103 187 170 156 0 0
-1.3411 2.0963 0.1062 0.422 -0.172 0.890 181 164 150 0 0
-1.8021 -0.1118 -0.4141 0.778 -0.628 0.013 167 144 122 0 0
-1.8118 -0.1071 -0.4138 0.333 -0.939 0.091 179 158 136 0 0
-1.8012 -0.1013 -0.4117 0.410 -0.902 0.135 180 159 138 0 0
-1.8043 -0.0986 -0.4114 0.433 -0.889 0.145 179 160 137 0 0
-1.7897 -0.0921 -0.4089 0.382 -0.774 0.506 186 168 144 0 0
-1.7855 -0.0775 -0.4054 0.414 -0.809 0.417 189 171 149 0 0
-1.7770 -0.0723 -0.4036 0.432 -0.901 0.042 179 159 136 0 0
-1.8105 -0.0548 -0.4022 0.754 -0.429 0.498 150 128 106 0 0
-1.8017 -0.0392 -0.3982 0.707 -0.239 0.666 181 162 138 0 0
-1.8001 -0.0354 -0.3972 0.793 -0.313 0.523 178 158 135 0 0
-1.8019 -0.0322 -0.3967 0.536 -0.418 0.733 174 153 129 0 0
-1.7882 -0.0122 -0.3913 0.646 -0.672 0.362 174 152 128 0 0
-1.7861 -0.0048 -0.3896 0.473 -0.877 -0.088 192 174 150 0 0
-1.7760 0.0004 -0.3877 0.473 -0.877 -0.088 175 155 133 0 0
-1.7751 0.0041 -0.3868 0.611 -0.772 -0.176 169 147 124 0 0
-1.7826 0.0063 -0.3869 0.365 -0.920 0.143 175 155 131 0 0
-1.7822 0.0737 -0.3721 0.305 -0.478 0.823 196 178 158 0 0
-1.7614 0.1958 -0.3439 0.270 -0.553 0.788 191 173 153 0 0
-1.7587 0.1997 -0.3429 0.293 -0.623 0.726 190 173 151 0 0
-1.7586 0.2367 -0.3348 0.761 0.221 0.610 185 166 145 0 0
-1.7578 0.2405 -0.3339 0.957 0.082 0.278 185 167 145 0 0
-1.7579 0.2442 -0.3331 0.877 -0.153 0.455 181 162 140 0 0
-1.7452 0.2525 -0.3304 0.332 -0.179 0.926 178 158 135 0 0
-0.8774 0.6469 -0.1818 0.751 -0.579 0.317 190 153 71 0 0
-0.8676 0.7048 -0.1684 0.249 -0.509 0.824 129 101 41 0 0
-0.8555 0.7104 -0.1663 0.421 -0.832 0.361 116 90 41 0 0
-0.8553 0.7131 -0.1657 0.954 -0.145 0.262 106 81 33 0 0
-0.8558 0.7160 -0.1652 0.922 -0.316 0.224 105 77 31 0 0
-0.8554 0.7186 -0.1645 0.780 -0.623 0.053 112 83 39 0 0
-0.8550 0.7600 -0.1555 0.570 0.821 0.027 185 146 53 0 0
-0.8338 0.7684 -0.1521 0.021 -0.610 0.792 188 149 53 0 0
-0.8261 0.7719 -0.1508 0.095 -0.415 0.905 189 151 54 0 0
-0.7584 0.8476 -0.1294 0.714 -0.653 -0.250 180 136 47 0 0
-1.4847 1.1958 -0.1055 0.383 -0.363 0.849 204 187 168 0 0
-1.4114 1.5795 -0.0163 0.584 -0.323 0.745 188 170 156 0 0
-1.4072 1.5817 -0.0155 0.692 -0.463 0.554 193 176 162 0 0
-1.3946 1.7039 0.0121 0.661 -0.430 0.615 177 156 142 0 0
-1.3263 1.8677 0.0528 0.455 -0.211 0.865 195 179 167 0 0
-1.7894 -0.1086 -0.4165 0.424 0.120 0.897 164 140 117 0 0
-1.7995 -0.1074 -0.4170 0.439 -0.854 0.278 169 147 122 0 0
-1.7899 -0.1019 -0.4151 0.378 -0.891 0.251 179 159 135 0 0
-1.7935 -0.0993 -0.4148 0.438 -0.744 0.504 178 158 135 0 0
-1.7870 -0.0944 -0.4132 0.342 -0.667 0.662 179 158 139 0 0
-1.7871 -0.0911 -0.4125 0.454 -0.513 0.728 182 162 141 0 0
-1.7896 -0.0813 -0.4106 0.566 -0.036 0.824 191 173 153 0 0
-1.7557 -0.0539 -0.4021 0.925 0.296 0.239 179 157 135 0 0
-1.8048 -0.0498 -0.4048 0.624 -0.447 0.641 143 120 98 0 0
-1.8028 -0.0459 -0.4038 0.563 -0.585 0.584 165 142 117 0 0
-1.7962 -0.0307 -0.4000 0.536 -0.418 0.733 168 147 123 0 0
-1.7888 -0.0188 -0.3969 0.614 -0.664 0.427 175 155 133 0 0
-1.7856 -0.0148 -0.3958 0.633 -0.643 0.431 178 159 136 0 0
-1.7529 0.2008 -0.3464 0.329 -0.617 0.715 190 171 150 0 0
-1.7423 0.2054 -0.3446 0.421 -0.456 0.784 190 172 151 0 0
-1.7484 0.2269 -0.3403 0.283 -0.295 0.913 174 154 130 0 0
-1.7391 0.2350 -0.3379 0.248 -0.123 0.961 173 152 129 0 0
-1.7416 0.2422 -0.3365 0.331 -0.172 0.928 178 158 136 0 0
-0.8919 0.6472 -0.1856 0.757 -0.651 -0.052 189 151 71 0 0
-0.8841 0.6486 -0.1847 0.805 -0.059 -0.591 190 152 72 0 0
-0.8907 0.6524 -0.1844 0.850 0.389 -0.354 191 153 70 0 0
-0.8645 0.6829 -0.1758 0.911 0.054 0.408 183 145 57 0 0
-0.8652 0.6912 -0.1740 0.974 0.226 -0.013 174 137 53 0 0
-0.8600 0.7065 -0.1703 0.338 -0.664 0.667 154 119 51 0 0
-0.8553 0.7164 -0.1678 0.987 -0.001 -0.160 124 92 36 0 0
-0.8527 0.7545 -0.1593 0.358 -0.084 -0.930 184 144 51 0 0
-0.8669 0.7692 -0.1572 -0.026 -0.813 0.582 185 145 52 0 0
-0.8192 0.8066 -0.1455 0.920 0.122 -0.372 156 107 25 0 0
-0.8193 0.8095 -0.1449 0.920 0.122 -0.372 143 92 31 0 0
-0.7586 0.8483 -0.1319 0.714 -0.653 -0.250 178 133 43 0 0
-1.4050 1.5912 -0.0176 0.833 -0.546 -0.092 202 188 175 0 0
-1.4180 1.6376 -0.0085 0.661 -0.321 0.679 187 169 154 0 0
-1.3760 1.6977 0.0077 0.691 -0.606 -0.393 176 156 141 0 0
-1.3585 1.7492 0.0202 0.750 -0.102 0.653 191 175 162 0 0
-1.3585 1.7541 0.0213 0.726 -0.110 0.678 192 176 162 0 0
-1.2775 1.9708 0.0745 0.413 -0.083 0.907 181 163 149 0 0
-1.2919 2.0451 0.0896 0.447 0.088 0.890 179 161 147 0 0
-1.8038 -0.1079 -0.4214 0.254 -0.888 0.382 177 156 133 0 0
-1.7963 -0.0442 -0.4070 0.529 -0.510 0.679 175 155 133 0 0
-1.7921 -0.0329 -0.4043 0.536 -0.418 0.733 192 174 153 0 0
-1.7864 -0.0249 -0.4021 0.468 -0.270 0.841 169 147 124 0 0
-1.7818 0.0285 -0.3901 0.181 -0.460 0.870 177 156 132 0 0
-1.7367 0.2395 -0.3409 0.362 -0.073 0.929 186 166 144 0 0
-1.7378 0.2431 -0.3402 0.374 -0.182 0.909 189 168 147 0 0
-0.8915 0.6476 -0.1883 0.812 -0.582 -0.049 190 150 70 0 0
-0.8882 0.6525 -0.1870 0.916 0.369 0.159 189 151 67 0 0
-0.8581 0.7067 -0.1729 0.529 -0.745 0.405 171 133 48 0 0
-0.8553 0.7088 -0.1723 0.438 -0.763 0.475 162 125 44 0 0
-0.8776 0.7499 -0.1650 -0.035 -0.891 -0.453 179 139 46 0 0
-0.7630 0.8449 -0.1357 0.723 -0.685 -0.093 182 137 45 0 0
-0.7578 0.8487 -0.1345 0.753 -0.624 -0.208 178 133 40 0 0
-0.7665 0.8599 -0.1327 0.649 -0.419 0.635 129 97 46 0 0
-1.4062 1.5932 -0.0217 0.530 -0.838 -0.132 195 180 166 0 0
-1.4073 1.6177 -0.0164 0.585 -0.029 0.810 197 181 167 0 0
-1.3718 1.7060 0.0055 0.135 -0.694 0.707 180 160 146 0 0
-1.3437 1.7255 0.0118 0.370 -0.860 0.351 178 159 144 0 0
-1.3402 1.7280 0.0126 0.898 -0.408 0.167 181 162 149 0 0
-1.3441 1.7356 0.0140 0.805 -0.199 0.560 180 162 147 0 0
-1.3410 1.7382 0.0148 0.765 -0.478 0.432 182 164 150 0 0
-1.3447 1.7457 0.0161 0.576 -0.452 0.681 186 169 156 0 0
-1.3442 1.8392 0.0365 0.681 -0.711 -0.176 189 171 159 0 0
-1.3183 1.8844 0.0483 0.815 0.072 0.575 183 165 152 0 0
-1.3170 1.8985 0.0515 0.428 -0.718 0.549 192 176 163 0 0
-1.2671 1.9633 0.0693 0.335 -0.087 0.938 187 169 155 0 0
-1.2796 2.0357 0.0841 0.470 0.098 0.877 183 165 151 0 0
-1.7896 -0.1043 -0.4236 0.257 -0.915 0.310 196 176 156 0 0
-1.7557 -0.0902 -0.4179 0.247 -0.834 0.494 196 180 161 0 0
-1.7540 -0.0527 -0.4097 0.873 -0.372 0.314 169 148 126 0 0
-1.7943 -0.0503 -0.4123 0.455 -0.378 0.806 188 169 145 0 0
-1.7859 -0.0382 -0.4090 0.481 -0.219 0.849 201 184 163 0 0
-1.7859 -0.0348 -0.4083 0.418 -0.017 0.908 179 161 140 0 0
-1.7854 -0.0312 -0.4074 0.529 -0.348 0.774 184 166 143 0 0
-1.7825 -0.0237 -0.4056 0.602 -0.167 0.780 177 156 133 0 0
-1.7427 0.0423 -0.3882 0.407 -0.419 0.812 176 154 131 0 0
-1.7615 0.0569 -0.3865 0.462 -0.106 0.880 174 153 130 0 0
-1.7629 0.0603 -0.3859 0.353 -0.388 0.851 174 152 131 0 0
-1.7567 0.0647 -0.3844 0.556 -0.422 0.716 178 159 136 0 0
-1.6962 0.1467 -0.3620 0.649 -0.139 0.748 181 161 137 0 0
-1.7362 0.1564 -0.3630 0.417 -0.432 0.799 185 165 141 0 0
-1.7415 0.1594 -0.3627 0.343 -0.671 0.657 187 167 142 0 0
-1.7359 0.1636 -0.3614 0.324 -0.710 0.626 186 168 144 0 0
-1.7455 0.2026 -0.3537 0.265 -0.543 0.797 184 166 145 0 0
-1.7208 0.2084 -0.3505 0.343 -0.226 0.912 185 167 145 0 0
-1.7263 0.2408 -0.3439 0.200 -0.332 0.922 183 164 142 0 0
-0.8535 0.6418 -0.1894 0.942 0.229 -0.247 190 150 68 0 0
-0.8901 0.6534 -0.1898 0.966 -0.053 -0.253 189 150 69 0 0
-0.8356 0.6704 -0.1819 0.772 -0.505 -0.386 190 153 63 0 0
-0.8549 0.7011 -0.1767 0.829 0.055 -0.557 187 147 55 0 0
-0.8557 0.7067 -0.1755 0.635 0.053 -0.771 185 146 56 0 0
-0.8630 0.7610 -0.1643 0.316 -0.832 0.457 184 144 48 0 0
-0.8589 0.7825 -0.1594 0.953 0.206 0.220 178 132 35 0 0
-0.8489 0.7826 -0.1586 0.839 0.522 0.156 180 134 36 0 0
-0.7602 0.8474 -0.1377 0.813 -0.537 -0.225 182 137 44 0 0
-0.7579 0.8493 -0.1371 0.753 -0.624 -0.208 179 135 43 0 0
-1.4119 1.5598 -0.0337 0.668 -0.382 0.639 185 167 151 0 0
-1.4059 1.5943 -0.0257 0.522 -0.831 -0.191 187 168 154 0 0
-1.3824 1.6370 -0.0147 0.330 0.038 0.943 197 182 169 0 0
-1.3728 1.6692 -0.0069 0.388 -0.501 0.774 178 159 144 0 0
-1.3399 1.7194 0.0065 0.906 -0.419 -0.065 169 150 135 0 0
-1.3345 1.7350 0.0103 0.796 -0.348 -0.495 173 154 140 0 0
-1.3130 1.8023 0.0265 0.469 -0.132 0.873 192 174 162 0 0
-1.2734 1.9047 0.0518 0.490 -0.167 0.855 189 171 157 0 0
-1.2991 1.9563 0.0610 0.499 -0.306 0.811 193 177 164 0 0
-1.2949 1.9579 0.0617 0.538 -0.697 0.474 193 177 162 0 0
-1.2729 1.9749 0.0670 0.512 -0.088 0.854 187 169 155 0 0
-1.7672 -0.0582 -0.4159 0.721 -0.627 -0.295 171 150 126 0 0
-1.7867 -0.0483 -0.4153 0.432 -0.416 0.800 189 170 148 0 0
-1.7835 -0.0094 -0.4067 0.514 -0.223 0.829 179 161 137 0 0
-1.7660 -0.0029 -0.4038 0.555 -0.809 0.196 174 153 129 0 0
-1.7508 0.0485 -0.3915 0.412 0.131 0.902 180 158 135 0 0
-1.7441 0.0636 -0.3877 0.406 -0.863 0.302 175 154 131 0 0
-1.7425 0.0673 -0.3868 0.657 -0.637 0.403 175 154 130 0 0
-1.7259 0.1581 -0.3659 0.549 -0.415 0.726 184 164 141 0 0
-1.7259 0.1616 -0.3651 0.494 -0.550 0.673 186 168 143 0 0
-1.7230 0.1655 -0.3640 0.466 -0.749 0.471 192 174 151 0 0
-1.7213 0.1693 -0.3631 0.303 -0.801 0.516 192 173 151 0 0
-1.7370 0.1713 -0.3639 0.642 -0.746 0.176 185 166 144 0 0
-1.7351 0.1751 -0.3629 0.777 -0.260 0.573 179 160 136 0 0
-1.7261 0.1796 -0.3612 0.647 -0.762 -0.026 179 158 134 0 0
-0.8882 0.6509 -0.1930 0.969 0.153 0.192 190 149 67 0 0
-0.8783 0.6600 -0.1902 0.512 -0.447 -0.733 191 153 63 0 0
-0.8362 0.6658 -0.1856 0.481 -0.873 -0.075 190 151 59 0 0
-0.8324 0.6677 -0.1849 0.615 -0.770 -0.171 189 152 58 0 0
-0.8264 0.6718 -0.1835 0.853 -0.516 0.082 192 153 59 0 0
-0.8161 0.6725 -0.1826 0.698 -0.566 0.439 192 153 59 0 0
-0.8171 0.6753 -0.1821 0.984 -0.179 0.011 190 153 57 0 0
-0.8580 0.7828 -0.1621 0.918 0.060 0.393 178 133 33 0 0
-0.7628 0.8461 -0.1408 0.740 -0.652 -0.169 181 138 44 0 0
-0.7605 0.8481 -0.1402 0.813 -0.537 -0.225 180 137 43 0 0
-0.7581 0.8500 -0.1396 0.846 -0.493 -0.201 177 135 40 0 0
-0.7796 0.8881 -0.1331 0.620 0.634 0.462 182 142 64 0 0
-1.4557 1.3661 -0.0834 0.861 0.415 0.294 185 165 150 0 0
-1.4099 1.5551 -0.0389 0.928 -0.209 -0.308 186 168 151 0 0
-1.3215 1.7903 0.0190 0.096 -0.774 0.625 194 179 166 0 0
-1.2871 1.9580 0.0579 0.335 -0.939 -0.072 184 167 152 0 0
-1.2705 1.9744 0.0628 0.671 0.104 0.734 183 165 150 0 0
-1.2735 1.9820 0.0642 0.647 0.139 0.750 186 168 154 0 0
-1.7606 -0.0667 -0.4212 0.692 -0.720 0.038 185 165 141 0 0
-1.7550 -0.0621 -0.4198 0.453 -0.883 0.121 185 165 141 0 0
-1.7511 -0.0580 -0.4186 0.698 -0.690 0.193 184 163 142 0 0
-1.7733 -0.0141 -0.4109 0.683 0.172 0.710 170 150 127 0 0
-1.7742 -0.0108 -0.4103 0.821 -0.185 0.540 168 146 123 0 0
-1.7722 -0.0069 -0.4093 0.679 -0.590 0.436 167 146 124 0 0
-1.7634 -0.0019 -0.4075 0.555 -0.809 0.196 165 142 119 0 0
-1.7640 0.0015 -0.4068 0.401 -0.678 0.616 164 142 119 0 0
-1.7544 0.0066 -0.4049 0.382 -0.718 0.581 169 147 124 0 0
-1.7484 0.0111 -0.4035 0.375 -0.551 0.745 175 153 133 0 0
-1.7418 0.0157 -0.4019 0.356 -0.870 0.340 178 158 136 0 0
-1.7144 0.0375 -0.3950 0.820 0.013 0.572 165 143 120 0 0
-1.7519 0.0594 -0.3933 0.374 -0.798 0.472 170 148 127 0 0
-1.7404 0.0646 -0.3913 0.344 -0.923 0.174 171 149 126 0 0
-1.7416 0.0680 -0.3907 0.359 -0.385 0.850 170 148 125 0 0
-1.7378 0.0720 -0.3895 0.323 -0.696 0.641 173 151 129 0 0
-1.7421 0.0820 -0.3877 0.668 -0.680 0.304 181 160 139 0 0
-1.7224 0.1554 -0.3702 0.598 -0.111 0.794 181 160 137 0 0
-1.7209 0.1592 -0.3693 0.607 -0.322 0.727 182 162 138 0 0
-1.7200 0.1628 -0.3684 0.494 -0.550 0.673 185 166 142 0 0
-1.7178 0.1666 -0.3674 0.466 -0.749 0.471 192 174 153 0 0
-1.7339 0.1721 -0.3676 0.647 -0.627 0.435 185 165 145 0 0
-1.7309 0.1761 -0.3665 0.647 -0.537 0.541 181 160 139 0 0
-0.8880 0.6514 -0.1957 0.987 0.108 0.118 189 148 63 0 0
-0.8834 0.6588 -0.1937 0.458 -0.811 0.364 191 152 62 0 0
-0.8773 0.6604 -0.1929 0.601 -0.701 0.383 192 153 61 0 0
-0.8362 0.6663 -0.1883 0.504 -0.828 -0.246 189 149 58 0 0
-0.8446 0.6706 -0.1880 0.873 -0.246 -0.421 189 149 56 0 0
-0.8427 0.6729 -0.1874 0.869 -0.225 -0.442 190 150 57 0 0
-0.8108 0.6798 -0.1833 0.953 -0.299 -0.043 189 151 59 0 0
-0.8503 0.7758 -0.1658 0.829 0.557 -0.049 176 128 34 0 0
-0.8569 0.7832 -0.1647 0.918 0.060 0.393 178 133 33 0 0
-0.8230 0.8102 -0.1562 0.786 -0.368 -0.497 127 66 40 0 0
-0.8216 0.8126 -0.1555 0.895 -0.227 -0.383 126 63 38 0 0
-0.7672 0.8400 -0.1452 0.817 -0.486 -0.312 120 72 29 0 0
-0.7628 0.8467 -0.1434 0.740 -0.652 -0.169 182 139 45 0 0
-0.7607 0.8488 -0.1428 0.813 -0.537 -0.225 180 138 43 0 0
-0.7584 0.8507 -0.1422 0.884 -0.395 -0.250 175 133 39 0 0
-1.4346 1.1942 -0.1230 0.794 0.475 0.379 203 184 166 0 0
-1.3776 1.5468 -0.0424 0.757 -0.401 0.516 188 169 154 0 0
-1.3771 1.6029 -0.0303 0.321 -0.232 0.918 203 188 176 0 0
-1.3612 1.6119 -0.0270 0.498 -0.776 0.388 193 177 164 0 0
-1.3697 1.6362 -0.0225 0.546 0.239 0.803 194 178 166 0 0
-1.3749 1.6492 -0.0201 0.420 0.136 0.897 186 168 154 0 0
-1.3404 1.7370 0.0016 0.793 0.103 -0.600 179 161 146 0 0
-1.2541 1.9617 0.0570 0.982 0.186 0.033 176 159 143 0 0
-1.2587 1.9707 0.0586 0.841 0.426 0.334 178 160 146 0 0
-1.2647 1.9810 0.0603 0.835 0.430 0.344 179 161 147 0 0
-1.2934 2.1481 0.0940 0.018 -0.553 0.833 177 159 145 0 0
-1.7699 -0.0130 -0.4144 0.683 0.172 0.710 196 179 158 0 0
-1.7706 -0.0097 -0.4138 0.785 -0.150 0.601 183 163 141 0 0
-1.7690 -0.0059 -0.4128 0.679 -0.590 0.436 171 149 128 0 0
-1.7607 -0.0009 -0.4111 0.555 -0.809 0.196 163 141 117 0 0
-1.7564 0.0033 -0.4098 0.413 -0.710 0.571 168 146 123 0 0
-1.7120 0.0383 -0.3986 0.745 -0.036 0.666 168 148 124 0 0
-1.7103 0.0420 -0.3977 0.685 -0.127 0.718 175 153 131 0 0
-1.7105 0.0454 -0.3969 0.685 -0.127 0.718 176 155 134 0 0
-1.7110 0.0488 -0.3963 0.664 -0.089 0.743 176 155 134 0 0
-1.7119 0.0521 -0.3956 0.643 -0.185 0.743 183 163 142 0 0
-1.7126 0.0554 -0.3950 0.681 0.185 0.709 190 173 153 0 0
-1.7345 0.0660 -0.3945 0.317 -0.930 0.187 167 145 124 0 0
-1.7327 0.0698 -0.3936 0.304 -0.440 0.845 169 147 125 0 0
-1.7289 0.0738 -0.3924 0.306 -0.726 0.616 173 151 128 0 0
-1.7306 0.0771 -0.3918 0.275 -0.585 0.763 175 154 131 0 0
-1.7083 0.1152 -0.3818 0.517 -0.752 0.410 185 165 144 0 0
-1.6998 0.1233 -0.3793 0.556 -0.755 0.348 189 172 150 0 0
-1.6937 0.1275 -0.3779 0.702 -0.602 0.380 182 162 140 0 0
-1.7115 0.1465 -0.3753 0.839 0.322 0.438 172 152 128 0 0
-1.7157 0.1496 -0.3750 0.796 0.153 0.585 176 154 131 0 0
-1.7158 0.1567 -0.3735 0.440 -0.338 0.832 178 157 134 0 0
-1.7137 0.1605 -0.3725 0.417 -0.470 0.778 180 160 136 0 0
-1.7109 0.1643 -0.3714 0.392 -0.434 0.811 186 167 143 0 0
-1.7132 0.2036 -0.3632 0.239 -0.499 0.833 175 153 130 0 0
-1.6861 0.2599 -0.3488 0.710 0.311 0.632 187 166 146 0 0
-1.6921 0.2632 -0.3486 0.554 -0.177 0.814 186 167 146 0 0
-1.6923 0.2668 -0.3479 0.608 0.012 0.794 187 168 146 0 0
-1.6930 0.2704 -0.3472 0.661 0.124 0.740 192 176 153 0 0
-0.9057 0.6467 -0.2010 0.767 0.458 -0.450 183 144 78 0 0
-0.8902 0.6524 -0.1985 0.895 0.397 -0.203 188 148 62 0 0
-0.8814 0.6590 -0.1963 0.449 -0.809 0.379 191 151 61 0 0
-0.8459 0.6713 -0.1907 0.982 -0.139 -0.124 189 149 54 0 0
-0.8437 0.6736 -0.1900 0.898 -0.404 -0.175 189 148 55 0 0
-0.8425 0.6760 -0.1894 0.898 -0.404 -0.175 188 148 54 0 0
-0.8408 0.6784 -0.1888 0.907 -0.324 -0.268 190 150 55 0 0
-0.8429 0.7550 -0.1725 0.707 -0.629 -0.324 180 136 35 0 0
-0.8518 0.7768 -0.1685 0.880 0.414 -0.233 176 128 32 0 0
-0.7922 0.7718 -0.1647 0.576 -0.213 0.789 178 130 28 0 0
-0.7656 0.8428 -0.1472 0.732 -0.592 -0.338 139 87 30 0 0
-0.7624 0.8473 -0.1460 0.767 -0.592 -0.249 184 141 48 0 0
-0.7609 0.8495 -0.1454 0.818 -0.480 -0.317 183 140 46 0 0
-1.3646 1.6342 -0.0268 0.850 0.469 -0.237 185 167 153 0 0
-1.3630 1.6428 -0.0248 0.651 0.375 0.659 182 163 148 0 0
-1.3105 1.7510 0.0028 0.666 -0.186 0.723 192 175 161 0 0
-1.3026 1.7501 0.0032 0.917 0.005 0.398 194 178 165 0 0
-1.2790 1.8491 0.0265 0.134 -0.406 0.904 195 179 167 0 0
-1.2789 1.8540 0.0275 0.445 -0.012 0.896 192 176 163 0 0
-1.2571 1.9708 0.0545 0.839 0.337 0.427 168 150 136 0 0
-1.2626 1.9807 0.0561 0.884 0.406 0.231 170 152 136 0 0
-1.2866 2.1379 0.0879 -0.059 -0.607 0.793 182 165 150 0 0
-1.2845 2.1413 0.0888 0.005 -0.617 0.787 180 162 147 0 0
-1.7149 -0.0764 -0.4274 0.661 -0.068 0.747 171 147 124 0 0
-1.7180 -0.0738 -0.4271 0.721 0.319 0.615 172 150 126 0 0
-1.7466 -0.0663 -0.4279 0.429 -0.502 0.751 187 168 146 0 0
-1.7237 -0.0515 -0.4228 0.211 -0.710 0.672 182 163 140 0 0
-1.7537 -0.0027 -0.4149 0.301 -0.626 0.720 181 163 140 0 0
-1.7153 0.0314 -0.4043 0.439 -0.618 0.651 182 161 137 0 0
-1.7114 0.0355 -0.4031 0.988 0.018 0.154 184 163 141 0 0
-1.7106 0.0390 -0.4023 0.814 -0.242 0.527 182 162 139 0 0
-1.7074 0.0430 -0.4012 0.935 -0.273 0.227 180 159 138 0 0
-1.7065 0.0466 -0.4004 0.935 -0.273 0.227 182 163 139 0 0
-1.7058 0.0501 -0.3995 0.879 -0.218 0.425 186 168 145 0 0
-1.7054 0.0536 -0.3988 0.813 -0.156 0.561 196 178 155 0 0
-1.7062 0.0707 -0.3952 0.384 -0.284 0.878 165 142 121 0 0
-1.7093 0.0807 -0.3933 0.272 -0.505 0.819 176 155 133 0 0
-1.7041 0.1162 -0.3852 0.598 -0.771 0.217 190 172 151 0 0
-1.6910 0.1249 -0.3823 0.787 -0.294 0.543 195 179 159 0 0
-1.7077 0.1439 -0.3796 0.412 0.016 0.911 172 151 127 0 0
-1.7092 0.1473 -0.3790 0.412 0.016 0.911 169 148 125 0 0
-1.7100 0.1508 -0.3783 0.445 -0.292 0.846 177 155 133 0 0
-1.7058 0.1619 -0.3756 0.409 -0.530 0.743 179 160 135 0 0
-1.7088 0.1865 -0.3706 0.268 -0.507 0.819 188 170 150 0 0
-1.6935 0.2382 -0.3582 0.896 0.031 0.443 176 154 133 0 0
-1.6852 0.2678 -0.3511 0.533 0.019 0.846 177 156 135 0 0
-0.9092 0.6479 -0.2039 0.707 0.523 -0.476 181 142 76 0 0
-0.8924 0.6533 -0.2013 0.833 -0.336 -0.440 189 149 64 0 0
-0.8874 0.6551 -0.2005 0.928 -0.350 0.126 190 150 62 0 0
-0.8863 0.6577 -0.1998 0.463 -0.882 0.088 188 148 59 0 0
-0.8745 0.6583 -0.1987 0.548 -0.779 0.304 189 148 59 0 0
-0.8723 0.6606 -0.1980 0.591 -0.805 0.062 189 148 56 0 0
-0.8692 0.6628 -0.1973 0.736 -0.674 -0.060 189 150 56 0 0
-0.8445 0.6636 -0.1950 0.908 0.166 -0.385 190 150 55 0 0
-0.8450 0.6664 -0.1945 0.964 0.084 -0.252 189 150 55 0 0
-0.8466 0.6694 -0.1940 0.982 -0.139 -0.124 190 151 55 0 0
-0.8461 0.6719 -0.1934 0.982 -0.139 -0.124 190 150 55 0 0
-0.8461 0.6746 -0.1928 0.699 -0.689 -0.194 189 149 51 0 0
-0.8437 0.6768 -0.1921 0.699 -0.689 -0.194 188 148 50 0 0
-0.8403 0.6788 -0.1914 0.891 -0.454 0.017 188 147 50 0 0
-0.8313 0.7119 -0.1836 0.821 -0.176 -0.543 187 143 45 0 0
-0.7662 0.8436 -0.1498 0.683 -0.699 -0.211 143 91 32 0 0
-0.7624 0.8479 -0.1486 0.722 -0.658 -0.213 186 142 51 0 0
-0.7612 0.8502 -0.1480 0.813 -0.537 -0.225 184 141 48 0 0
-1.3978 1.1480 -0.1381 0.360 -0.901 0.243 199 179 155 0 0
-1.4024 1.5310 -0.0565 0.527 -0.038 0.849 197 179 164 0 0
-1.3033 1.7375 -0.0038 0.422 -0.728 0.541 185 168 153 0 0
-1.2997 1.7493 -0.0009 0.950 0.014 0.312 189 172 157 0 0
-1.2929 1.7976 0.0100 0.862 -0.147 0.485 190 173 160 0 0
-1.2659 1.8402 0.0214 0.490 0.115 0.864 197 181 168 0 0
-1.2696 1.8925 0.0323 0.368 -0.165 0.915 186 168 155 0 0
-1.2534 1.9742 0.0512 0.826 -0.080 0.557 167 149 134 0 0
-1.2231 1.9678 0.0524 0.792 -0.128 -0.597 184 167 153 0 0
-1.2316 1.9803 0.0543 0.866 0.208 0.455 182 165 151 0 0
-1.2340 1.9875 0.0557 0.866 0.208 0.455 182 164 150 0 0
-1.7295 -0.0924 -0.4360 0.308 -0.939 0.153 188 168 144 0 0
-1.7437 -0.0922 -0.4372 0.345 -0.934 -0.096 186 165 141 0 0
-1.7194 -0.0836 -0.4332 0.345 -0.934 -0.096 184 163 140 0 0
-1.7299 -0.0624 -0.4296 0.337 -0.718 0.609 178 159 134 0 0
-1.7157 -0.0361 -0.4228 0.322 -0.369 0.872 186 165 144 0 0
-1.7191 -0.0300 -0.4218 0.342 -0.427 0.837 190 173 153 0 0
-1.7045 0.0337 -0.4069 0.597 -0.755 0.270 189 169 146 0 0
-1.7057 0.0369 -0.4063 0.788 -0.240 0.567 190 172 149 0 0
-1.7023 0.0443 -0.4044 0.902 -0.310 -0.301 191 172 150 0 0
-1.7038 0.0475 -0.4039 0.975 -0.129 0.181 187 169 147 0 0
-1.7045 0.0577 -0.4018 0.866 0.164 0.472 166 147 129 0 0
-1.7015 0.0650 -0.3999 0.774 -0.422 0.472 161 140 120 0 0
-1.7024 0.0683 -0.3993 0.597 -0.234 0.767 160 137 116 0 0
-1.6988 0.0758 -0.3974 0.365 -0.172 0.915 161 139 117 0 0
-1.7000 0.0790 -0.3968 0.303 -0.177 0.936 169 148 124 0 0
-1.6984 0.0827 -0.3959 0.300 -0.426 0.854 176 154 133 0 0
-1.6995 0.1173 -0.3886 0.512 -0.755 0.410 189 170 148 0 0
-1.6868 0.1294 -0.3849 0.729 -0.183 0.659 197 180 161 0 0
-1.6866 0.1329 -0.3842 0.700 -0.017 0.714 191 173 154 0 0
-1.7014 0.1523 -0.3813 0.341 -0.140 0.930 182 163 141 0 0
-1.7019 0.1557 -0.3806 0.341 -0.140 0.930 181 161 140 0 0
-1.6967 0.1634 -0.3785 0.342 -0.491 0.801 180 160 135 0 0
-1.6927 0.2065 -0.3690 0.301 -0.610 0.733 180 160 136 0 0
-1.6919 0.2102 -0.3681 0.275 -0.723 0.634 180 159 137 0 0
-1.6784 0.2652 -0.3552 0.555 0.039 0.831 168 146 124 0 0
-0.8726 0.6585 -0.2013 0.602 -0.769 -0.215 189 148 58 0 0
-0.8696 0.6607 -0.2006 0.559 -0.766 -0.318 190 147 59 0 0
-0.8400 0.6793 -0.1940 0.850 -0.524 -0.058 188 148 52 0 0
-0.8379 0.6816 -0.1933 0.809 -0.587 -0.013 188 147 50 0 0
-0.8313 0.7070 -0.1873 0.812 -0.460 -0.359 184 141 40 0 0
-0.8350 0.7105 -0.1869 0.767 -0.227 -0.601 185 141 43 0 0
-0.8301 0.7122 -0.1861 0.560 -0.536 -0.632 185 142 43 0 0
-0.7717 0.7835 -0.1658 0.856 0.446 -0.263 122 61 38 0 0
-0.8127 0.8090 -0.1639 0.429 -0.239 0.871 122 60 36 0 0
-0.7663 0.8443 -0.1524 0.683 -0.699 -0.211 148 97 33 0 0
-0.7626 0.8485 -0.1511 0.722 -0.658 -0.213 186 143 49 0 0
-0.7615 0.8509 -0.1505 0.813 -0.537 -0.225 184 141 51 0 0
-0.7636 0.8682 -0.1470 0.829 0.415 -0.374 176 136 53 0 0
-0.7614 0.8730 -0.1458 0.517 -0.697 -0.497 186 148 64 0 0
-1.3893 1.1416 -0.1428 0.813 -0.532 -0.236 201 181 158 0 0
-1.3898 1.1543 -0.1402 0.171 -0.576 0.799 192 170 148 0 0
-1.4026 1.1973 -0.1321 0.405 -0.328 0.853 198 178 158 0 0
-1.3571 1.5802 -0.0463 0.682 -0.701 0.211 198 181 169 0 0
-1.3042 1.7298 -0.0098 0.417 -0.306 0.856 192 175 160 0 0
-1.3032 1.7340 -0.0088 0.527 -0.041 0.849 189 171 157 0 0
-1.2962 1.7337 -0.0082 0.410 -0.428 0.806 186 168 154 0 0
-1.2703 1.8109 0.0105 0.779 -0.311 -0.545 184 166 152 0 0
-1.2675 1.8185 0.0124 0.494 -0.812 -0.312 192 176 163 0 0
-1.2625 1.8390 0.0172 0.776 0.337 0.533 195 179 166 0 0
-1.2751 1.8538 0.0193 0.770 -0.269 0.579 193 179 166 0 0
-1.2749 1.8636 0.0213 0.620 -0.031 0.784 190 174 161 0 0
-1.2557 1.9676 0.0452 0.914 -0.328 -0.238 173 154 139 0 0
-1.2552 1.9721 0.0463 0.835 -0.541 0.102 167 148 134 0 0
-1.2501 1.9728 0.0468 0.729 -0.394 0.559 167 148 133 0 0
-1.7260 -0.0879 -0.4387 0.376 -0.822 0.427 182 161 138 0 0
-1.7155 -0.0823 -0.4366 0.743 0.594 0.308 183 162 139 0 0
-1.7112 -0.0548 -0.4303 0.256 -0.911 0.323 178 157 133 0 0
-1.6900 -0.0472 -0.4268 0.259 -0.890 0.374 181 161 137 0 0
-1.7113 -0.0314 -0.4253 0.446 -0.212 0.869 188 168 146 0 0
-1.7052 -0.0269 -0.4238 0.458 -0.370 0.808 187 167 146 0 0
-1.6942 -0.0214 -0.4217 0.239 -0.697 0.676 188 167 146 0 0
-1.7381 -0.0024 -0.4215 0.285 -0.619 0.732 192 173 152 0 0
-1.7314 0.0022 -0.4200 0.301 -0.626 0.720 192 175 154 0 0
-1.7131 0.0157 -0.4155 0.304 -0.522 0.797 193 175 155 0 0
-1.7072 0.0269 -0.4126 0.428 -0.687 0.587 202 187 165 0 0
-1.6973 0.0456 -0.4077 0.799 0.209 0.563 193 176 154 0 0
-1.7025 0.0585 -0.4054 0.811 0.299 0.503 144 123 104 0 0
-1.7007 0.0656 -0.4037 0.900 -0.344 0.269 154 131 111 0 0
-1.6982 0.0695 -0.4027 0.685 -0.599 0.414 157 135 115 0 0
-1.6975 0.0730 -0.4019 0.648 -0.685 0.333 159 135 117 0 0
-1.6923 0.0772 -0.4005 0.599 -0.598 0.532 161 138 121 0 0
-1.6906 0.0809 -0.3996 0.538 -0.597 0.595 167 146 123 0 0
-1.6876 0.0848 -0.3985 0.503 -0.652 0.567 176 155 132 0 0
-1.6838 0.0888 -0.3973 0.503 -0.652 0.567 177 156 133 0 0
-1.6836 0.1234 -0.3899 0.648 -0.104 0.754 180 159 138 0 0
-1.6839 0.1268 -0.3892 0.723 -0.120 0.680 178 156 132 0 0
-1.6843 0.1302 -0.3885 0.836 -0.232 0.497 179 158 135 0 0
-1.6838 0.1338 -0.3877 0.836 -0.232 0.497 182 162 139 0 0
-1.6950 0.1535 -0.3845 0.387 -0.092 0.917 185 165 143 0 0
-1.6877 0.1897 -0.3761 0.207 -0.194 0.959 187 169 148 0 0
-1.6504 0.3766 -0.3330 0.618 -0.783 0.074 185 164 143 0 0
-1.6482 0.3803 -0.3320 0.583 -0.751 0.310 188 167 147 0 0
-1.6489 0.3840 -0.3313 0.828 -0.560 0.025 189 169 150 0 0
-0.8677 0.6609 -0.2031 0.965 0.190 0.181 188 144 57 0 0
-0.8390 0.6797 -0.1966 0.893 -0.364 0.266 189 147 50 0 0
-0.8375 0.6821 -0.1960 0.702 -0.707 0.088 188 146 49 0 0
-0.8422 0.7018 -0.1922 0.983 -0.179 0.040 184 141 42 0 0
-0.8364 0.7114 -0.1896 0.782 -0.278 -0.558 186 143 42 0 0
-0.8552 0.7376 -0.1857 0.149 -0.950 -0.274 183 139 40 0 0
-0.8474 0.7440 -0.1836 0.999 -0.019 0.050 179 134 30 0 0
-0.7750 0.7689 -0.1719 0.794 -0.579 0.187 137 80 43 0 0
-0.7706 0.7730 -0.1707 0.691 -0.691 -0.212 127 69 41 0 0
-0.8168 0.8109 -0.1667 0.474 -0.626 0.619 122 60 37 0 0
-0.8080 0.8166 -0.1647 0.352 -0.806 0.477 122 59 35 0 0
-0.8024 0.8205 -0.1634 0.411 -0.743 0.528 110 53 27 0 0
-0.7982 0.8220 -0.1627 0.391 -0.798 0.459 99 50 24 0 0
-0.7628 0.8520 -0.1531 0.864 -0.502 -0.033 186 143 51 0 0
-0.7609 0.8541 -0.1525 0.989 0.126 -0.077 186 142 50 0 0
-0.7611 0.8569 -0.1519 0.990 0.122 -0.067 182 139 49 0 0
-0.7617 0.8599 -0.1514 0.976 0.210 -0.052 172 130 46 0 0
-0.7617 0.8627 -0.1508 0.979 0.035 -0.203 168 128 45 0 0
-0.7651 0.8694 -0.1496 0.907 0.417 0.055 183 143 55 0 0
-0.7727 0.8861 -0.1468 0.947 -0.214 0.239 184 143 61 0 0
-1.3833 1.1403 -0.1466 0.457 -0.573 -0.680 197 175 151 0 0
-1.3882 1.1463 -0.1458 0.575 0.273 0.771 192 169 145 0 0
-1.3853 1.1494 -0.1449 0.265 -0.556 0.788 196 174 151 0 0
-1.2998 1.7281 -0.0140 0.401 -0.179 0.898 196 180 167 0 0
-1.2964 1.7304 -0.0132 0.393 -0.190 0.900 195 179 164 0 0
-1.2701 1.7735 -0.0017 0.514 -0.502 0.695 177 159 145 0 0
-1.2691 1.8505 0.0148 0.996 -0.082 0.035 186 170 158 0 0
-1.2659 1.8529 0.0156 0.990 0.130 -0.054 186 169 157 0 0
-1.2693 1.8605 0.0169 0.987 -0.145 -0.071 185 168 154 0 0
-1.2170 1.9060 0.0312 0.643 -0.565 0.516 186 168 155 0 0
-1.2336 1.9399 0.0370 0.706 0.456 0.542 178 159 145 0 0
-1.2542 1.9728 0.0422 0.835 -0.541 0.102 178 159 144 0 0
-1.6865 -0.0493 -0.4309 0.174 -0.524 0.834 177 155 131 0 0
-1.6802 -0.0448 -0.4293 0.201 -0.600 0.774 177 155 131 0 0
-1.6724 -0.0399 -0.4276 0.201 -0.600 0.774 179 158 135 0 0
-1.6793 -0.0181 -0.4236 0.239 -0.697 0.676 190 172 151 0 0
-1.7205 0.0046 -0.4225 0.301 -0.626 0.720 207 191 174 0 0
-1.7204 0.0080 -0.4217 0.226 -0.619 0.752 207 193 175 0 0
-1.7001 0.0662 -0.4075 0.981 -0.134 0.141 171 150 126 0 0
-1.6948 0.0705 -0.4061 0.562 -0.579 0.590 178 157 134 0 0
-1.6913 0.0744 -0.4050 0.517 -0.619 0.591 181 159 137 0 0
-1.6856 0.0821 -0.4028 0.517 -0.579 0.631 184 164 140 0 0
-1.6826 0.0860 -0.4017 0.517 -0.579 0.631 181 160 138 0 0
-1.6842 0.0961 -0.3997 0.425 -0.523 0.739 172 150 127 0 0
-1.6812 0.1000 -0.3987 0.456 -0.584 0.672 176 155 132 0 0
-1.6890 0.1653 -0.3855 0.578 -0.650 0.494 174 152 130 0 0
-1.6857 0.1692 -0.3843 0.584 -0.734 0.348 174 152 130 0 0
-1.5703 0.3712 -0.3310 0.814 -0.406 0.415 183 162 141 0 0
-0.8333 0.6579 -0.2035 0.816 -0.122 -0.565 186 143 51 0 0
-0.8381 0.6801 -0.1992 0.893 -0.364 0.266 187 142 48 0 0
-0.8373 0.6826 -0.1986 0.836 -0.463 0.295 185 142 41 0 0
-0.8360 0.6850 -0.1980 0.669 -0.721 0.179 185 141 41 0 0
-0.8334 0.6871 -0.1973 0.816 -0.401 -0.415 187 143 47 0 0
-0.8329 0.6897 -0.1967 0.962 -0.210 -0.176 187 144 42 0 0
-0.8337 0.7060 -0.1933 0.989 0.127 0.071 187 143 43 0 0
-0.8324 0.7138 -0.1915 0.708 -0.572 -0.414 187 143 41 0 0
-0.8495 0.7451 -0.1864 0.831 0.449 -0.329 182 135 34 0 0
-0.7625 0.8525 -0.1557 0.864 -0.502 -0.033 188 143 53 0 0
-0.7608 0.8575 -0.1545 0.922 -0.238 0.305 185 143 52 0 0
-0.7606 0.8601 -0.1539 0.941 -0.137 0.310 184 142 51 0 0
-0.7604 0.8628 -0.1533 0.941 -0.137 0.310 182 140 53 0 0
-0.7618 0.8661 -0.1528 0.916 0.126 0.381 186 144 59 0 0
-0.7546 0.8746 -0.1503 0.757 -0.619 0.211 185 144 62 0 0
-0.7770 0.8940 -0.1482 0.652 0.612 -0.447 181 141 64 0 0
-1.3893 1.1436 -0.1505 0.366 -0.837 -0.408 192 169 144 0 0
-1.3790 1.1479 -0.1487 0.710 -0.218 0.670 204 184 161 0 0
-1.3741 1.1502 -0.1478 0.546 -0.444 0.710 203 185 164 0 0
-1.3726 1.1538 -0.1469 0.453 -0.382 0.806 202 184 164 0 0
-1.3811 1.1906 -0.1398 0.303 -0.731 0.611 208 190 171 0 0
-1.3515 1.4870 -0.0742 0.121 -0.800 0.588 189 168 151 0 0
-1.3481 1.4896 -0.0733 0.160 -0.741 0.652 185 164 145 0 0
-1.2503 1.7886 -0.0009 0.476 -0.756 0.449 179 161 147 0 0
-1.2234 1.8932 0.0237 0.315 -0.582 0.750 184 166 152 0 0
-1.2443 1.9556 0.0351 0.856 -0.017 0.517 181 162 147 0 0
-1.2445 1.9658 0.0372 0.534 -0.162 0.830 181 163 148 0 0
-1.2371 1.9645 0.0376 0.368 -0.331 0.869 183 165 150 0 0
-1.2325 1.9655 0.0383 0.147 -0.485 0.862 184 165 151 0 0
-1.2189 1.9837 0.0433 0.507 0.071 0.859 188 170 156 0 0
-1.7191 -0.0756 -0.4433 0.913 0.138 -0.385 182 161 139 0 0
-1.7177 -0.0719 -0.4424 0.714 -0.636 0.294 182 162 142 0 0
-1.7189 -0.0688 -0.4419 0.225 -0.732 0.643 183 163 141 0 0
-1.6940 -0.0238 -0.4300 0.840 -0.382 0.386 192 174 154 0 0
-1.7145 -0.0007 -0.4270 0.267 -0.511 0.817 183 163 139 0 0
-1.7134 0.0029 -0.4261 0.323 -0.676 0.663 191 173 149 0 0
-1.7079 0.0073 -0.4247 0.338 -0.641 0.689 197 180 161 0 0
-1.6953 0.0197 -0.4209 0.302 -0.349 0.887 202 187 165 0 0
-1.6871 0.0687 -0.4098 0.514 -0.601 0.612 180 158 137 0 0
-1.6851 0.0724 -0.4088 0.378 -0.533 0.757 186 167 143 0 0
-1.6830 0.0761 -0.4078 0.371 -0.527 0.764 188 169 146 0 0
-1.6688 0.0919 -0.4032 0.398 -0.479 0.783 174 152 129 0 0
-1.6762 0.0977 -0.4026 0.443 -0.471 0.763 168 146 122 0 0
-0.8378 0.6805 -0.2018 0.899 -0.403 0.172 187 142 44 0 0
-0.8367 0.6830 -0.2012 0.865 -0.402 0.299 184 140 42 0 0
-0.8357 0.6855 -0.2006 0.865 -0.402 0.299 185 141 45 0 0
-0.8352 0.6934 -0.1989 0.819 -0.161 -0.550 186 142 45 0 0
-0.8342 0.6959 -0.1982 0.799 0.110 -0.592 187 143 44 0 0
-0.8300 0.7004 -0.1969 0.454 -0.531 -0.715 188 144 44 0 0
-0.8321 0.7062 -0.1959 0.992 -0.039 -0.118 186 143 43 0 0
-0.8324 0.7090 -0.1953 0.997 0.078 -0.011 187 144 42 0 0
-0.8506 0.7460 -0.1891 0.707 0.418 -0.570 185 140 38 0 0
-0.8524 0.7520 -0.1880 0.965 0.149 -0.216 182 134 34 0 0
-0.8528 0.7549 -0.1875 0.928 -0.169 0.331 182 135 34 0 0
-0.7619 0.8530 -0.1583 0.901 -0.425 -0.083 186 142 52 0 0
-0.7613 0.8583 -0.1571 0.949 0.229 0.219 186 143 52 0 0
-0.7620 0.8613 -0.1565 0.937 0.248 0.246 187 144 52 0 0
-0.7630 0.8644 -0.1560 0.958 0.228 0.176 186 145 57 0 0
-0.7579 0.8765 -0.1530 0.873 0.375 0.312 186 145 62 0 0
-0.7713 0.8869 -0.1520 0.967 0.247 0.056 180 138 56 0 0
-1.3773 1.1441 -0.1534 0.616 0.056 0.786 191 167 141 0 0
-1.3728 1.1465 -0.1525 0.636 -0.613 0.470 196 174 151 0 0
-1.3596 1.4339 -0.0904 0.398 0.019 0.917 196 179 165 0 0
-1.3416 1.4465 -0.0860 0.799 -0.461 -0.386 193 176 160 0 0
-1.3503 1.4558 -0.0849 0.646 -0.475 0.598 188 168 153 0 0
-1.3199 1.5702 -0.0578 0.203 -0.549 0.811 185 165 151 0 0
-1.2664 1.7591 -0.0129 0.397 0.103 0.912 178 159 145 0 0
-1.2540 1.7737 -0.0086 0.444 -0.608 0.658 187 169 155 0 0
-1.2406 1.9590 0.0318 0.420 -0.530 0.736 182 164 149 0 0
-1.2385 1.9622 0.0327 0.477 -0.448 0.756 182 164 150 0 0
-1.2346 1.9638 0.0334 0.572 -0.299 0.764 183 165 152 0 0
-1.2156 1.9772 0.0380 0.601 0.094 0.794 182 165 149 0 0
-1.7100 -0.0864 -0.4487 0.518 0.230 0.824 196 180 158 0 0
-1.7077 -0.0826 -0.4476 0.695 0.612 0.377 199 184 166 0 0
-1.7057 -0.0690 -0.4446 0.388 -0.899 0.202 180 161 139 0 0
-1.7012 -0.0647 -0.4433 0.222 -0.761 0.609 187 168 147 0 0
-1.6922 -0.0595 -0.4413 0.193 -0.759 0.621 188 169 148 0 0
-1.6866 -0.0220 -0.4328 0.487 -0.394 0.779 186 166 147 0 0
-1.7033 -0.0016 -0.4301 0.414 -0.511 0.753 164 143 119 0 0
-1.6989 0.0094 -0.4274 0.435 -0.756 0.488 180 160 137 0 0
-1.6929 0.0138 -0.4259 0.470 -0.620 0.628 193 175 153 0 0
-1.6880 0.0180 -0.4245 0.439 -0.369 0.819 201 185 165 0 0
-1.6588 0.0972 -0.4051 0.345 -0.644 0.683 168 143 123 0 0
-1.6406 0.1924 -0.3833 0.687 -0.705 0.178 184 164 143 0 0
-1.6380 0.1961 -0.3822 0.798 -0.432 0.420 187 169 149 0 0
-1.6355 0.1998 -0.3812 0.831 -0.079 0.551 188 170 152 0 0
-1.6355 0.2033 -0.3805 0.688 0.086 0.721 190 172 153 0 0
-1.6353 0.2068 -0.3797 0.412 0.278 0.868 193 176 157 0 0
-1.6568 0.2154 -0.3799 0.427 -0.609 0.669 187 167 146 0 0
-1.6432 0.2201 -0.3776 0.450 -0.103 0.887 181 160 139 0 0
-1.6401 0.2380 -0.3736 0.495 -0.118 0.861 181 161 140 0 0
-0.8538 0.7474 -0.1920 0.720 0.470 -0.510 185 135 36 0 0
-0.8528 0.7527 -0.1908 0.872 0.117 -0.475 183 131 35 0 0
-0.7931 0.8167 -0.1716 0.310 -0.895 0.322 106 56 32 0 0
-0.7618 0.8536 -0.1609 0.901 -0.425 -0.083 185 140 50 0 0
-0.7571 0.8741 -0.1561 0.900 0.421 0.111 187 147 61 0 0
-1.3790 1.1416 -0.1581 0.117 -0.618 0.777 189 161 134 0 0
-1.3368 1.4450 -0.0901 0.831 -0.542 -0.126 192 173 157 0 0
-1.3437 1.4533 -0.0890 0.870 -0.232 0.436 183 163 147 0 0
-1.3327 1.4697 -0.0845 0.187 -0.450 0.873 179 158 141 0 0
-1.2758 1.7196 -0.0263 0.492 -0.446 0.747 194 179 166 0 0
-1.1972 1.9425 0.0282 0.457 -0.253 0.853 180 162 148 0 0
-1.7038 -0.0847 -0.4516 0.527 0.281 0.802 189 170 149 0 0
-1.7062 -0.0819 -0.4513 0.702 0.601 0.382 194 176 157 0 0
-1.7005 -0.0674 -0.4477 0.388 -0.899 0.202 180 161 137 0 0
-1.6832 -0.0605 -0.4446 0.222 -0.761 0.609 186 168 145 0 0
-1.6693 -0.0544 -0.4419 0.222 -0.761 0.609 185 167 143 0 0
-1.6555 -0.0482 -0.4393 0.222 -0.761 0.609 186 167 145 0 0
-1.6760 -0.0360 -0.4387 0.249 -0.042 0.968 183 164 142 0 0
-1.6484 -0.0175 -0.4321 0.784 0.553 0.283 181 162 139 0 0
-1.6579 -0.0160 -0.4328 0.502 -0.638 0.583 183 162 140 0 0
-1.6518 -0.0116 -0.4312 0.300 -0.809 0.507 183 161 141 0 0
-1.6747 -0.0126 -0.4336 0.142 0.415 0.899 184 164 143 0 0
-1.7014 0.0026 -0.4330 0.522 -0.779 0.348 166 144 120 0 0
-1.6952 0.0105 -0.4308 0.465 -0.787 0.405 169 147 123 0 0
-1.6890 0.0149 -0.4292 0.531 -0.765 0.365 178 157 135 0 0
-1.6815 0.0196 -0.4275 0.547 -0.710 0.444 188 168 150 0 0
-1.6730 0.0278 -0.4250 0.547 -0.710 0.444 187 168 145 0 0
-1.6548 0.0949 -0.4091 0.341 -0.550 0.762 175 153 132 0 0
-1.6503 0.0989 -0.4078 0.345 -0.644 0.683 168 145 125 0 0
-1.6645 0.1347 -0.4016 0.538 -0.401 0.741 186 166 146 0 0
-1.6631 0.1384 -0.4007 0.538 -0.401 0.741 189 168 147 0 0
-1.6348 0.1935 -0.3864 0.568 -0.679 0.465 176 155 135 0 0
-1.6344 0.2319 -0.3783 0.496 -0.003 0.868 180 159 138 0 0
-1.6345 0.2355 -0.3775 0.490 -0.341 0.802 176 153 131 0 0
-0.8156 0.7091 -0.1992 0.838 -0.535 0.112 185 139 38 0 0
-0.8601 0.7383 -0.1973 0.897 -0.399 -0.192 180 120 33 0 0
-0.7959 0.8154 -0.1749 0.243 -0.967 0.073 135 74 43 0 0
-0.7855 0.8288 -0.1711 0.814 0.047 0.580 77 49 25 0 0
-0.7618 0.8542 -0.1635 0.901 -0.425 -0.083 184 140 46 0 0
-0.7671 0.8839 -0.1577 0.855 0.495 0.156 180 139 55 0 0
-1.3291 1.3497 -0.1136 0.681 -0.527 0.510 199 181 167 0 0
-1.3080 1.6488 -0.0485 0.314 -0.074 0.947 201 187 173 0 0
-1.2787 1.6524 -0.0450 0.759 0.518 0.394 191 174 158 0 0
-1.2456 1.7557 -0.0200 0.573 -0.377 0.728 175 157 142 0 0
-1.2445 1.7596 -0.0191 0.418 -0.745 0.520 176 157 143 0 0
-1.1845 1.9822 0.0335 0.783 0.478 0.399 179 161 147 0 0
-1.6832 -0.0634 -0.4490 0.224 -0.718 0.659 175 154 131 0 0
-1.6656 -0.0564 -0.4458 0.222 -0.761 0.609 181 161 138 0 0
-1.6518 -0.0503 -0.4432 0.222 -0.761 0.609 179 160 137 0 0
-1.6662 -0.0336 -0.4411 0.249 -0.042 0.968 187 167 145 0 0
-1.6535 -0.0147 -0.4359 0.494 -0.702 0.513 184 164 140 0 0
-1.6949 0.0042 -0.4360 0.583 -0.792 0.182 171 149 127 0 0
-1.6907 0.0117 -0.4340 0.465 -0.863 0.199 178 156 132 0 0
-1.6840 0.0163 -0.4324 0.465 -0.787 0.405 191 174 153 0 0
-1.6358 0.0478 -0.4210 0.389 -0.802 0.454 180 159 137 0 0
-1.6719 0.0656 -0.4208 0.227 -0.147 0.963 180 158 137 0 0
-1.6595 0.0777 -0.4171 0.494 -0.567 0.659 187 169 147 0 0
-1.6587 0.1360 -0.4048 0.599 -0.501 0.625 177 156 136 0 0
-1.6566 0.1397 -0.4038 0.599 -0.501 0.625 184 163 143 0 0
-1.6300 0.1945 -0.3897 0.551 -0.527 0.647 185 166 146 0 0
-1.6202 0.2023 -0.3871 0.408 -0.232 0.883 185 165 145 0 0
-1.6286 0.2365 -0.3807 0.490 -0.341 0.802 187 167 147 0 0
-0.8356 0.6684 -0.2124 0.432 -0.722 -0.540 185 128 40 0 0
-0.8361 0.6765 -0.2108 0.503 -0.704 -0.502 186 136 41 0 0
-0.8587 0.7386 -0.2000 0.965 -0.015 0.262 173 93 29 0 0
-0.7906 0.8506 -0.1698 0.966 -0.183 0.182 133 89 35 0 0
-0.7652 0.8754 -0.1621 0.980 0.011 0.198 183 138 53 0 0
