ply
format ascii 1.0
element vertex 823
property float x
property float y
property float z
property float nx
property float ny
property float nz
property uchar diffuse_red
property uchar diffuse_green
property uchar diffuse_blue
property uchar class
property uchar detection
end_header
-1.8657 1.5547 0.1283 -0.605 -0.730 0.318 178 158 133 0 0
-1.8579 1.5501 0.1256 -0.423 -0.680 0.599 173 153 127 0 0
-1.8535 1.5463 0.1243 -0.423 -0.680 0.599 179 162 135 0 0
-1.8487 1.5416 0.1231 -0.671 -0.579 0.462 186 170 145 0 0
-1.8434 1.5352 0.1220 -0.792 -0.578 0.198 185 167 140 0 0
-1.8382 1.5376 0.1190 -0.434 -0.814 0.387 168 144 117 0 0
-1.8359 1.5401 0.1174 -0.054 -0.890 0.453 164 139 113 0 0
-1.8333 1.5412 0.1159 0.024 -0.810 0.586 151 128 104 0 0
-1.8118 1.5325 0.1077 -0.615 -0.624 0.481 163 142 115 0 0
-1.8068 1.5266 0.1066 -0.594 -0.586 0.550 171 150 124 0 0
-1.8080 1.5394 0.1044 -0.553 -0.632 0.544 179 162 137 0 0
-1.8032 1.5344 0.1032 0.147 -0.596 0.790 182 162 139 0 0
-1.7965 1.5234 0.1024 -0.272 -0.332 0.903 180 160 136 0 0
-1.7898 1.5126 0.1016 -0.277 -0.212 0.937 176 156 131 0 0
-1.7826 1.5000 0.1009 -0.277 -0.212 0.937 173 152 128 0 0
-1.7803 1.5211 0.0953 -0.202 -0.720 0.664 164 142 114 0 0
-1.7756 1.5161 0.0942 0.400 -0.743 0.536 166 145 119 0 0
-1.7717 1.5135 0.0929 -0.137 -0.751 0.646 171 149 124 0 0
-1.7672 1.5090 0.0917 -0.398 -0.820 0.411 169 147 123 0 0
-1.7564 1.5040 0.0877 -0.726 -0.593 0.347 173 153 129 0 0
-1.7519 1.4997 0.0865 -0.697 -0.591 0.406 172 153 129 0 0
-1.7454 1.4886 0.0858 -0.522 -0.575 0.630 177 159 134 0 0
-1.7204 1.5079 0.0700 0.211 -0.899 0.383 157 134 108 0 0
-1.7160 1.5035 0.0688 -0.230 -0.797 0.559 162 139 113 0 0
-1.7099 1.5038 0.0659 -0.505 -0.604 0.617 172 152 127 0 0
-1.7053 1.4988 0.0648 -0.505 -0.604 0.617 175 155 130 0 0
-1.6616 1.4763 0.0490 0.360 -0.314 0.878 177 158 135 0 0
-1.6585 1.4765 0.0476 0.014 -0.361 0.932 183 163 141 0 0
-1.6377 1.4567 0.0420 0.181 -0.148 0.972 179 159 136 0 0
-1.6120 1.4412 0.0332 0.506 -0.519 0.689 185 165 144 0 0
-1.6060 1.4420 0.0302 0.278 -0.608 0.744 196 180 161 0 0
-1.6001 1.4433 0.0272 0.646 -0.717 0.262 190 174 155 0 0
-1.5970 1.4433 0.0257 0.459 -0.882 0.111 187 170 149 0 0
-1.5924 1.4502 0.0221 0.358 -0.665 0.656 179 160 137 0 0
-1.5487 1.4656 -0.0017 0.017 -0.708 0.706 181 163 139 0 0
-1.5446 1.4617 -0.0028 0.309 -0.623 0.718 181 161 139 0 0
-1.5413 1.4609 -0.0042 0.338 -0.558 0.758 183 164 141 0 0
-1.5373 1.4576 -0.0054 0.044 -0.506 0.861 183 166 143 0 0
-1.5331 1.4525 -0.0063 -0.085 -0.425 0.901 188 171 149 0 0
-1.5294 1.4502 -0.0075 -0.084 -0.434 0.897 193 176 156 0 0
-1.4997 1.4457 -0.0205 0.039 -0.354 0.935 195 179 156 0 0
-1.4959 1.4427 -0.0216 0.295 -0.382 0.876 192 176 153 0 0
-1.4851 1.4528 -0.0289 0.596 -0.136 0.791 179 159 131 0 0
-1.4562 1.4547 -0.0428 -0.003 -0.173 0.985 187 169 146 0 0
-1.4321 1.4667 -0.0567 -0.213 -0.457 0.864 196 179 158 0 0
-1.4282 1.4629 -0.0578 -0.213 -0.457 0.864 195 178 155 0 0
-1.4238 1.4561 -0.0584 -0.399 -0.715 0.574 192 176 152 0 0
-1.4195 1.4502 -0.0591 -0.495 -0.753 0.434 190 173 151 0 0
-1.4156 1.4462 -0.0601 -0.642 -0.674 0.366 189 169 148 0 0
-1.4127 1.4488 -0.0620 -0.115 -0.785 0.609 190 172 148 0 0
-1.3695 1.4463 -0.0818 0.312 -0.440 0.842 183 164 142 0 0
-1.3598 1.4487 -0.0869 -0.179 -0.374 0.910 175 155 131 0 0
-1.3559 1.4441 -0.0877 -0.209 -0.385 0.899 178 158 133 0 0
-1.3516 1.4366 -0.0882 -0.129 -0.297 0.946 180 160 136 0 0
-1.3333 1.4230 -0.0938 -0.286 -0.444 0.849 191 174 155 0 0
-1.3295 1.4189 -0.0947 -0.286 -0.444 0.849 183 165 145 0 0
-1.3262 1.4189 -0.0963 -0.384 -0.516 0.766 180 161 141 0 0
-1.2988 1.4433 -0.1144 0.573 -0.456 0.681 198 181 160 0 0
-1.2821 1.4465 -0.1229 -0.038 -0.725 0.687 193 175 152 0 0
-1.2643 1.4377 -0.1294 -0.002 -0.830 0.558 175 151 126 0 0
-1.2114 1.4105 -0.1485 0.458 -0.364 0.811 202 187 168 0 0
-1.2080 1.4113 -0.1502 0.444 -0.372 0.815 196 179 161 0 0
-1.2046 1.4111 -0.1518 0.764 -0.312 0.564 188 170 151 0 0
-1.2013 1.4136 -0.1539 0.580 -0.279 0.765 191 173 152 0 0
-1.1980 1.4153 -0.1558 0.580 -0.279 0.765 192 174 152 0 0
-1.1775 1.4179 -0.1660 0.799 -0.545 0.253 200 183 165 0 0
-1.0142 0.6818 -0.0864 0.108 -0.994 0.015 229 210 63 0 0
-1.0118 0.6826 -0.0877 -0.033 -0.944 0.327 232 214 47 0 0
-1.0094 0.6835 -0.0890 -0.377 -0.867 -0.326 239 220 54 0 0
-1.0071 0.6830 -0.0900 -0.378 -0.857 -0.349 245 228 53 0 0
-1.0049 0.6823 -0.0909 -0.703 -0.685 -0.189 249 231 42 0 0
-1.0029 0.6775 -0.0908 -0.831 -0.552 -0.067 245 226 37 0 0
-1.0007 0.6756 -0.0914 -0.666 -0.713 0.220 231 209 16 0 0
-0.9985 0.6741 -0.0921 -0.673 -0.623 0.399 234 211 33 0 0
-0.9963 0.6728 -0.0929 -0.705 -0.524 0.478 219 197 55 0 0
-0.9855 0.6630 -0.0959 -0.454 -0.862 0.227 194 159 53 0 0
-0.9834 0.6607 -0.0964 -0.259 -0.913 -0.316 212 178 59 0 0
-0.9250 0.6791 -0.1277 0.702 -0.592 0.397 118 80 28 0 0
-0.9113 0.6747 -0.1332 0.794 -0.383 0.472 96 70 30 0 0
-0.9072 0.6698 -0.1341 0.836 -0.313 0.450 93 65 26 0 0
-0.8793 0.7385 -0.1618 -0.602 -0.712 0.363 110 77 33 0 0
-0.8164 0.6722 -0.1773 -0.038 -0.896 0.442 196 166 80 0 0
-0.8140 0.6716 -0.1782 -0.038 -0.896 0.442 193 164 79 0 0
-0.8108 0.6751 -0.1805 -0.428 -0.904 -0.016 192 161 78 0 0
-0.8078 0.6770 -0.1823 0.055 -0.981 -0.184 189 157 75 0 0
-0.6313 1.2944 -0.3963 0.302 -0.391 0.869 198 178 154 0 0
-0.6279 1.2930 -0.3976 0.481 -0.418 0.771 195 175 150 0 0
-0.6241 1.2931 -0.3994 0.687 -0.542 0.484 198 179 155 0 0
-0.5839 1.2876 -0.4171 0.398 -0.310 0.863 207 191 174 0 0
-0.5795 1.2900 -0.4197 0.470 -0.325 0.821 210 197 183 0 0
-0.5772 1.2844 -0.4196 0.212 -0.253 0.944 212 201 187 0 0
-0.5739 1.2827 -0.4208 0.141 -0.145 0.979 210 199 184 0 0
-0.5570 1.2885 -0.4300 0.811 -0.376 0.449 198 180 163 0 0
-0.5400 1.2941 -0.4391 -0.206 -0.240 0.949 188 168 148 0 0
-0.5372 1.2906 -0.4397 -0.055 -0.659 0.750 187 165 144 0 0
-0.5305 1.2869 -0.4420 0.168 -0.846 0.507 186 165 146 0 0
-0.5273 1.2849 -0.4431 0.106 -0.744 0.660 193 175 156 0 0
-0.5249 1.2800 -0.4432 -0.293 -0.294 0.910 192 175 155 0 0
-0.5214 1.2791 -0.4447 -0.502 -0.249 0.828 193 174 157 0 0
-0.3602 1.2688 -0.5182 0.229 -0.740 0.632 178 158 138 0 0
-0.3330 1.2566 -0.5284 0.018 -0.267 0.964 184 166 152 0 0
-0.1051 1.1965 -0.6227 0.695 -0.598 0.399 188 175 166 0 0
-0.0991 1.2000 -0.6263 0.577 -0.686 0.443 188 175 166 0 0
0.0830 1.1656 -0.7045 0.480 -0.410 0.775 182 170 161 0 0
0.1263 1.1593 -0.7235 0.607 -0.429 0.669 188 179 173 0 0
0.1302 1.1587 -0.7252 0.444 -0.341 0.828 189 180 175 0 0
0.1386 1.1644 -0.7304 0.583 -0.519 0.625 186 176 171 0 0
0.1451 1.1675 -0.7340 0.640 -0.547 0.539 186 175 171 0 0
0.1814 1.1569 -0.7489 0.484 -0.189 0.854 186 177 172 0 0
0.2196 1.1726 -0.7701 0.506 -0.578 0.640 185 175 172 0 0
-1.8754 1.5592 0.1276 -0.531 -0.694 0.486 186 168 143 0 0
-1.8724 1.5593 0.1262 -0.670 -0.706 0.232 180 163 137 0 0
-1.8505 1.5410 0.1198 -0.671 -0.579 0.462 177 158 131 0 0
-1.8455 1.5355 0.1186 -0.754 -0.562 0.339 174 152 126 0 0
-1.8405 1.5386 0.1156 -0.341 -0.673 0.656 156 130 104 0 0
-1.8362 1.5353 0.1143 -0.345 -0.694 0.633 145 121 96 0 0
-1.8347 1.5396 0.1127 -0.121 -0.617 0.778 140 117 94 0 0
-1.8200 1.5238 0.1092 -0.335 -0.424 0.841 165 144 118 0 0
-1.8187 1.5288 0.1075 -0.324 -0.621 0.714 168 147 121 0 0
-1.8145 1.5257 0.1062 -0.454 -0.808 0.377 172 150 126 0 0
-1.8130 1.5303 0.1045 -0.494 -0.551 0.672 172 151 126 0 0
-1.8067 1.5205 0.1036 -0.599 -0.441 0.668 179 157 133 0 0
-1.8026 1.5175 0.1023 -0.775 -0.385 0.501 186 166 141 0 0
-1.7947 1.5030 0.1017 -0.665 -0.357 0.655 183 163 138 0 0
-1.7939 1.5099 0.0999 -0.333 -0.248 0.910 177 158 133 0 0
-1.7863 1.4960 0.0992 -0.224 -0.200 0.954 175 154 129 0 0
-1.7796 1.4849 0.0985 -0.023 -0.153 0.988 173 152 126 0 0
-1.7814 1.5185 0.0921 -0.202 -0.720 0.664 167 146 121 0 0
-1.7770 1.5145 0.0909 0.289 -0.756 0.587 171 150 125 0 0
-1.7728 1.5110 0.0897 -0.137 -0.751 0.646 175 156 131 0 0
-1.7692 1.5092 0.0884 -0.137 -0.751 0.646 178 158 135 0 0
-1.7669 1.5119 0.0868 -0.738 -0.540 0.403 174 156 131 0 0
-1.7572 1.5005 0.0846 -0.601 -0.583 0.547 174 155 130 0 0
-1.7530 1.4971 0.0834 -0.528 -0.520 0.671 176 158 132 0 0
-1.7377 1.4775 0.0804 -0.280 -0.578 0.767 184 166 142 0 0
-1.7211 1.5039 0.0669 -0.261 -0.900 0.349 165 142 118 0 0
-1.6949 1.4673 0.0624 -0.200 -0.246 0.948 176 155 130 0 0
-1.6896 1.4597 0.0616 -0.200 -0.246 0.948 175 155 130 0 0
-1.6606 1.4660 0.0466 0.281 -0.202 0.938 170 150 126 0 0
-1.6574 1.4655 0.0452 0.060 -0.222 0.973 176 156 133 0 0
-1.6530 1.4609 0.0441 -0.016 -0.222 0.975 183 165 142 0 0
-1.5958 1.4437 0.0209 0.493 -0.638 0.592 185 168 146 0 0
-1.5339 1.4479 -0.0091 -0.047 -0.488 0.872 192 177 154 0 0
-1.4927 1.4171 -0.0219 -0.259 -0.931 0.257 193 177 155 0 0
-1.4571 1.4313 -0.0417 -0.059 -0.170 0.984 188 170 145 0 0
-1.3792 1.4557 -0.0836 0.460 -0.192 0.867 181 160 137 0 0
-1.3696 1.4344 -0.0835 0.298 -0.271 0.915 179 158 137 0 0
-1.3609 1.4436 -0.0896 -0.493 -0.233 0.838 174 152 130 0 0
-1.3526 1.4309 -0.0907 -0.449 -0.348 0.823 177 156 132 0 0
-1.3488 1.4269 -0.0917 0.070 -0.351 0.934 179 158 134 0 0
-1.3379 1.4187 -0.0951 -0.407 -0.653 0.639 192 175 150 0 0
-1.3342 1.4159 -0.0962 -0.234 -0.902 0.363 189 171 149 0 0
-1.3305 1.4122 -0.0971 -0.397 -0.810 0.431 182 161 141 0 0
-1.3269 1.4093 -0.0982 -0.610 -0.731 0.304 183 162 141 0 0
-1.3239 1.4120 -0.1002 -0.117 -0.954 -0.277 184 165 145 0 0
-1.3029 1.4336 -0.1147 0.848 -0.490 0.201 191 173 150 0 0
-1.2657 1.4336 -0.1322 0.130 -0.524 0.842 170 146 122 0 0
-1.2232 1.4095 -0.1470 -0.067 -0.226 0.972 193 175 153 0 0
-1.1959 1.4080 -0.1596 0.677 -0.188 0.712 205 189 171 0 0
-1.1927 1.4118 -0.1619 0.766 -0.603 0.224 207 192 174 0 0
-1.0404 0.6840 -0.0774 0.481 -0.235 0.845 203 181 139 0 0
-1.0384 0.6771 -0.0768 0.685 -0.306 0.661 199 173 106 0 0
-1.0250 0.6710 -0.0818 -0.249 -0.601 0.760 222 201 70 0 0
-1.0229 0.6686 -0.0823 -0.611 -0.539 0.580 223 202 69 0 0
-1.0176 0.6805 -0.0873 0.548 -0.810 0.210 231 212 68 0 0
-1.0154 0.6789 -0.0881 -0.280 -0.410 0.868 238 219 57 0 0
-1.0038 0.6789 -0.0935 -0.788 -0.614 -0.038 245 227 54 0 0
-1.0017 0.6759 -0.0938 -0.692 -0.686 0.225 239 222 78 0 0
-0.9971 0.6753 -0.0959 -0.427 -0.478 0.767 238 223 91 0 0
-0.9945 0.6796 -0.0980 0.293 -0.428 0.855 229 210 87 0 0
-0.9925 0.6747 -0.0979 -0.371 -0.708 0.601 220 200 78 0 0
-0.9843 0.6628 -0.0992 -0.257 -0.910 0.326 192 158 50 0 0
-0.9798 0.6610 -0.1010 -0.089 -0.846 0.526 190 153 38 0 0
-0.9648 0.6719 -0.1103 0.451 -0.442 0.775 162 118 19 0 0
-0.9450 0.6805 -0.1215 -0.386 -0.731 0.564 200 161 41 0 0
-0.9430 0.6773 -0.1218 0.056 -0.895 0.442 200 161 43 0 0
-0.9265 0.6755 -0.1291 0.579 -0.479 0.660 117 80 25 0 0
-0.9127 0.6717 -0.1348 0.466 -0.496 0.733 97 69 28 0 0
-0.9098 0.6752 -0.1369 0.848 -0.404 0.343 97 67 28 0 0
-0.8805 0.7374 -0.1640 -0.119 -0.756 -0.644 117 84 40 0 0
-0.8146 0.6735 -0.1813 -0.362 -0.671 0.648 193 160 76 0 0
-0.8121 0.6735 -0.1825 -0.164 -0.977 0.139 192 160 78 0 0
-0.8102 0.6707 -0.1828 -0.459 -0.529 0.714 190 157 77 0 0
-0.7949 0.7275 -0.2022 0.070 -0.728 -0.682 189 154 77 0 0
-0.6271 1.2870 -0.4011 0.655 -0.544 0.525 204 188 166 0 0
-0.6174 1.2805 -0.4043 -0.462 -0.886 -0.034 203 186 163 0 0
-0.5913 1.2797 -0.4164 0.434 -0.570 0.698 205 189 172 0 0
-0.5873 1.2803 -0.4184 0.468 -0.525 0.710 208 195 179 0 0
-0.5826 1.2838 -0.4214 0.362 -0.392 0.846 209 195 181 0 0
-0.5808 1.2762 -0.4206 -0.037 -0.161 0.986 206 191 176 0 0
-0.5780 1.2728 -0.4212 -0.089 -0.083 0.993 207 192 177 0 0
-0.5748 1.2707 -0.4222 0.023 -0.054 0.998 206 191 176 0 0
-0.5698 1.2750 -0.4255 0.591 -0.537 0.602 204 190 174 0 0
-0.5517 1.2850 -0.4362 0.598 -0.492 0.633 194 175 157 0 0
-0.5470 1.2882 -0.4391 -0.001 -0.339 0.941 192 173 156 0 0
-0.5428 1.2891 -0.4412 -0.219 -0.096 0.971 190 171 153 0 0
-0.5239 1.2753 -0.4471 0.006 -0.210 0.978 188 167 151 0 0
-0.5181 1.2691 -0.4486 0.263 -0.210 0.942 191 172 154 0 0
-0.3897 1.2679 -0.5087 -0.057 -0.796 0.603 185 164 144 0 0
-0.3859 1.2673 -0.5103 0.088 -0.854 0.513 183 162 143 0 0
-0.3377 1.2483 -0.5289 -0.164 -0.021 0.986 178 159 142 0 0
-0.3348 1.2458 -0.5298 0.004 -0.090 0.996 177 159 139 0 0
-0.3013 1.2214 -0.5403 0.488 -0.685 0.541 184 167 152 0 0
-0.2084 1.1889 -0.5770 0.117 -0.975 0.191 186 171 158 0 0
-0.1065 1.1886 -0.6249 0.564 -0.587 0.581 190 177 168 0 0
-0.0032 1.1792 -0.6714 0.456 -0.600 0.657 168 153 144 0 0
0.0015 1.1799 -0.6738 0.470 -0.645 0.603 172 159 149 0 0
0.0492 1.1878 -0.6979 -0.270 -0.961 -0.052 184 172 164 0 0
0.1204 1.1523 -0.7238 0.597 -0.579 0.556 179 169 162 0 0
0.1239 1.1511 -0.7252 0.459 -0.544 0.702 180 169 163 0 0
0.1327 1.1574 -0.7307 0.504 -0.516 0.693 179 168 162 0 0
0.1386 1.1597 -0.7339 0.646 -0.540 0.539 178 167 161 0 0
0.1453 1.1630 -0.7378 0.524 -0.386 0.759 180 169 165 0 0
0.1640 1.1464 -0.7431 0.453 -0.258 0.853 186 176 171 0 0
0.1691 1.1474 -0.7457 0.488 -0.306 0.818 187 178 173 0 0
0.1736 1.1475 -0.7478 0.490 -0.204 0.847 187 178 173 0 0
-1.8759 1.5551 0.1245 -0.182 -0.419 0.889 179 160 135 0 0
-1.8597 1.5441 0.1192 -0.251 -0.489 0.836 165 143 117 0 0
-1.8550 1.5396 0.1180 -0.251 -0.489 0.836 163 142 116 0 0
-1.8479 1.5366 0.1153 -0.754 -0.562 0.339 165 143 117 0 0
-1.8405 1.5330 0.1126 -0.465 -0.793 0.393 149 124 98 0 0
-1.8374 1.5329 0.1111 -0.345 -0.694 0.633 141 118 90 0 0
-1.8349 1.5347 0.1096 -0.275 -0.661 0.698 141 119 94 0 0
-1.8297 1.5284 0.1085 -0.147 -0.553 0.820 157 134 110 0 0
-1.8264 1.5276 0.1071 0.067 -0.522 0.850 169 147 121 0 0
-1.8199 1.5178 0.1062 -0.335 -0.424 0.841 174 153 129 0 0
-1.8156 1.5142 0.1050 -0.325 -0.503 0.801 171 151 126 0 0
-1.8129 1.5150 0.1035 -0.165 -0.392 0.905 173 152 128 0 0
-1.8071 1.5069 0.1025 0.216 -0.313 0.925 174 153 129 0 0
-1.8030 1.5041 0.1012 -0.049 -0.196 0.979 181 160 136 0 0
-1.8045 1.5175 0.0990 -0.813 -0.370 0.450 181 160 133 0 0
-1.7949 1.4980 0.0987 -0.665 -0.357 0.655 175 153 128 0 0
-1.7916 1.4973 0.0973 -0.417 -0.248 0.874 174 153 127 0 0
-1.7791 1.5054 0.0897 0.238 -0.265 0.934 175 155 130 0 0
-1.7755 1.5038 0.0883 0.238 -0.265 0.934 180 160 135 0 0
-1.7732 1.5062 0.0867 0.150 -0.328 0.933 182 164 139 0 0
-1.7693 1.5037 0.0854 0.162 -0.780 0.604 182 165 141 0 0
-1.7579 1.4969 0.0815 -0.337 -0.631 0.699 188 171 146 0 0
-1.7536 1.4929 0.0804 -0.369 -0.407 0.835 186 170 145 0 0
-1.7374 1.4803 0.0755 -0.111 -0.648 0.753 177 156 131 0 0
-1.7222 1.4907 0.0660 -0.238 -0.383 0.893 169 148 123 0 0
-1.6753 1.4460 0.0537 0.153 -0.524 0.838 172 152 126 0 0
-1.6622 1.4539 0.0458 0.234 -0.499 0.835 169 146 123 0 0
-1.6122 1.4279 0.0279 0.610 -0.586 0.532 183 163 139 0 0
-1.5994 1.4381 0.0196 0.529 -0.620 0.579 179 160 137 0 0
-1.5805 1.4374 0.0109 0.031 -0.493 0.869 184 166 142 0 0
-1.5775 1.4376 0.0094 -0.187 -0.470 0.863 186 169 145 0 0
-1.5734 1.4336 0.0083 -0.080 -0.453 0.888 190 173 153 0 0
-1.5697 1.4310 0.0072 -0.113 -0.505 0.856 189 172 151 0 0
-1.5667 1.4315 0.0056 0.223 -0.425 0.877 187 170 149 0 0
-1.5337 1.4387 -0.0114 -0.237 -0.547 0.803 190 174 151 0 0
-1.5306 1.4389 -0.0130 -0.182 -0.633 0.752 192 175 154 0 0
-1.5273 1.4383 -0.0144 0.013 -0.839 0.544 191 174 153 0 0
-1.4968 1.4132 -0.0233 0.362 -0.632 0.686 191 174 150 0 0
-1.4933 1.4111 -0.0245 0.542 -0.587 0.602 193 176 153 0 0
-1.4795 1.4218 -0.0333 0.832 -0.323 0.451 182 165 139 0 0
-1.3773 1.4535 -0.0883 0.289 -0.210 0.934 173 153 130 0 0
-1.3665 1.4229 -0.0868 0.534 -0.209 0.819 177 155 132 0 0
-1.3223 1.4122 -0.1052 -0.428 -0.904 -0.012 191 173 155 0 0
-1.3187 1.4093 -0.1063 -0.032 -0.997 -0.077 201 185 169 0 0
-1.3154 1.4093 -0.1079 -0.032 -0.997 -0.077 204 189 173 0 0
-1.2775 1.4316 -0.1306 0.174 -0.417 0.892 186 164 140 0 0
-1.2101 1.3881 -0.1529 0.357 -0.335 0.872 189 170 150 0 0
-1.1943 1.4115 -0.1654 0.774 -0.582 -0.249 206 190 171 0 0
-1.0416 0.6810 -0.0790 0.548 -0.822 0.158 205 182 135 0 0
-1.0394 0.6790 -0.0796 -0.060 -0.592 0.803 194 167 91 0 0
-1.0372 0.6774 -0.0803 -0.210 -0.582 0.786 200 172 80 0 0
-1.0285 0.6679 -0.0823 0.076 -0.638 0.766 219 195 79 0 0
-1.0211 0.6773 -0.0878 0.348 -0.854 -0.386 228 209 67 0 0
-1.0188 0.6776 -0.0890 0.297 -0.835 -0.463 235 216 69 0 0
-1.0163 0.6807 -0.0908 -0.424 -0.893 0.148 248 227 58 0 0
-1.0141 0.6795 -0.0916 -0.424 -0.893 0.148 253 237 54 0 0
-0.9957 0.6767 -0.0997 0.471 -0.417 0.777 239 226 104 0 0
-0.9912 0.6748 -0.1014 -0.102 -0.798 0.594 219 199 85 0 0
-0.9851 0.6652 -0.1022 -0.456 -0.644 0.615 195 163 55 0 0
-0.9831 0.6616 -0.1024 -0.286 -0.571 0.769 190 155 49 0 0
-0.9459 0.6815 -0.1242 -0.595 -0.798 -0.100 200 161 42 0 0
-0.9418 0.6754 -0.1248 -0.230 -0.883 0.409 199 162 41 0 0
-0.9400 0.6709 -0.1247 0.200 -0.591 0.781 197 160 37 0 0
-0.9257 0.6715 -0.1315 0.271 -0.477 0.836 122 81 26 0 0
-0.8852 0.7144 -0.1599 -0.861 -0.365 0.354 111 78 35 0 0
-0.8801 0.7152 -0.1625 -0.835 -0.367 -0.409 119 85 40 0 0
-0.8665 0.7214 -0.1702 0.436 -0.900 -0.016 130 95 43 0 0
-0.8246 0.6780 -0.1806 -0.538 -0.680 0.499 194 162 72 0 0
-0.8179 0.6744 -0.1829 -0.815 -0.579 0.024 192 160 73 0 0
-0.8160 0.6714 -0.1831 -0.700 -0.679 -0.221 192 158 73 0 0
-0.6298 1.2817 -0.4031 0.558 -0.526 0.642 211 195 176 0 0
-0.6263 1.2808 -0.4046 0.315 -0.421 0.851 204 186 165 0 0
-0.6234 1.2775 -0.4052 0.113 -0.857 0.502 196 176 153 0 0
-0.6066 1.2695 -0.4114 0.217 -0.881 0.421 199 180 160 0 0
-0.5944 1.2731 -0.4179 0.455 -0.704 0.546 199 182 164 0 0
-0.5903 1.2743 -0.4201 0.073 -0.325 0.943 200 183 164 0 0
-0.5591 1.2775 -0.4355 0.700 -0.591 0.402 192 173 154 0 0
-0.5548 1.2791 -0.4378 0.598 -0.492 0.633 193 174 157 0 0
-0.5267 1.2707 -0.4493 0.067 -0.106 0.992 189 169 152 0 0
-0.5241 1.2664 -0.4495 -0.033 -0.109 0.994 187 167 148 0 0
-0.4484 1.2505 -0.4818 0.453 -0.162 0.877 193 178 162 0 0
-0.3949 1.2681 -0.5108 0.199 -0.705 0.681 183 165 144 0 0
-0.3911 1.2676 -0.5124 0.199 -0.705 0.681 181 161 140 0 0
-0.3881 1.2652 -0.5134 0.161 -0.820 0.549 180 161 141 0 0
-0.3754 1.2671 -0.5197 -0.121 -0.993 -0.013 200 182 166 0 0
-0.0738 1.1751 -0.6418 0.486 -0.633 0.603 184 170 160 0 0
-0.0557 1.1634 -0.6478 -0.052 -0.389 0.920 191 179 167 0 0
-0.0520 1.1627 -0.6494 0.194 -0.525 0.828 188 177 165 0 0
-0.0395 1.1767 -0.6584 0.749 -0.586 0.309 187 175 164 0 0
-0.0125 1.1727 -0.6702 0.336 -0.531 0.778 166 152 143 0 0
-0.0072 1.1744 -0.6730 0.456 -0.600 0.657 169 155 146 0 0
-0.0050 1.1711 -0.6734 -0.065 -0.388 0.919 176 163 153 0 0
-0.0023 1.1686 -0.6741 -0.018 -0.393 0.920 184 172 164 0 0
0.0003 1.1661 -0.6748 0.137 -0.401 0.906 189 177 169 0 0
0.1028 1.1469 -0.7189 0.343 -0.475 0.810 183 170 161 0 0
0.1127 1.1426 -0.7226 0.545 -0.542 0.639 183 172 166 0 0
0.1165 1.1419 -0.7243 0.115 -0.405 0.907 180 168 160 0 0
0.1274 1.1513 -0.7314 0.528 -0.595 0.605 178 166 160 0 0
0.1567 1.1376 -0.7423 0.491 -0.244 0.836 188 178 175 0 0
0.1626 1.1398 -0.7455 0.509 -0.191 0.839 187 178 173 0 0
-1.8750 1.5471 0.1215 -0.298 -0.515 0.804 174 154 127 0 0
-1.8666 1.5491 0.1171 0.328 -0.352 0.877 169 149 121 0 0
-1.8552 1.5345 0.1150 -0.251 -0.489 0.836 160 139 113 0 0
-1.8420 1.5316 0.1093 -0.558 -0.768 0.313 159 137 113 0 0
-1.8380 1.5292 0.1080 -0.178 -0.623 0.762 159 137 113 0 0
-1.8330 1.5235 0.1069 -0.047 -0.377 0.925 160 138 115 0 0
-1.8275 1.5166 0.1058 -0.227 -0.364 0.903 163 142 118 0 0
-1.8166 1.5115 0.1018 0.233 -0.239 0.943 171 150 125 0 0
-1.8130 1.5096 0.1005 0.215 -0.233 0.948 169 146 123 0 0
-1.8089 1.5067 0.0992 0.330 -0.110 0.937 167 146 121 0 0
-1.8051 1.5134 0.0960 -0.700 -0.334 0.632 174 153 128 0 0
-1.7945 1.4909 0.0959 -0.593 -0.316 0.741 165 142 118 0 0
-1.7789 1.4988 0.0868 -0.157 -0.352 0.923 180 160 135 0 0
-1.7757 1.4986 0.0853 -0.094 -0.248 0.964 184 165 140 0 0
-1.7711 1.4937 0.0842 0.095 -0.272 0.957 183 166 140 0 0
-1.7577 1.4901 0.0787 0.039 -0.856 0.516 190 174 149 0 0
-1.7540 1.4880 0.0774 -0.357 -0.559 0.749 193 177 152 0 0
-1.7177 1.4796 0.0621 -0.186 -0.268 0.945 173 151 127 0 0
-1.6767 1.4443 0.0505 -0.022 -0.404 0.915 174 152 128 0 0
-1.6296 1.4172 0.0343 0.121 -0.569 0.813 185 169 146 0 0
-1.5974 1.4351 0.0151 0.536 -0.649 0.539 160 139 114 0 0
-1.5881 1.4353 0.0107 -0.201 -0.755 0.624 173 153 128 0 0
-1.5849 1.4350 0.0093 0.084 -0.607 0.791 174 153 131 0 0
-1.5780 1.4321 0.0067 -0.209 -0.721 0.661 178 159 134 0 0
-1.5744 1.4301 0.0054 -0.190 -0.749 0.635 185 167 144 0 0
-1.5708 1.4283 0.0041 -0.299 -0.679 0.671 186 169 145 0 0
-1.5514 1.4114 -0.0014 -0.258 -0.405 0.877 177 157 134 0 0
-1.5249 1.4336 -0.0187 0.537 -0.523 0.662 180 159 134 0 0
-1.4939 1.4054 -0.0271 0.532 -0.395 0.749 187 167 144 0 0
-1.4482 1.4155 -0.0509 0.296 -0.292 0.910 184 166 143 0 0
-1.3803 1.4380 -0.0878 0.628 -0.304 0.716 173 151 127 0 0
-1.3302 1.4078 -0.1049 -0.178 -0.634 0.752 184 166 145 0 0
-1.3275 1.4130 -0.1073 -0.359 -0.933 -0.027 187 169 150 0 0
-1.3205 1.4100 -0.1099 -0.677 -0.712 0.187 199 182 166 0 0
-1.3169 1.4072 -0.1110 -0.633 -0.759 0.150 201 185 169 0 0
-1.3133 1.4044 -0.1121 0.203 -0.597 0.776 197 181 164 0 0
-1.3099 1.4035 -0.1135 0.426 -0.419 0.802 191 174 153 0 0
-1.2948 1.4189 -0.1239 0.312 -0.188 0.931 185 163 140 0 0
-1.2752 1.4247 -0.1345 0.264 -0.349 0.899 180 159 135 0 0
-1.2613 1.4203 -0.1401 0.259 -0.341 0.904 195 178 155 0 0
-1.2255 1.3932 -0.1510 -0.082 -0.231 0.970 174 152 126 0 0
-1.1952 1.3951 -0.1657 0.735 -0.409 0.541 200 183 164 0 0
-1.1647 1.4006 -0.1813 0.411 -0.870 0.273 190 169 146 0 0
-1.0383 0.6759 -0.0823 -0.683 -0.538 0.493 200 172 81 0 0
-1.0297 0.6644 -0.0838 0.174 -0.910 0.376 214 189 73 0 0
-1.0272 0.6694 -0.0861 0.319 -0.941 -0.114 218 194 67 0 0
-1.0245 0.6772 -0.0891 0.491 -0.833 0.255 221 200 62 0 0
-1.0220 0.6803 -0.0909 0.230 -0.819 0.525 227 207 59 0 0
-1.0196 0.6812 -0.0922 0.282 -0.844 0.456 234 214 63 0 0
-1.0150 0.6812 -0.0944 -0.136 -0.769 0.625 251 234 63 0 0
-1.0102 0.6838 -0.0972 0.332 -0.922 0.200 246 231 74 0 0
-0.9901 0.6728 -0.1043 -0.245 -0.969 0.020 218 198 83 0 0
-0.9861 0.6656 -0.1046 -0.564 -0.540 0.625 201 168 49 0 0
-0.9650 0.6668 -0.1148 0.484 -0.713 0.508 164 117 25 0 0
-0.9571 0.6749 -0.1203 0.825 -0.563 -0.052 183 134 36 0 0
-0.9517 0.6807 -0.1241 0.739 -0.648 -0.185 197 157 35 0 0
-0.9449 0.6783 -0.1268 -0.285 -0.952 -0.110 199 160 43 0 0
-0.9430 0.6742 -0.1268 -0.142 -0.818 0.558 200 161 41 0 0
-0.9314 0.6716 -0.1317 0.658 -0.437 0.613 136 93 22 0 0
-0.9288 0.6733 -0.1333 0.658 -0.437 0.613 130 85 22 0 0
-0.9268 0.6705 -0.1337 0.453 -0.505 0.734 134 88 25 0 0
-0.9245 0.6699 -0.1346 0.205 -0.514 0.833 140 95 28 0 0
-0.9197 0.6704 -0.1370 0.347 -0.702 0.622 138 98 36 0 0
-0.9169 0.6729 -0.1389 0.688 -0.602 0.405 114 81 32 0 0
-0.8849 0.7233 -0.1650 0.736 -0.272 0.620 104 70 27 0 0
-0.8819 0.7257 -0.1669 0.787 -0.287 0.546 106 71 28 0 0
-0.8748 0.7083 -0.1665 -0.098 -0.622 -0.777 110 76 30 0 0
-0.8717 0.7118 -0.1687 0.194 -0.861 -0.469 112 78 32 0 0
-0.8670 0.7096 -0.1704 -0.052 -0.878 -0.476 117 81 32 0 0
-0.8647 0.7086 -0.1713 0.165 -0.787 -0.595 122 86 37 0 0
-0.8547 0.6307 -0.1590 0.677 -0.421 0.603 171 137 63 0 0
-0.8198 0.6698 -0.1839 -0.056 -0.888 -0.457 193 159 70 0 0
-0.6370 1.2887 -0.4056 -0.511 -0.852 -0.116 194 173 145 0 0
-0.6355 1.2795 -0.4043 -0.356 -0.664 0.658 201 183 159 0 0
-0.6323 1.2772 -0.4053 -0.085 -0.471 0.878 207 189 166 0 0
-0.6294 1.2738 -0.4060 0.154 -0.377 0.913 198 179 154 0 0
-0.6262 1.2716 -0.4070 0.306 -0.452 0.838 193 173 148 0 0
-0.6044 1.2690 -0.4167 0.292 -0.645 0.707 199 181 159 0 0
-0.5968 1.2694 -0.4204 0.093 -0.312 0.945 194 175 152 0 0
-0.5273 1.2606 -0.4512 -0.182 -0.162 0.970 187 168 149 0 0
-0.5248 1.2564 -0.4515 0.008 -0.288 0.958 191 173 154 0 0
-0.5218 1.2537 -0.4523 0.008 -0.288 0.958 201 184 168 0 0
-0.4136 1.2531 -0.5032 0.646 -0.325 0.691 182 162 142 0 0
-0.3946 1.2619 -0.5141 0.400 -0.655 0.642 176 155 135 0 0
-0.3903 1.2628 -0.5163 0.161 -0.820 0.549 176 157 137 0 0
-0.3767 1.2671 -0.5237 0.027 -0.994 -0.105 208 193 177 0 0
-0.3635 1.2401 -0.5240 -0.372 0.095 0.923 177 156 136 0 0
-0.2394 1.1960 -0.5728 -0.414 -0.572 0.709 160 141 127 0 0
-0.1847 1.1924 -0.5978 0.419 -0.384 0.823 183 167 153 0 0
-0.0764 1.1797 -0.6461 0.367 -0.873 0.321 190 177 167 0 0
-0.0599 1.1652 -0.6507 -0.652 -0.153 0.743 195 183 174 0 0
-0.0596 1.1587 -0.6495 -0.737 -0.606 0.299 195 183 174 0 0
-0.0575 1.1553 -0.6497 -0.723 -0.559 0.405 192 182 171 0 0
-0.0491 1.1624 -0.6552 0.602 -0.718 0.350 188 176 164 0 0
-0.0139 1.1652 -0.6724 0.123 -0.207 0.970 176 162 152 0 0
-0.0107 1.1636 -0.6736 -0.084 -0.165 0.983 180 168 157 0 0
-0.0085 1.1604 -0.6739 -0.084 -0.165 0.983 184 171 163 0 0
-0.0046 1.1599 -0.6756 0.073 -0.213 0.974 186 173 165 0 0
-0.0016 1.1579 -0.6766 0.091 -0.050 0.995 188 177 169 0 0
0.0488 1.1838 -0.7060 -0.062 -0.001 0.998 190 180 172 0 0
0.0671 1.1400 -0.7051 0.201 -0.361 0.911 187 177 168 0 0
0.0990 1.1555 -0.7235 0.508 -0.350 0.787 185 172 165 0 0
0.0981 1.1416 -0.7201 0.343 -0.475 0.810 185 173 165 0 0
0.1006 1.1389 -0.7206 0.422 -0.596 0.683 187 177 168 0 0
0.1037 1.1373 -0.7218 0.403 -0.481 0.779 190 181 173 0 0
0.1094 1.1393 -0.7249 0.596 -0.654 0.466 189 179 174 0 0
0.1479 1.1267 -0.7403 0.491 -0.244 0.836 190 181 177 0 0
0.1537 1.1288 -0.7435 0.630 -0.331 0.703 190 181 178 0 0
0.1615 1.1335 -0.7482 0.610 -0.256 0.750 189 180 175 0 0
-1.8689 1.5416 0.1156 -0.223 -0.357 0.907 166 145 119 0 0
-1.8664 1.5432 0.1141 0.358 -0.468 0.808 165 143 116 0 0
-1.8558 1.5307 0.1118 -0.153 -0.464 0.873 173 152 128 0 0
-1.8513 1.5267 0.1106 -0.183 -0.432 0.883 178 158 133 0 0
-1.8015 1.4971 0.0936 -0.471 -0.247 0.847 173 150 127 0 0
-1.7921 1.4783 0.0934 -0.471 -0.247 0.847 165 141 116 0 0
-1.7803 1.4609 0.0916 -0.497 -0.391 0.774 174 153 129 0 0
-1.7757 1.4561 0.0905 -0.196 -0.691 0.695 182 163 139 0 0
-1.7758 1.4837 0.0845 -0.188 -0.346 0.919 181 161 136 0 0
-1.7729 1.4842 0.0830 -0.109 -0.283 0.953 182 162 136 0 0
-1.7694 1.4825 0.0817 0.049 -0.226 0.973 182 164 139 0 0
-1.7664 1.4826 0.0802 0.476 -0.158 0.865 180 163 137 0 0
-1.7635 1.4833 0.0788 0.312 -0.128 0.941 179 161 136 0 0
-1.7531 1.4793 0.0747 -0.232 -0.313 0.921 184 166 142 0 0
-1.7484 1.4741 0.0737 -0.369 -0.389 0.844 182 164 138 0 0
-1.7386 1.4621 0.0717 0.078 -0.457 0.886 178 158 133 0 0
-1.6301 1.4124 0.0315 -0.003 -0.957 0.292 185 169 147 0 0
-1.6288 1.4188 0.0294 0.282 -0.868 0.408 186 169 147 0 0
-1.6258 1.4189 0.0280 0.075 -0.888 0.453 185 167 144 0 0
-1.6013 1.4311 0.0137 0.462 -0.713 0.528 151 129 105 0 0
-1.5984 1.4318 0.0122 0.462 -0.713 0.528 150 129 105 0 0
-1.5709 1.4210 0.0016 -0.176 -0.653 0.737 175 154 130 0 0
-1.5561 1.4106 -0.0031 -0.303 -0.500 0.811 171 149 126 0 0
-1.4920 1.4026 -0.0316 0.532 -0.477 0.699 187 168 145 0 0
-1.4529 1.4138 -0.0525 -0.233 -0.348 0.908 185 167 143 0 0
-1.4473 1.4185 -0.0562 0.130 -0.184 0.974 187 170 146 0 0
-1.3677 1.4297 -0.0963 0.088 -0.493 0.866 183 165 142 0 0
-1.3642 1.4285 -0.0976 -0.395 -0.493 0.775 185 167 145 0 0
-1.3601 1.4221 -0.0982 -0.384 -0.438 0.813 190 173 151 0 0
-1.3560 1.4161 -0.0988 -0.471 -0.298 0.830 193 176 154 0 0
-1.3486 1.4096 -0.1008 -0.410 -0.227 0.883 190 171 149 0 0
-1.3340 1.3981 -0.1052 0.474 -0.454 0.754 179 159 136 0 0
-1.3283 1.4050 -0.1094 0.184 -0.853 0.489 185 166 147 0 0
-1.3251 1.4057 -0.1111 -0.599 -0.586 0.545 190 173 153 0 0
-1.3215 1.4034 -0.1123 0.065 -0.672 0.737 197 181 163 0 0
-1.3181 1.4025 -0.1137 0.049 -0.667 0.744 200 184 168 0 0
-1.2956 1.4091 -0.1257 0.372 -0.334 0.866 183 161 138 0 0
-1.2831 1.4186 -0.1337 0.417 -0.189 0.889 180 157 132 0 0
-1.2375 1.3954 -0.1502 -0.356 -0.240 0.903 187 167 143 0 0
-1.2340 1.3940 -0.1515 -0.107 -0.339 0.935 180 158 133 0 0
-1.2231 1.3807 -0.1537 -0.067 -0.226 0.972 172 150 125 0 0
-1.0113 0.6829 -0.0994 0.332 -0.922 0.200 229 209 61 0 0
-1.0091 0.6805 -0.0999 -0.182 -0.713 0.677 235 217 78 0 0
-1.0029 0.6704 -0.1006 -0.160 -0.326 0.932 252 249 199 0 0
-0.9935 0.6726 -0.1055 0.700 -0.457 0.549 219 200 68 0 0
-0.9865 0.6722 -0.1087 0.031 -0.598 0.801 208 179 46 0 0
-0.9845 0.6688 -0.1089 -0.336 -0.379 0.862 207 173 41 0 0
-0.9825 0.6651 -0.1091 -0.537 -0.275 0.797 210 174 53 0 0
-0.9496 0.6877 -0.1296 0.401 -0.761 -0.510 198 158 39 0 0
-0.9380 0.6650 -0.1300 0.302 -0.407 0.862 197 157 36 0 0
-0.9326 0.6701 -0.1337 0.708 -0.485 0.514 179 136 35 0 0
-0.9261 0.6652 -0.1357 0.007 -1.000 0.021 140 95 27 0 0
-0.9236 0.6663 -0.1371 0.504 -0.757 0.415 148 100 34 0 0
-0.9211 0.6670 -0.1385 0.571 -0.520 0.636 150 103 33 0 0
-0.9188 0.6664 -0.1394 0.592 -0.348 0.727 137 96 38 0 0
-0.8840 0.7193 -0.1675 0.836 -0.215 0.504 111 76 31 0 0
-0.8745 0.7159 -0.1713 -0.714 -0.492 -0.498 115 79 33 0 0
-0.8261 0.6684 -0.1836 -0.023 -0.639 0.769 193 157 67 0 0
-0.8262 0.6562 -0.1809 -0.120 -0.952 0.281 193 158 67 0 0
-0.6335 1.2783 -0.4094 -0.768 -0.172 0.617 202 185 161 0 0
-0.6323 1.2678 -0.4077 0.117 -0.302 0.946 200 181 158 0 0
-0.6122 1.2590 -0.4152 0.716 -0.406 0.568 202 185 165 0 0
-0.5646 1.2677 -0.4396 0.455 -0.686 0.568 172 147 125 0 0
-0.4531 1.2335 -0.4847 0.032 -0.124 0.992 195 179 161 0 0
-0.4480 1.2262 -0.4855 -0.027 -0.279 0.960 197 181 164 0 0
-0.3931 1.2589 -0.5186 0.450 -0.607 0.655 178 159 140 0 0
-0.3676 1.2329 -0.5249 -0.372 0.095 0.923 176 155 136 0 0
-0.3405 1.2219 -0.5353 0.512 -0.368 0.776 177 158 140 0 0
-0.3304 1.2272 -0.5412 0.737 -0.472 0.485 182 164 144 0 0
-0.2480 1.1972 -0.5735 -0.298 -0.174 0.939 175 156 140 0 0
-0.2434 1.1986 -0.5760 -0.699 -0.480 0.530 173 154 140 0 0
-0.2416 1.1939 -0.5758 -0.414 -0.572 0.709 175 156 142 0 0
-0.2266 1.1834 -0.5805 -0.073 -0.628 0.775 175 156 140 0 0
-0.2258 1.1770 -0.5795 -0.302 -0.414 0.859 176 158 143 0 0
-0.2204 1.1798 -0.5827 -0.109 -0.391 0.914 179 162 147 0 0
-0.2169 1.1787 -0.5841 0.293 -0.479 0.828 181 164 149 0 0
-0.1629 1.1739 -0.6085 0.463 -0.519 0.718 170 152 137 0 0
-0.0815 1.1728 -0.6467 0.111 -0.992 -0.061 193 180 171 0 0
-0.0767 1.1738 -0.6492 0.185 -0.958 -0.220 195 184 174 0 0
-0.0741 1.1712 -0.6498 -0.315 -0.746 0.587 195 184 175 0 0
-0.0625 1.1626 -0.6534 -0.262 -0.509 0.820 194 182 171 0 0
-0.0614 1.1574 -0.6528 -0.012 -0.810 0.587 194 184 173 0 0
-0.0578 1.1566 -0.6543 0.335 -0.832 0.442 195 185 175 0 0
-0.0523 1.1588 -0.6574 0.513 -0.784 0.350 192 181 171 0 0
-0.0101 1.1527 -0.6759 -0.101 0.019 0.995 186 173 164 0 0
0.0474 1.1438 -0.7011 0.622 -0.376 0.687 186 176 167 0 0
0.0482 1.1386 -0.7004 0.195 -0.260 0.946 187 176 169 0 0
0.0975 1.1484 -0.7258 0.663 -0.402 0.632 182 170 160 0 0
0.0947 1.1319 -0.7209 0.383 -0.430 0.817 185 175 168 0 0
0.1003 1.1338 -0.7239 0.179 -0.249 0.952 188 179 170 0 0
0.1214 1.1332 -0.7337 0.500 -0.284 0.818 181 170 164 0 0
0.1940 1.1256 -0.7663 0.416 -0.133 0.900 192 184 180 0 0
-1.8675 1.5325 0.1128 -0.247 -0.317 0.916 172 151 126 0 0
-1.8660 1.5367 0.1111 0.186 -0.417 0.890 172 152 127 0 0
-1.8539 1.5201 0.1091 0.047 -0.345 0.937 184 166 144 0 0
-1.8484 1.5130 0.1081 0.026 -0.268 0.963 183 165 142 0 0
-1.7835 1.4298 0.0960 -0.782 -0.440 0.442 167 144 119 0 0
-1.7989 1.4838 0.0912 -0.471 -0.247 0.847 167 145 121 0 0
-1.7936 1.4771 0.0902 -0.527 -0.238 0.816 168 144 119 0 0
-1.7824 1.4528 0.0903 -0.527 -0.238 0.816 169 148 123 0 0
-1.7809 1.4570 0.0887 -0.590 -0.429 0.684 181 162 139 0 0
-1.7772 1.4549 0.0874 0.012 -0.960 0.278 185 167 145 0 0
-1.7719 1.4753 0.0803 -0.100 -0.360 0.928 177 158 133 0 0
-1.7675 1.4711 0.0792 -0.010 -0.328 0.945 178 159 134 0 0
-1.7680 1.4817 0.0770 0.668 -0.169 0.725 180 160 135 0 0
-1.7626 1.4745 0.0761 0.337 -0.188 0.923 179 159 134 0 0
-1.7593 1.4736 0.0747 0.344 -0.143 0.928 177 157 131 0 0
-1.7412 1.4644 0.0682 -0.221 -0.405 0.887 179 160 134 0 0
-1.7376 1.4627 0.0669 -0.258 -0.422 0.869 175 156 130 0 0
-1.6022 1.4276 0.0108 0.421 -0.668 0.613 157 135 112 0 0
-1.5993 1.4281 0.0093 0.266 -0.660 0.703 155 133 110 0 0
-1.5715 1.4159 -0.0011 0.026 -0.570 0.821 167 145 122 0 0
-1.5635 1.4215 -0.0061 -0.307 -0.745 0.592 174 153 129 0 0
-1.5601 1.4202 -0.0075 -0.338 -0.817 0.466 176 155 133 0 0
-1.5566 1.4185 -0.0088 0.061 -0.922 0.383 179 160 137 0 0
-1.5534 1.4181 -0.0102 0.061 -0.922 0.383 184 165 143 0 0
-1.4929 1.3982 -0.0344 0.632 -0.430 0.645 181 161 136 0 0
-1.4745 1.4172 -0.0473 0.903 -0.389 0.184 186 167 142 0 0
-1.4704 1.4126 -0.0482 -0.048 -0.883 0.468 188 169 144 0 0
-1.4595 1.4052 -0.0517 -0.511 -0.380 0.771 185 166 141 0 0
-1.4578 1.4132 -0.0543 -0.254 -0.496 0.831 189 170 148 0 0
-1.4537 1.4082 -0.0551 -0.271 -0.377 0.886 189 173 150 0 0
-1.4262 1.4159 -0.0699 0.185 -0.327 0.927 207 193 175 0 0
-1.4228 1.4150 -0.0712 0.250 -0.394 0.884 210 196 180 0 0
-1.3469 1.3832 -0.1000 -0.135 -0.208 0.969 192 175 154 0 0
-1.3437 1.3829 -0.1015 0.593 -0.393 0.702 191 174 151 0 0
-1.3353 1.3940 -0.1079 0.799 -0.365 0.479 178 158 136 0 0
-1.3285 1.3918 -0.1106 0.617 -0.359 0.700 183 164 143 0 0
-1.3250 1.3906 -0.1120 0.264 -0.391 0.882 186 166 145 0 0
-1.3183 1.3892 -0.1149 0.261 -0.345 0.902 196 180 160 0 0
-1.2966 1.4014 -0.1279 0.104 -0.550 0.829 184 162 138 0 0
-1.2595 1.3974 -0.1445 0.111 -0.185 0.976 187 168 143 0 0
-1.2555 1.3896 -0.1446 0.374 -0.244 0.895 191 172 148 0 0
-1.2352 1.3869 -0.1536 -0.036 -0.280 0.959 185 163 139 0 0
-1.2243 1.3735 -0.1558 -0.124 -0.243 0.962 175 152 128 0 0
-1.2102 1.3621 -0.1599 0.266 -0.798 0.541 196 178 157 0 0
-1.2075 1.3719 -0.1634 0.755 -0.236 0.612 193 172 149 0 0
-1.0125 0.6804 -0.1011 -0.131 -0.990 -0.057 223 200 54 0 0
-1.0082 0.6753 -0.1020 -0.540 -0.366 0.758 228 209 74 0 0
-0.9973 0.6665 -0.1052 0.529 -0.253 0.810 181 152 41 0 0
-0.9899 0.6718 -0.1099 0.680 -0.301 0.668 197 168 55 0 0
-0.9491 0.6797 -0.1309 0.573 -0.604 0.554 198 157 40 0 0
-0.9333 0.6728 -0.1369 0.181 -0.860 -0.478 193 151 33 0 0
-0.9107 0.6803 -0.1492 0.628 -0.248 0.737 106 73 32 0 0
-0.9050 0.6861 -0.1532 0.668 -0.176 0.723 103 71 29 0 0
-0.8995 0.6903 -0.1568 0.593 -0.104 0.798 102 69 26 0 0
-0.8627 0.7028 -0.1769 0.043 0.205 0.978 129 94 39 0 0
-0.8650 0.6630 -0.1670 -0.361 0.138 0.922 120 89 34 0 0
-0.8287 0.6722 -0.1862 -0.633 -0.654 -0.413 192 157 63 0 0
-0.8268 0.6694 -0.1865 -0.512 -0.727 0.457 191 157 62 0 0
-0.8273 0.6557 -0.1832 -0.010 -0.926 0.378 191 156 66 0 0
-0.8247 0.6560 -0.1844 -0.504 -0.857 0.111 188 152 65 0 0
-0.8197 0.6679 -0.1895 -0.734 -0.678 -0.047 186 148 67 0 0
-0.6353 1.2616 -0.4093 0.117 -0.302 0.946 202 182 160 0 0
-0.6171 1.2454 -0.4142 0.575 -0.183 0.798 205 189 171 0 0
-0.5586 1.2671 -0.4467 -0.432 0.081 0.898 175 151 126 0 0
-0.4645 1.2266 -0.4822 -0.351 -0.234 0.906 189 170 152 0 0
-0.4603 1.2276 -0.4844 0.055 -0.253 0.966 190 172 154 0 0
-0.4574 1.2249 -0.4851 -0.160 -0.219 0.963 195 178 160 0 0
-0.4547 1.2219 -0.4858 -0.107 -0.242 0.964 196 179 162 0 0
-0.4519 1.2188 -0.4864 0.049 -0.250 0.967 191 174 156 0 0
-0.4483 1.2183 -0.4880 0.187 -0.267 0.945 188 171 152 0 0
-0.3439 1.2167 -0.5370 0.505 -0.393 0.768 184 166 147 0 0
-0.3411 1.2139 -0.5377 0.641 -0.475 0.603 182 164 144 0 0
-0.2775 1.2053 -0.5658 0.339 -0.497 0.799 187 169 154 0 0
-0.2525 1.1819 -0.5724 0.349 -0.363 0.864 189 171 156 0 0
-0.2292 1.1806 -0.5831 0.192 -0.552 0.812 176 157 142 0 0
-0.2261 1.1788 -0.5842 -0.073 -0.628 0.775 178 159 144 0 0
-0.2230 1.1770 -0.5853 -0.160 -0.569 0.807 178 160 146 0 0
-0.1716 1.1672 -0.6073 0.474 -0.677 0.563 180 164 150 0 0
-0.1669 1.1684 -0.6098 0.425 -0.656 0.624 176 159 145 0 0
-0.1624 1.1694 -0.6122 -0.033 -0.329 0.944 170 153 139 0 0
-0.0889 1.1689 -0.6468 -0.549 -0.835 0.035 189 176 165 0 0
-0.0836 1.1711 -0.6498 0.085 -0.987 -0.135 190 178 168 0 0
-0.0811 1.1682 -0.6504 -0.416 -0.868 -0.272 192 181 170 0 0
-0.0810 1.1611 -0.6488 -0.436 -0.778 -0.453 191 178 169 0 0
-0.0751 1.1643 -0.6523 0.027 -0.744 0.668 190 178 167 0 0
-0.0644 1.1542 -0.6551 0.185 -0.338 0.923 190 179 169 0 0
-0.0173 1.1429 -0.6749 -0.134 0.021 0.991 189 178 170 0 0
-0.0124 1.1307 -0.6745 0.231 -0.546 0.806 184 173 165 0 0
0.0658 1.1221 -0.7095 0.439 -0.875 0.204 186 174 165 0 0
0.0714 1.1242 -0.7126 0.504 -0.803 0.318 184 174 164 0 0
0.0803 1.1309 -0.7183 0.677 -0.400 0.618 184 173 165 0 0
0.0899 1.1264 -0.7219 0.372 -0.351 0.859 185 175 166 0 0
0.0939 1.1259 -0.7237 0.397 -0.291 0.870 187 177 168 0 0
0.0981 1.1258 -0.7256 0.406 -0.217 0.888 187 176 170 0 0
0.1047 1.1231 -0.7282 0.528 -0.314 0.789 185 174 168 0 0
0.1102 1.1249 -0.7311 0.528 -0.314 0.789 184 173 167 0 0
0.1174 1.1109 -0.7314 0.425 -0.159 0.891 186 176 170 0 0
0.1268 1.1119 -0.7361 0.461 -0.236 0.855 189 180 175 0 0
0.1419 1.1210 -0.7452 0.219 -0.970 -0.104 190 181 175 0 0
0.1477 1.1172 -0.7472 -0.606 -0.694 -0.389 191 183 176 0 0
0.1501 1.1146 -0.7477 0.071 -0.923 -0.379 192 183 178 0 0
0.1912 1.1173 -0.7677 0.624 -0.662 0.414 193 184 179 0 0
-1.8673 1.5265 0.1098 -0.213 -0.295 0.931 183 164 142 0 0
-1.8615 1.5189 0.1088 -0.106 -0.261 0.959 183 165 143 0 0
-1.8531 1.5125 0.1062 -0.012 -0.339 0.941 188 172 148 0 0
-1.8457 1.5000 0.1055 0.117 -0.162 0.980 188 170 146 0 0
-1.8405 1.4941 0.1044 -0.089 -0.172 0.981 187 168 144 0 0
-1.8092 1.4560 0.0982 0.225 -0.103 0.969 186 169 147 0 0
-1.8083 1.4620 0.0964 0.252 -0.121 0.960 183 165 143 0 0
-1.7869 1.4342 0.0925 -0.759 -0.495 0.422 173 151 127 0 0
-1.7949 1.4750 0.0871 -0.649 -0.323 0.689 174 154 130 0 0
-1.7852 1.4554 0.0869 -0.649 -0.323 0.689 178 159 135 0 0
-1.7872 1.4700 0.0846 -0.789 -0.569 0.234 183 164 142 0 0
-1.7783 1.4525 0.0843 -0.583 -0.619 0.527 184 165 142 0 0
-1.7736 1.4655 0.0792 -0.087 -0.250 0.964 180 160 137 0 0
-1.7543 1.4617 0.0709 0.469 -0.188 0.863 177 158 133 0 0
-1.7507 1.4599 0.0696 0.239 -0.242 0.940 178 158 132 0 0
-1.7477 1.4599 0.0682 -0.036 -0.299 0.954 179 159 134 0 0
-1.7402 1.4552 0.0657 0.029 -0.392 0.920 180 160 135 0 0
-1.7382 1.4585 0.0640 -0.170 -0.477 0.862 178 158 132 0 0
-1.7341 1.4550 0.0628 -0.358 -0.489 0.796 174 152 128 0 0
-1.6514 1.4323 0.0288 -0.661 -0.682 0.313 175 154 131 0 0
-1.6349 1.4165 0.0246 -0.461 -0.880 -0.110 170 149 124 0 0
-1.5877 1.4241 0.0005 -0.097 -0.638 0.764 179 158 134 0 0
-1.5733 1.4029 -0.0015 0.171 -0.311 0.935 177 156 134 0 0
-1.5679 1.4059 -0.0047 0.369 -0.389 0.844 168 146 123 0 0
-1.5616 1.4185 -0.0106 -0.124 -0.650 0.750 185 165 143 0 0
-1.5579 1.4163 -0.0118 -0.163 -0.658 0.735 189 173 153 0 0
-1.5135 1.3984 -0.0288 -0.441 -0.557 0.704 175 153 129 0 0
-1.5064 1.3947 -0.0313 0.023 -0.533 0.846 181 160 136 0 0
-1.4716 1.4095 -0.0511 -0.234 -0.775 0.587 180 160 134 0 0
-1.3415 1.3774 -0.1055 0.739 -0.167 0.653 184 165 140 0 0
-1.3388 1.3818 -0.1078 0.726 -0.174 0.666 179 158 136 0 0
-1.3263 1.3866 -0.1147 0.204 -0.262 0.943 187 167 146 0 0
-1.2812 1.3969 -0.1384 0.263 -0.121 0.957 177 154 130 0 0
-1.2495 1.3769 -0.1489 0.386 -0.517 0.764 188 167 143 0 0
-1.2117 1.3585 -0.1627 0.063 -0.794 0.605 183 161 133 0 0
-1.1654 1.3742 -0.1881 -0.203 -0.374 0.905 200 181 159 0 0
-1.0136 0.6799 -0.1034 -0.160 -0.919 0.361 209 179 37 0 0
-0.9892 0.6654 -0.1117 0.468 -0.402 0.787 194 165 62 0 0
-0.9403 0.6827 -0.1387 -0.559 -0.537 -0.631 198 159 39 0 0
-0.9380 0.6818 -0.1396 -0.750 -0.495 -0.439 198 158 37 0 0
-0.9182 0.6857 -0.1498 -0.979 -0.060 0.196 130 90 27 0 0
-0.8933 0.7052 -0.1660 0.870 -0.493 0.016 123 81 34 0 0
-0.8562 0.6252 -0.1655 0.245 -0.937 0.250 194 156 55 0 0
-0.8281 0.6566 -0.1859 -0.320 -0.940 0.120 191 155 66 0 0
-0.8261 0.6543 -0.1864 -0.751 -0.632 0.191 187 149 63 0 0
-0.6439 1.2472 -0.4063 0.484 -0.086 0.871 201 182 158 0 0
-0.6373 1.2440 -0.4087 0.118 -0.047 0.992 207 189 169 0 0
-0.6345 1.2405 -0.4092 0.195 -0.042 0.980 210 194 175 0 0
-0.6315 1.2379 -0.4101 0.158 -0.018 0.987 212 200 182 0 0
-0.5784 1.2556 -0.4392 0.756 -0.595 0.273 167 140 116 0 0
-0.5702 1.2580 -0.4436 0.328 -0.472 0.818 167 143 117 0 0
-0.4932 1.2362 -0.4751 0.304 -0.361 0.882 191 173 156 0 0
-0.4677 1.2211 -0.4838 -0.177 -0.227 0.958 190 172 153 0 0
-0.4642 1.2204 -0.4853 0.189 -0.247 0.950 189 172 152 0 0
-0.4610 1.2185 -0.4864 0.195 -0.228 0.954 192 174 156 0 0
-0.4581 1.2158 -0.4872 0.264 -0.240 0.934 191 173 155 0 0
-0.4546 1.2148 -0.4886 0.166 -0.245 0.955 189 172 155 0 0
-0.4514 1.2133 -0.4898 0.159 -0.227 0.961 189 172 155 0 0
-0.4489 1.2094 -0.4901 -0.015 -0.146 0.989 190 174 156 0 0
-0.3921 1.2476 -0.5256 0.592 -0.415 0.691 190 174 158 0 0
-0.3890 1.2452 -0.5265 0.417 -0.285 0.863 190 173 155 0 0
-0.3762 1.2078 -0.5241 -0.092 0.117 0.989 189 171 156 0 0
-0.3527 1.2081 -0.5353 0.424 -0.905 0.024 185 167 149 0 0
-0.3440 1.2102 -0.5399 0.651 -0.710 0.266 177 158 138 0 0
-0.3384 1.2140 -0.5434 0.651 -0.710 0.266 173 153 134 0 0
-0.2809 1.2006 -0.5676 0.467 -0.484 0.740 188 172 157 0 0
-0.2328 1.1756 -0.5847 0.252 -0.463 0.850 176 157 142 0 0
-0.2283 1.1766 -0.5871 -0.450 -0.761 0.468 176 157 142 0 0
-0.2255 1.1743 -0.5879 -0.455 -0.476 0.752 176 158 142 0 0
-0.1753 1.1623 -0.6089 0.338 -0.853 0.398 180 164 149 0 0
-0.0943 1.1761 -0.6504 0.089 -0.867 0.490 184 170 160 0 0
-0.0903 1.1684 -0.6506 -0.311 -0.467 0.827 188 176 164 0 0
-0.0568 1.1479 -0.6618 0.436 -0.704 0.561 185 173 162 0 0
-0.0525 1.1482 -0.6639 0.301 -0.836 0.459 184 172 160 0 0
-0.0477 1.1492 -0.6664 0.297 -0.668 0.682 182 169 158 0 0
-0.0113 1.1275 -0.6787 0.470 -0.185 0.863 185 174 165 0 0
0.0361 1.1233 -0.7002 0.182 -0.432 0.883 175 162 153 0 0
0.0423 1.1263 -0.7038 0.375 -0.607 0.701 172 158 149 0 0
0.0437 1.1221 -0.7035 0.443 -0.830 0.339 170 157 146 0 0
0.0531 1.1236 -0.7083 0.284 -0.956 0.067 175 162 152 0 0
0.0558 1.1212 -0.7091 -0.039 -0.962 -0.269 180 167 158 0 0
0.0826 1.1233 -0.7222 0.577 -0.455 0.678 185 173 164 0 0
0.0848 1.1203 -0.7226 0.382 -0.215 0.899 186 176 167 0 0
0.0920 1.1246 -0.7270 0.052 -0.110 0.993 187 177 168 0 0
0.0943 1.1218 -0.7274 0.052 -0.110 0.993 187 177 170 0 0
0.0967 1.1191 -0.7279 -0.112 -0.023 0.993 187 177 171 0 0
0.0980 1.1149 -0.7276 -0.218 0.056 0.974 188 178 169 0 0
0.1059 1.1140 -0.7312 0.457 -0.327 0.827 188 178 172 0 0
0.1095 1.1130 -0.7326 0.248 -0.070 0.966 190 180 174 0 0
0.1102 1.1021 -0.7305 0.431 -0.180 0.884 191 183 177 0 0
0.1357 1.1020 -0.7426 -0.594 -0.175 0.785 189 180 173 0 0
0.1841 1.1091 -0.7670 0.610 -0.696 0.378 189 180 174 0 0
-1.8565 1.5081 0.1046 -0.038 -0.190 0.981 188 171 146 0 0
-1.8491 1.4958 0.1039 -0.058 -0.168 0.984 189 172 148 0 0
-1.8378 1.4811 0.1019 -0.313 -0.263 0.913 188 170 147 0 0
-1.8310 1.4706 0.1011 0.133 -0.220 0.966 187 169 145 0 0
-1.8270 1.4676 0.0999 0.133 -0.220 0.966 184 166 142 0 0
-1.8209 1.4588 0.0990 0.178 -0.204 0.963 184 166 143 0 0
-1.8147 1.4494 0.0981 0.150 -0.354 0.923 185 167 144 0 0
-1.8107 1.4466 0.0969 -0.240 -0.413 0.879 187 169 148 0 0
-1.8082 1.4479 0.0954 -0.128 -0.390 0.912 188 171 150 0 0
-1.8055 1.4486 0.0940 -0.279 -0.369 0.887 186 168 148 0 0
-1.7887 1.4340 0.0893 -0.749 -0.419 0.514 178 158 133 0 0
-1.7898 1.4722 0.0812 -0.812 -0.504 0.295 180 162 139 0 0
-1.7754 1.4471 0.0801 0.127 -0.720 0.683 181 163 140 0 0
-1.7431 1.4490 0.0643 -0.097 -0.374 0.922 175 154 130 0 0
-1.7402 1.4494 0.0629 0.046 -0.495 0.868 173 152 128 0 0
-1.7310 1.4489 0.0586 0.559 -0.279 0.780 168 145 121 0 0
-1.6759 1.4263 0.0376 0.579 -0.527 0.623 163 140 117 0 0
-1.6597 1.4226 0.0308 -0.267 -0.770 0.579 171 149 125 0 0
-1.6577 1.4264 0.0290 -0.475 -0.546 0.690 171 149 126 0 0
-1.6514 1.4256 0.0262 -0.573 -0.699 0.428 175 155 130 0 0
-1.6377 1.4202 0.0209 -0.609 -0.782 0.136 167 144 120 0 0
-1.6340 1.4176 0.0198 -0.488 -0.782 0.387 161 138 112 0 0
-1.5885 1.4200 -0.0023 -0.184 -0.526 0.830 184 165 140 0 0
-1.5793 1.4075 -0.0038 -0.277 -0.303 0.912 186 168 143 0 0
-1.5605 1.4062 -0.0125 0.050 -0.251 0.967 189 172 151 0 0
-1.5510 1.3921 -0.0137 -0.133 -0.370 0.919 201 187 169 0 0
-1.5065 1.3865 -0.0335 0.138 -0.750 0.646 186 166 142 0 0
-1.5032 1.3855 -0.0349 0.151 -0.658 0.737 190 172 148 0 0
-1.4556 1.3817 -0.0566 -0.496 -0.374 0.784 186 167 143 0 0
-1.4548 1.3950 -0.0600 -0.124 -0.210 0.970 189 172 147 0 0
-1.4329 1.3782 -0.0666 0.144 -0.217 0.966 184 167 143 0 0
-1.4007 1.3957 -0.0858 0.395 -0.189 0.899 184 164 140 0 0
-1.3983 1.4013 -0.0882 0.098 -0.334 0.937 181 161 136 0 0
-1.3946 1.3983 -0.0893 0.126 -0.293 0.948 183 163 138 0 0
-1.3913 1.3978 -0.0907 0.522 -0.348 0.778 186 166 141 0 0
-1.3759 1.4035 -0.0993 0.318 -0.593 0.740 187 168 146 0 0
-1.3014 1.3829 -0.1299 0.280 -0.533 0.799 185 163 139 0 0
-1.2914 1.3813 -0.1343 0.723 -0.103 0.683 190 170 146 0 0
-1.2818 1.3852 -0.1397 0.177 -0.098 0.979 188 167 144 0 0
-1.2781 1.3810 -0.1406 0.125 -0.088 0.988 190 170 146 0 0
-1.2509 1.3725 -0.1515 0.330 -0.637 0.697 184 162 138 0 0
-1.2475 1.3712 -0.1528 0.274 -0.652 0.707 184 162 138 0 0
-1.2441 1.3710 -0.1544 0.274 -0.652 0.707 186 164 140 0 0
-1.1704 1.3726 -0.1897 -0.166 -0.415 0.894 202 185 165 0 0
-1.1668 1.3688 -0.1905 -0.226 -0.357 0.907 203 186 167 0 0
-1.0147 0.6784 -0.1053 -0.233 -0.845 0.481 189 154 44 0 0
-0.9407 0.6877 -0.1426 -0.587 -0.544 -0.599 196 155 37 0 0
-0.9361 0.6857 -0.1443 -0.529 -0.492 -0.692 196 156 35 0 0
-0.9356 0.6705 -0.1410 0.387 -0.670 -0.634 195 155 32 0 0
-0.9302 0.6760 -0.1449 0.190 -0.714 -0.674 177 134 31 0 0
-0.8954 0.6982 -0.1664 0.358 -0.638 -0.682 125 84 32 0 0
-0.8724 0.6875 -0.1749 -0.243 0.204 0.948 128 95 35 0 0
-0.8573 0.6244 -0.1676 0.245 -0.937 0.250 188 149 49 0 0
-0.6407 1.2361 -0.4096 -0.203 -0.054 0.978 206 189 168 0 0
-0.6252 1.2250 -0.4145 0.402 -0.069 0.913 202 185 165 0 0
-0.5774 1.2506 -0.4429 0.696 -0.442 0.566 173 146 124 0 0
-0.5750 1.2457 -0.4430 0.290 -0.197 0.936 177 153 129 0 0
-0.5706 1.2480 -0.4455 -0.641 -0.186 0.745 182 157 134 0 0
-0.5656 1.2394 -0.4460 -0.151 0.093 0.984 181 158 134 0 0
-0.5631 1.2347 -0.4461 -0.085 0.057 0.995 189 169 147 0 0
-0.5606 1.2305 -0.4463 0.062 -0.017 0.998 199 181 162 0 0
-0.4680 1.2130 -0.4862 0.225 -0.201 0.954 190 173 154 0 0
-0.4648 1.2113 -0.4873 0.225 -0.201 0.954 191 172 155 0 0
-0.4618 1.2091 -0.4883 0.292 -0.229 0.929 186 167 149 0 0
-0.3901 1.2355 -0.5282 0.396 -0.173 0.902 187 170 154 0 0
-0.3386 1.1886 -0.5420 -0.101 -0.620 0.779 172 153 135 0 0
-0.2874 1.1887 -0.5663 0.293 -0.163 0.942 192 176 163 0 0
-0.2341 1.1671 -0.5866 0.281 -0.652 0.705 176 157 141 0 0
-0.1877 1.1562 -0.6061 0.618 -0.734 0.284 176 158 144 0 0
-0.1839 1.1557 -0.6078 0.554 -0.554 0.622 179 162 147 0 0
-0.1782 1.1590 -0.6113 0.233 -0.512 0.827 181 165 151 0 0
-0.0602 1.1440 -0.6638 0.330 -0.794 0.510 186 173 163 0 0
-0.0470 1.1384 -0.6687 0.508 -0.416 0.754 183 170 161 0 0
0.0359 1.1182 -0.7035 0.257 -0.660 0.706 173 159 150 0 0
0.0536 1.1194 -0.7121 0.386 -0.530 0.755 180 167 158 0 0
0.0647 1.1172 -0.7169 0.211 -0.936 0.281 181 168 159 0 0
0.0819 1.1176 -0.7251 0.332 -0.274 0.903 184 174 165 0 0
0.0868 1.1184 -0.7276 -0.023 -0.097 0.995 185 174 168 0 0
0.0868 1.1123 -0.7262 0.009 -0.065 0.998 187 176 169 0 0
0.0889 1.1092 -0.7265 -0.051 -0.030 0.998 187 178 170 0 0
0.0922 1.1079 -0.7277 -0.161 0.007 0.987 188 179 173 0 0
0.0934 1.1036 -0.7274 -0.157 -0.013 0.988 191 182 175 0 0
0.1232 1.0918 -0.7388 0.560 -0.377 0.738 189 180 174 0 0
0.1323 1.0986 -0.7447 -0.608 -0.134 0.783 189 180 174 0 0
-1.8609 1.4982 0.1048 -0.391 -0.532 0.751 192 175 151 0 0
-1.8518 1.4898 0.1024 -0.293 -0.291 0.911 188 172 148 0 0
-1.8455 1.4807 0.1015 -0.293 -0.291 0.911 190 173 149 0 0
-1.8313 1.4660 0.0981 0.111 -0.248 0.962 189 171 147 0 0
-1.8258 1.4588 0.0972 -0.197 -0.389 0.900 188 170 146 0 0
-1.8199 1.4505 0.0963 -0.240 -0.413 0.879 185 166 143 0 0
-1.8116 1.4354 0.0958 -0.550 -0.478 0.685 189 171 150 0 0
-1.8100 1.4392 0.0942 -0.391 -0.453 0.801 190 173 154 0 0
-1.8050 1.4332 0.0932 -0.448 -0.449 0.773 191 175 153 0 0
-1.8030 1.4360 0.0916 -0.206 -0.553 0.807 187 169 148 0 0
-1.8049 1.4498 0.0893 0.783 -0.580 0.225 182 164 142 0 0
-1.8046 1.4575 0.0874 -0.552 -0.743 0.377 180 161 139 0 0
-1.7988 1.4494 0.0865 -0.597 -0.741 0.308 179 159 134 0 0
-1.7922 1.4387 0.0859 -0.726 -0.598 0.341 178 158 134 0 0
-1.7902 1.4414 0.0843 -0.634 -0.631 0.446 180 160 136 0 0
-1.7938 1.4608 0.0815 -0.594 -0.327 0.735 179 160 136 0 0
-1.7896 1.4572 0.0804 -0.652 -0.375 0.659 181 161 137 0 0
-1.7828 1.4459 0.0797 -0.500 -0.424 0.755 181 163 139 0 0
-1.7787 1.4427 0.0786 -0.268 -0.431 0.862 184 166 144 0 0
-1.7749 1.4400 0.0773 -0.112 -0.392 0.913 186 170 147 0 0
-1.7623 1.4379 0.0719 -0.051 -0.355 0.934 180 161 137 0 0
-1.7576 1.4328 0.0708 0.169 -0.311 0.935 178 160 137 0 0
-1.7537 1.4297 0.0697 0.106 -0.344 0.933 180 161 136 0 0
-1.7342 1.4435 0.0572 0.747 -0.474 0.466 170 149 124 0 0
-1.7307 1.4419 0.0559 0.587 -0.400 0.703 169 147 123 0 0
-1.7112 1.4275 0.0500 -0.057 -0.238 0.970 176 154 129 0 0
-1.7079 1.4266 0.0487 -0.152 -0.259 0.954 181 160 135 0 0
-1.7031 1.4204 0.0478 -0.152 -0.259 0.954 179 159 134 0 0
