ply
format ascii 1.0
element vertex 827
property float x
property float y
property float z
property float nx
property float ny
property float nz
property uchar diffuse_red
property uchar diffuse_green
property uchar diffuse_blue
property uchar class
property uchar detection
end_header
-1.5483 0.6091 -0.2795 0.771 -0.368 0.520 181 160 136 0 0
-1.5491 0.6131 -0.2792 0.848 -0.449 0.281 191 171 147 0 0
-1.5473 0.6164 -0.2789 0.841 -0.467 0.275 195 177 154 0 0
-1.5431 0.6189 -0.2787 0.552 -0.798 0.243 197 179 156 0 0
-1.4965 0.6610 -0.2757 0.100 -0.446 0.889 195 177 155 0 0
-1.4928 0.6635 -0.2755 0.122 -0.417 0.901 198 180 159 0 0
-1.4622 0.7388 -0.2701 0.142 -0.635 0.759 173 145 122 0 0
-1.4586 0.7414 -0.2699 0.112 -0.775 0.621 182 156 133 0 0
-1.4422 0.7590 -0.2687 0.536 -0.323 0.780 188 164 140 0 0
-1.4442 0.7720 -0.2677 0.471 -0.213 0.856 186 160 136 0 0
-1.4429 0.7756 -0.2675 0.442 -0.227 0.868 186 162 137 0 0
-1.4414 0.7790 -0.2672 0.332 -0.439 0.835 195 171 149 0 0
-0.9848 0.6460 -0.2764 0.452 -0.605 0.655 180 142 63 0 0
-0.9758 0.6550 -0.2757 0.328 -0.662 0.674 183 144 53 0 0
-0.9703 0.6590 -0.2754 0.209 -0.863 0.460 190 161 54 0 0
-0.9659 0.6602 -0.2753 0.142 -0.964 0.225 225 216 108 0 0
-0.9371 0.7027 -0.2723 0.737 -0.514 0.439 245 228 59 0 0
-0.9340 0.7113 -0.2717 0.775 -0.410 0.481 210 172 8 0 0
-0.9327 0.7140 -0.2715 0.775 -0.410 0.481 203 163 36 0 0
-0.8804 0.7680 -0.2676 0.809 -0.586 -0.056 143 106 40 0 0
-0.8725 0.7739 -0.2672 0.769 -0.615 0.175 100 67 22 0 0
-0.8640 0.7899 -0.2660 0.984 -0.179 -0.020 132 91 39 0 0
-0.8921 0.8214 -0.2638 0.721 -0.677 0.146 126 85 42 0 0
-0.8881 0.8225 -0.2637 0.851 -0.336 0.404 125 85 45 0 0
-0.8892 0.8269 -0.2634 0.995 0.042 -0.093 121 82 42 0 0
-0.8987 0.8476 -0.2619 0.896 -0.341 -0.285 92 67 35 0 0
-0.8967 0.8613 -0.2609 0.766 -0.283 0.577 87 67 34 0 0
-0.8899 0.8608 -0.2610 0.671 -0.483 0.562 89 68 35 0 0
-0.8816 0.8592 -0.2611 0.315 -0.923 -0.220 89 68 37 0 0
-0.8742 0.8581 -0.2611 0.961 0.094 -0.259 94 73 39 0 0
-0.8275 0.8534 -0.2614 -0.061 -0.787 -0.614 210 194 103 0 0
-0.7814 0.9073 -0.2576 0.577 -0.800 -0.166 192 158 82 0 0
-1.1309 1.2076 -0.2364 0.561 -0.703 0.438 200 178 153 0 0
-1.1285 1.2108 -0.2362 0.657 -0.693 0.296 190 166 142 0 0
-1.0871 1.2235 -0.2352 -0.136 -0.969 0.207 205 186 167 0 0
-0.9681 1.4854 -0.2164 -0.056 -0.685 0.726 201 184 171 0 0
-0.6663 1.7941 -0.1942 0.937 -0.277 0.214 184 169 157 0 0
-0.6607 1.8417 -0.1908 0.179 -0.389 0.904 176 159 145 0 0
-0.6477 1.8349 -0.1912 -0.424 -0.657 0.623 174 156 142 0 0
-0.6401 1.8297 -0.1916 -0.424 -0.657 0.623 176 158 144 0 0
-0.6324 1.8242 -0.1920 -0.427 -0.666 0.612 182 165 151 0 0
-0.6203 1.8184 -0.1924 -0.078 -0.512 0.855 192 178 165 0 0
-0.6255 1.8341 -0.1913 0.658 0.047 0.751 185 170 157 0 0
-0.6222 1.8359 -0.1911 0.890 0.254 0.379 179 163 149 0 0
-0.6302 1.8635 -0.1892 0.776 0.094 0.624 180 164 151 0 0
-0.6261 1.8787 -0.1881 0.027 -0.673 0.739 169 151 137 0 0
-0.6219 1.8788 -0.1881 0.368 -0.480 0.796 168 148 136 0 0
-0.6171 1.8780 -0.1881 0.714 -0.417 0.563 168 149 138 0 0
-1.8150 0.2511 -0.3091 0.689 0.123 0.715 174 153 130 0 0
-1.8122 0.2541 -0.3089 0.680 0.111 0.725 183 163 140 0 0
-1.7660 0.3013 -0.3054 0.324 -0.378 0.867 191 173 150 0 0
-1.7610 0.3107 -0.3048 0.202 -0.570 0.796 187 169 147 0 0
-1.7551 0.3132 -0.3046 0.182 -0.484 0.856 192 174 153 0 0
-1.7549 0.3335 -0.3031 0.201 -0.356 0.913 188 170 148 0 0
-1.7154 0.3853 -0.2994 0.334 -0.528 0.781 181 160 137 0 0
-1.7111 0.3880 -0.2992 0.259 -0.601 0.756 175 153 129 0 0
-1.7060 0.3905 -0.2990 0.400 -0.509 0.762 169 146 123 0 0
-1.6732 0.4119 -0.2975 0.509 -0.264 0.819 186 166 143 0 0
-1.6503 0.4493 -0.2948 0.451 -0.354 0.820 183 163 141 0 0
-1.6483 0.4524 -0.2946 0.451 -0.354 0.820 184 164 141 0 0
-1.5988 0.5342 -0.2887 0.402 -0.389 0.829 178 155 131 0 0
-1.5963 0.5372 -0.2885 0.287 -0.627 0.725 178 156 132 0 0
-1.5902 0.5652 -0.2865 0.220 -0.240 0.945 192 171 149 0 0
-1.5878 0.5683 -0.2863 0.220 -0.240 0.945 189 169 145 0 0
-1.5564 0.5778 -0.2855 0.191 -0.404 0.895 183 162 137 0 0
-1.5570 0.5855 -0.2850 0.150 -0.739 0.657 183 160 135 0 0
-1.5383 0.6061 -0.2835 0.234 -0.613 0.754 181 159 135 0 0
-1.5377 0.6211 -0.2825 0.448 -0.601 0.662 203 186 164 0 0
-1.4922 0.6596 -0.2797 0.137 -0.286 0.948 189 167 144 0 0
-1.4819 0.7146 -0.2758 0.637 -0.303 0.709 175 148 123 0 0
-1.4411 0.7507 -0.2731 0.478 -0.208 0.853 190 166 144 0 0
-1.4396 0.7541 -0.2729 0.375 -0.445 0.813 189 166 144 0 0
-1.4366 0.7569 -0.2727 0.375 -0.445 0.813 192 167 145 0 0
-1.4338 0.7598 -0.2725 0.376 -0.364 0.852 195 171 147 0 0
-1.4338 0.7679 -0.2719 0.475 -0.108 0.874 185 160 135 0 0
-1.4329 0.7716 -0.2717 0.496 -0.091 0.864 182 156 131 0 0
-1.4319 0.7752 -0.2714 0.357 -0.429 0.829 183 157 133 0 0
-0.9826 0.6386 -0.2800 0.946 0.137 0.295 178 140 77 0 0
-0.9807 0.6443 -0.2796 0.572 -0.707 0.417 200 160 81 0 0
-0.9796 0.6471 -0.2794 0.462 -0.638 0.616 163 107 46 0 0
-0.9645 0.6597 -0.2784 0.142 -0.964 0.225 213 196 104 0 0
-0.9553 0.7054 -0.2752 0.742 -0.669 -0.027 157 107 18 0 0
-0.9368 0.7027 -0.2754 0.693 -0.702 0.167 195 149 6 0 0
-0.8985 0.7576 -0.2714 0.571 -0.540 -0.619 100 67 21 0 0
-0.8955 0.7593 -0.2713 0.195 -0.902 -0.386 99 67 21 0 0
-0.8802 0.7645 -0.2709 0.756 -0.622 0.205 151 114 40 0 0
-0.8720 0.7737 -0.2702 0.769 -0.615 0.175 102 68 23 0 0
-0.8614 0.7780 -0.2699 0.455 -0.760 0.464 110 75 30 0 0
-0.8665 0.7916 -0.2690 0.969 0.212 -0.129 127 85 40 0 0
-0.8982 0.8216 -0.2669 -0.166 -0.972 -0.167 119 78 36 0 0
-0.8959 0.8349 -0.2660 0.899 0.391 -0.198 118 80 40 0 0
-0.9025 0.8539 -0.2647 0.655 -0.546 0.522 94 69 37 0 0
-0.8954 0.8532 -0.2647 0.407 -0.737 0.540 89 66 32 0 0
-0.8932 0.8556 -0.2645 0.633 -0.355 0.688 88 66 32 0 0
-0.8944 0.8601 -0.2642 0.891 -0.223 0.395 88 65 31 0 0
-0.8891 0.8604 -0.2642 0.936 -0.188 0.298 88 67 34 0 0
-0.8872 0.8630 -0.2640 0.965 -0.249 0.083 89 68 36 0 0
-0.8253 0.8595 -0.2641 0.295 -0.678 -0.673 214 204 123 0 0
-0.7906 0.9066 -0.2607 0.320 -0.945 0.073 196 165 81 0 0
-0.7813 0.9075 -0.2606 0.974 0.180 0.140 193 159 79 0 0
-1.0811 1.2191 -0.2394 0.231 -0.894 0.385 207 189 170 0 0
-0.6548 1.8327 -0.1954 0.311 -0.257 0.915 179 163 148 0 0
-0.6466 1.8265 -0.1958 -0.295 -0.577 0.762 182 166 152 0 0
-0.6265 1.8652 -0.1930 0.517 -0.110 0.849 173 155 143 0 0
-0.6250 1.8701 -0.1927 0.121 -0.451 0.884 171 152 140 0 0
-0.6215 1.8713 -0.1926 0.088 -0.506 0.858 167 149 136 0 0
-0.5988 1.8765 -0.1922 0.559 -0.364 0.745 173 155 143 0 0
-0.5732 1.9129 -0.1896 0.766 0.023 0.643 178 162 149 0 0
-1.8016 0.2595 -0.3123 0.353 -0.564 0.747 179 158 133 0 0
-1.7562 0.3033 -0.3091 0.307 -0.284 0.908 186 167 144 0 0
-1.7540 0.3199 -0.3079 0.638 -0.425 0.642 188 170 149 0 0
-1.7489 0.3225 -0.3078 0.509 -0.249 0.824 193 175 155 0 0
-1.7416 0.3315 -0.3071 0.204 -0.391 0.897 195 178 157 0 0
-1.6991 0.3893 -0.3029 0.272 -0.561 0.782 188 168 145 0 0
-1.6944 0.3919 -0.3028 0.272 -0.561 0.782 188 168 143 0 0
-1.6429 0.4093 -0.3014 0.610 -0.549 0.571 192 173 151 0 0
-1.6404 0.4123 -0.3011 0.597 -0.672 0.437 185 165 142 0 0
-1.6373 0.4151 -0.3009 0.597 -0.672 0.437 186 165 144 0 0
-1.6357 0.4182 -0.3007 0.839 -0.366 0.402 187 165 144 0 0
-1.6340 0.4213 -0.3005 0.814 -0.235 0.532 185 164 141 0 0
-1.6352 0.4853 -0.2961 0.304 -0.379 0.874 186 166 141 0 0
-1.6013 0.4914 -0.2955 0.219 -0.798 0.561 184 162 138 0 0
-1.5955 0.4935 -0.2954 0.339 -0.630 0.699 186 166 141 0 0
-1.6016 0.4987 -0.2950 0.732 -0.069 0.678 188 168 143 0 0
-1.5918 0.5361 -0.2924 0.389 -0.432 0.814 176 152 128 0 0
-1.5868 0.5384 -0.2922 0.294 -0.607 0.738 175 152 128 0 0
-1.5815 0.5407 -0.2921 0.242 -0.636 0.733 184 164 139 0 0
-1.5756 0.5427 -0.2919 0.247 -0.674 0.697 188 167 144 0 0
-1.5712 0.5452 -0.2917 0.245 -0.711 0.659 185 163 139 0 0
-1.5656 0.5473 -0.2915 0.245 -0.711 0.659 186 165 141 0 0
-1.5539 0.5661 -0.2902 0.287 -0.595 0.751 186 164 140 0 0
-1.5345 0.6126 -0.2869 0.476 -0.146 0.867 191 170 149 0 0
-1.5351 0.6166 -0.2866 0.565 -0.110 0.818 201 183 161 0 0
-1.4823 0.6297 -0.2855 0.463 0.162 0.871 188 167 144 0 0
-1.4790 0.6399 -0.2848 0.378 -0.567 0.732 190 168 144 0 0
-1.4787 0.6436 -0.2846 0.457 -0.611 0.647 192 171 148 0 0
-1.4756 0.6502 -0.2841 0.427 -0.801 0.419 187 164 141 0 0
-1.4669 0.6548 -0.2837 0.982 0.007 0.190 187 164 140 0 0
-1.4664 0.6584 -0.2835 0.782 -0.144 0.607 188 166 142 0 0
-1.4648 0.6617 -0.2833 0.675 -0.655 0.340 186 164 141 0 0
-1.4351 0.7365 -0.2780 0.371 -0.398 0.839 189 165 143 0 0
-1.4320 0.7432 -0.2775 0.551 -0.117 0.826 188 164 141 0 0
-1.4344 0.7522 -0.2769 0.251 -0.629 0.735 195 171 149 0 0
-0.9791 0.6437 -0.2826 0.572 -0.707 0.417 180 132 62 0 0
-0.9769 0.6460 -0.2825 0.462 -0.638 0.616 166 94 45 0 0
-0.9751 0.6484 -0.2823 0.492 -0.573 0.655 176 95 50 0 0
-0.9576 0.6599 -0.2814 0.428 -0.758 0.492 186 153 68 0 0
-0.9508 0.6999 -0.2787 0.672 -0.243 0.699 155 107 25 0 0
-0.8805 0.7003 -0.2784 -0.065 -0.943 0.326 195 150 31 0 0
-0.8787 0.7027 -0.2782 0.313 -0.520 0.795 195 150 29 0 0
-0.8874 0.7618 -0.2741 0.554 -0.808 -0.202 101 68 23 0 0
-0.8841 0.7634 -0.2740 0.846 -0.525 -0.086 115 83 28 0 0
-0.8656 0.7912 -0.2720 0.892 0.387 0.236 120 81 36 0 0
-0.8986 0.8442 -0.2685 0.977 -0.174 -0.124 105 75 39 0 0
-0.8933 0.8520 -0.2679 0.407 -0.737 0.540 89 66 33 0 0
-0.8893 0.8570 -0.2676 0.728 -0.341 0.595 85 65 32 0 0
-0.8903 0.8690 -0.2668 0.375 -0.895 -0.243 94 73 38 0 0
-0.6973 1.7468 -0.2055 0.784 -0.620 0.019 193 178 167 0 0
-0.6214 1.8499 -0.1981 0.776 0.094 0.624 169 151 139 0 0
-0.5950 1.8705 -0.1965 0.473 -0.308 0.825 175 157 143 0 0
-1.7837 0.2672 -0.3155 0.816 -0.305 0.492 176 156 131 0 0
-1.7555 0.3033 -0.3129 0.314 -0.453 0.834 190 172 150 0 0
-1.7552 0.3100 -0.3125 0.267 -0.411 0.872 178 157 136 0 0
-1.7460 0.3187 -0.3118 0.524 -0.226 0.821 185 166 142 0 0
-1.7354 0.3272 -0.3112 0.279 -0.317 0.906 198 182 161 0 0
-1.6830 0.3898 -0.3067 0.223 -0.837 0.500 178 157 133 0 0
-1.6748 0.3916 -0.3065 0.172 -0.679 0.714 185 165 142 0 0
-1.6378 0.4118 -0.3049 0.716 -0.592 0.371 181 161 138 0 0
-1.6355 0.4148 -0.3047 0.757 -0.587 0.287 186 167 145 0 0
-1.6320 0.4175 -0.3045 0.837 -0.521 -0.167 189 168 148 0 0
-1.6314 0.4243 -0.3041 0.698 -0.353 0.623 190 169 146 0 0
-1.6292 0.4589 -0.3017 0.393 -0.158 0.906 198 182 164 0 0
-1.6230 0.4646 -0.3013 0.304 -0.337 0.891 192 175 152 0 0
-1.6027 0.4883 -0.2996 0.314 -0.700 0.642 187 166 142 0 0
-1.5959 0.4901 -0.2994 0.219 -0.798 0.561 187 166 141 0 0
-1.5844 0.5160 -0.2976 0.258 -0.324 0.910 182 158 135 0 0
-1.5816 0.5298 -0.2966 0.375 -0.052 0.926 181 158 134 0 0
-1.5823 0.5337 -0.2964 0.316 -0.322 0.893 181 158 134 0 0
-1.5789 0.5364 -0.2962 0.272 -0.592 0.759 180 157 133 0 0
-1.5740 0.5387 -0.2960 0.135 -0.715 0.686 182 160 136 0 0
-1.5680 0.5407 -0.2958 0.197 -0.650 0.734 185 163 139 0 0
-1.5633 0.5431 -0.2956 0.193 -0.674 0.713 187 166 142 0 0
-1.5529 0.5622 -0.2943 0.115 -0.748 0.654 184 160 136 0 0
-1.5328 0.5674 -0.2938 0.070 -0.819 0.570 192 172 148 0 0
-1.5221 0.6013 -0.2915 0.204 -0.475 0.856 182 160 136 0 0
-1.5095 0.6086 -0.2909 0.222 -0.372 0.901 193 174 151 0 0
-1.5064 0.6114 -0.2907 0.165 -0.451 0.877 191 172 149 0 0
-1.4824 0.6186 -0.2901 0.121 -0.485 0.866 192 172 148 0 0
-1.4698 0.6483 -0.2880 0.491 -0.606 0.626 192 170 147 0 0
-1.4692 0.6519 -0.2878 0.783 0.038 0.622 186 161 138 0 0
-1.4644 0.6541 -0.2876 0.785 -0.220 0.578 185 161 138 0 0
-1.4636 0.6576 -0.2873 0.785 -0.220 0.578 186 164 141 0 0
-1.4636 0.6614 -0.2871 0.715 -0.584 0.384 183 160 138 0 0
-1.4614 0.6645 -0.2869 0.605 -0.400 0.688 184 161 138 0 0
-1.4768 0.7170 -0.2834 0.551 -0.628 0.550 155 126 104 0 0
-1.4358 0.7290 -0.2824 0.270 -0.418 0.868 197 176 154 0 0
-1.4260 0.7370 -0.2818 0.392 -0.238 0.888 193 169 146 0 0
-1.4289 0.7461 -0.2812 0.442 -0.323 0.837 191 168 144 0 0
-1.4286 0.7500 -0.2809 0.267 -0.665 0.697 195 174 151 0 0
-1.4244 0.7523 -0.2807 0.287 -0.565 0.773 199 177 156 0 0
-1.4205 0.7547 -0.2805 0.333 -0.463 0.822 201 181 160 0 0
-0.9804 0.6445 -0.2857 0.638 -0.680 -0.362 179 117 58 0 0
-0.9517 0.6605 -0.2844 0.607 -0.478 0.635 195 164 56 0 0
-0.9502 0.6631 -0.2842 0.640 -0.473 0.605 205 175 71 0 0
-0.9532 0.6711 -0.2837 0.774 0.248 0.582 148 99 21 0 0
-0.9468 0.6980 -0.2818 0.664 -0.226 0.713 149 103 20 0 0
-0.9309 0.7000 -0.2816 0.190 -0.952 0.241 156 108 20 0 0
-0.9255 0.7006 -0.2816 0.408 -0.689 0.598 155 105 11 0 0
-0.9229 0.7026 -0.2814 0.475 -0.475 0.740 182 129 13 0 0
-0.9163 0.7026 -0.2814 0.165 -0.813 0.558 191 142 19 0 0
-0.8990 0.7002 -0.2814 -0.156 -0.980 0.127 192 144 28 0 0
-0.8773 0.6988 -0.2814 -0.019 -0.916 0.401 189 140 31 0 0
-0.8749 0.7008 -0.2813 0.367 -0.319 0.874 187 141 30 0 0
-0.8948 0.7558 -0.2777 0.153 -0.959 0.239 102 69 23 0 0
-0.8926 0.7580 -0.2775 0.146 -0.957 0.249 101 67 22 0 0
-0.8833 0.7632 -0.2771 0.992 -0.091 -0.083 106 75 25 0 0
-0.8824 0.7661 -0.2769 0.950 -0.310 -0.036 133 99 37 0 0
-0.8786 0.7709 -0.2765 0.764 -0.642 -0.070 119 82 29 0 0
-0.8713 0.7737 -0.2763 0.565 -0.825 -0.021 109 75 27 0 0
-0.8975 0.8363 -0.2722 1.000 0.016 0.020 110 76 40 0 0
-0.8994 0.8449 -0.2716 0.328 -0.938 0.115 98 70 34 0 0
-0.8865 0.8517 -0.2711 0.339 -0.501 0.797 87 63 31 0 0
-0.8832 0.8533 -0.2710 0.595 -0.162 0.788 87 65 33 0 0
-0.8922 0.8666 -0.2701 0.833 0.460 0.306 89 68 36 0 0
-0.8713 0.8719 -0.2697 -0.360 -0.932 -0.047 144 109 53 0 0
-0.8325 0.8610 -0.2702 0.678 -0.635 0.371 214 202 113 0 0
-0.8304 0.8634 -0.2700 0.678 -0.635 0.371 214 205 122 0 0
-0.7874 0.9162 -0.2662 0.780 0.624 -0.048 191 155 74 0 0
-1.0583 1.2820 -0.2428 0.080 -0.632 0.771 199 180 161 0 0
-0.9536 1.4320 -0.2321 0.483 -0.309 0.819 201 184 169 0 0
-0.8450 1.5803 -0.2215 0.564 -0.105 0.819 197 179 166 0 0
-0.8318 1.5887 -0.2208 0.213 -0.763 0.611 188 169 154 0 0
-0.7755 1.6862 -0.2139 0.374 -0.176 0.911 193 176 162 0 0
-0.7715 1.6873 -0.2138 0.076 -0.364 0.928 195 179 166 0 0
-0.6967 1.7463 -0.2094 0.482 -0.869 0.113 187 170 157 0 0
-0.6920 1.7528 -0.2090 0.928 -0.075 0.366 181 164 149 0 0
-0.6827 1.7524 -0.2090 0.600 -0.800 0.018 180 162 148 0 0
-0.6151 1.8257 -0.2036 0.946 0.123 0.299 178 162 149 0 0
-0.6167 1.8354 -0.2030 0.958 0.273 0.087 173 157 144 0 0
-0.6183 1.8453 -0.2023 0.926 0.107 0.361 173 155 143 0 0
-0.6151 1.8472 -0.2022 0.417 -0.252 0.873 177 161 148 0 0
-0.5642 1.8903 -0.1990 0.738 -0.173 0.652 178 163 150 0 0
-0.5642 1.8978 -0.1985 0.712 -0.016 0.702 180 165 152 0 0
-0.5687 1.9212 -0.1969 0.154 -0.722 0.675 186 171 159 0 0
-0.5648 1.9217 -0.1968 0.009 -0.768 0.640 186 170 159 0 0
-1.7811 0.2670 -0.3194 0.798 -0.529 -0.290 181 161 136 0 0
-1.7408 0.3079 -0.3163 0.213 -0.713 0.668 172 150 127 0 0
-1.7076 0.3329 -0.3145 0.158 -0.511 0.845 192 175 153 0 0
-1.6310 0.4174 -0.3083 0.754 -0.460 -0.469 202 184 166 0 0
-1.6290 0.4205 -0.3081 0.754 -0.460 -0.469 189 170 150 0 0
-1.6270 0.4235 -0.3079 0.827 -0.193 -0.528 188 169 149 0 0
-1.6279 0.4272 -0.3076 0.995 -0.064 0.082 193 176 154 0 0
-1.6231 0.4471 -0.3063 0.329 -0.523 0.786 193 175 154 0 0
-1.6202 0.4535 -0.3058 0.424 -0.285 0.859 200 183 164 0 0
-1.6161 0.4631 -0.3052 0.308 -0.481 0.821 189 170 146 0 0
-1.5937 0.4897 -0.3032 0.231 -0.811 0.538 192 173 148 0 0
-1.5939 0.4934 -0.3030 0.324 -0.411 0.852 190 170 146 0 0
-1.5750 0.5101 -0.3017 0.196 -0.407 0.892 186 163 139 0 0
-1.5706 0.5197 -0.3011 0.357 -0.075 0.931 187 165 142 0 0
-1.5705 0.5233 -0.3008 0.357 -0.075 0.931 185 160 138 0 0
-1.5684 0.5264 -0.3006 0.289 -0.140 0.947 183 158 135 0 0
-1.5603 0.5351 -0.3000 0.176 -0.543 0.821 179 155 130 0 0
-1.5547 0.5372 -0.2998 0.176 -0.543 0.821 183 161 137 0 0
-1.5566 0.5414 -0.2995 0.252 -0.582 0.773 194 173 149 0 0
-1.4991 0.6054 -0.2949 0.167 -0.442 0.881 189 168 144 0 0
-1.4894 0.6173 -0.2940 0.120 -0.770 0.626 185 163 139 0 0
-1.4729 0.6156 -0.2940 0.391 -0.449 0.804 182 160 136 0 0
-1.4692 0.6181 -0.2938 0.480 -0.221 0.849 185 163 139 0 0
-1.4647 0.6204 -0.2936 0.623 -0.079 0.778 182 159 134 0 0
-1.4705 0.6260 -0.2933 0.780 0.265 0.567 183 158 135 0 0
-1.4685 0.6291 -0.2931 0.784 0.170 0.597 186 162 139 0 0
-1.4694 0.6332 -0.2928 0.656 -0.255 0.711 187 165 141 0 0
-1.4662 0.6359 -0.2926 0.529 -0.216 0.821 184 162 138 0 0
-1.4661 0.6510 -0.2916 0.783 0.038 0.622 185 162 140 0 0
-1.4622 0.6534 -0.2914 0.866 -0.140 0.481 189 168 144 0 0
-1.4611 0.6569 -0.2912 0.786 -0.277 0.553 190 167 144 0 0
-1.4600 0.6603 -0.2910 0.553 -0.628 0.548 185 161 138 0 0
-1.4556 0.6626 -0.2908 0.653 -0.543 0.528 183 159 135 0 0
-1.4719 0.7113 -0.2876 0.830 -0.375 0.412 150 122 103 0 0
-1.4309 0.7233 -0.2866 0.476 -0.501 0.723 194 170 148 0 0
-1.4223 0.7317 -0.2859 0.392 -0.583 0.711 195 172 150 0 0
-1.0068 0.6369 -0.2894 0.073 -0.900 0.429 189 156 120 0 0
-0.9815 0.6451 -0.2887 0.638 -0.680 -0.362 193 108 63 0 0
-0.9822 0.6487 -0.2884 0.455 -0.645 -0.614 197 94 62 0 0
-0.9746 0.6485 -0.2884 0.080 -0.984 0.157 195 94 64 0 0
-0.9579 0.6505 -0.2882 0.384 -0.917 0.111 193 137 52 0 0
-0.9552 0.6558 -0.2878 0.694 -0.530 0.487 163 92 40 0 0
-0.9263 0.6978 -0.2848 0.038 -0.934 0.356 139 93 14 0 0
-0.9202 0.6980 -0.2847 0.067 -0.861 0.504 142 95 12 0 0
-0.9197 0.7011 -0.2845 0.461 -0.380 0.802 172 121 23 0 0
-0.9125 0.7008 -0.2845 0.199 -0.626 0.755 182 133 25 0 0
-0.9014 0.6984 -0.2846 -0.059 -0.882 0.468 181 132 25 0 0
-0.8845 0.6994 -0.2844 -0.199 -0.976 0.087 148 102 23 0 0
-0.8930 0.7549 -0.2808 0.191 -0.856 0.481 111 76 25 0 0
-0.8826 0.7664 -0.2799 0.973 0.170 -0.157 126 92 32 0 0
-0.8691 0.8481 -0.2744 0.765 0.543 0.345 88 67 35 0 0
-0.8915 0.8663 -0.2733 0.789 0.556 0.262 90 71 37 0 0
-0.8340 0.8586 -0.2735 -0.009 -0.906 0.424 207 189 103 0 0
-0.7917 0.9004 -0.2704 0.860 0.481 -0.171 197 165 80 0 0
-0.7795 0.9029 -0.2701 0.737 -0.447 -0.507 193 158 75 0 0
-0.7798 0.9070 -0.2699 0.923 -0.279 -0.264 193 158 76 0 0
-0.7965 0.9269 -0.2686 0.796 0.605 0.023 192 156 79 0 0
-1.0482 1.2789 -0.2469 0.169 -0.595 0.786 197 179 160 0 0
-1.0461 1.2823 -0.2467 0.436 -0.427 0.792 200 183 165 0 0
-0.9426 1.4324 -0.2360 0.557 -0.822 0.118 200 184 168 0 0
-0.9102 1.4835 -0.2324 0.678 0.120 0.726 209 194 183 0 0
-0.9094 1.4883 -0.2320 0.384 -0.264 0.885 203 186 173 0 0
-0.8704 1.5325 -0.2288 -0.016 -0.656 0.755 193 175 162 0 0
-0.8426 1.5839 -0.2252 0.067 -0.731 0.679 186 168 152 0 0
-0.7994 1.6103 -0.2232 0.148 -0.408 0.901 187 169 154 0 0
-0.7679 1.6764 -0.2185 0.266 -0.246 0.932 195 180 167 0 0
-0.7324 1.6665 -0.2189 0.542 -0.331 0.772 191 174 160 0 0
-0.6941 1.7363 -0.2140 0.396 -0.603 0.693 180 162 147 0 0
-0.6878 1.7538 -0.2128 0.916 -0.346 0.203 179 161 147 0 0
-0.6596 1.7788 -0.2110 0.404 -0.359 0.841 185 168 156 0 0
-0.6568 1.7813 -0.2108 0.341 -0.411 0.845 179 163 150 0 0
-0.6532 1.7826 -0.2107 0.189 -0.524 0.830 181 165 153 0 0
-0.6163 1.8210 -0.2079 0.862 -0.164 0.480 179 163 150 0 0
-0.6106 1.8400 -0.2066 0.649 -0.223 0.727 178 162 149 0 0
-1.7257 0.3024 -0.3204 0.293 -0.549 0.783 163 141 118 0 0
-1.7326 0.3068 -0.3202 0.213 -0.713 0.668 163 141 118 0 0
-1.6894 0.3333 -0.3181 0.184 -0.456 0.871 195 177 155 0 0
-1.6274 0.4168 -0.3121 0.917 -0.379 0.124 212 197 181 0 0
-1.6271 0.4202 -0.3119 0.698 -0.681 0.221 202 187 169 0 0
-1.6269 0.4236 -0.3116 0.919 -0.355 -0.170 202 185 167 0 0
-1.6276 0.4272 -0.3114 0.995 -0.064 0.082 198 181 161 0 0
-1.6278 0.4307 -0.3112 0.933 -0.226 0.282 192 175 155 0 0
-1.6260 0.4338 -0.3110 0.680 -0.648 0.344 192 173 151 0 0
-1.6249 0.4371 -0.3107 0.513 -0.663 0.545 183 163 140 0 0
-1.6215 0.4398 -0.3105 0.513 -0.663 0.545 180 159 135 0 0
-1.6166 0.4492 -0.3099 0.449 -0.530 0.719 198 181 163 0 0
-1.6010 0.4703 -0.3084 0.571 -0.437 0.695 188 168 143 0 0
-1.5644 0.5254 -0.3045 0.236 -0.348 0.907 185 162 139 0 0
-1.5616 0.5283 -0.3042 0.216 -0.390 0.895 188 166 142 0 0
-1.5568 0.5306 -0.3041 0.184 -0.406 0.895 183 162 135 0 0
-1.5445 0.5345 -0.3037 0.174 -0.500 0.848 186 166 140 0 0
-1.5447 0.5382 -0.3035 0.248 -0.408 0.879 188 168 143 0 0
-1.5410 0.5408 -0.3033 0.259 -0.405 0.877 185 165 139 0 0
-1.5366 0.5541 -0.3023 0.258 -0.460 0.850 187 167 142 0 0
-1.5338 0.5569 -0.3021 0.100 -0.738 0.667 195 175 150 0 0
-1.4683 0.6105 -0.2981 0.371 -0.808 0.458 185 163 140 0 0
-1.4619 0.6121 -0.2979 0.901 -0.034 0.432 197 177 156 0 0
-1.4644 0.6279 -0.2969 0.937 0.092 0.336 188 167 146 0 0
-1.4656 0.6321 -0.2967 0.653 -0.435 0.620 185 163 140 0 0
-1.4619 0.6346 -0.2965 0.503 -0.302 0.810 179 155 131 0 0
-1.4623 0.6385 -0.2962 0.372 -0.695 0.615 177 153 129 0 0
-1.4636 0.6427 -0.2959 0.642 -0.225 0.733 179 156 132 0 0
-1.4653 0.6470 -0.2957 0.522 -0.262 0.812 182 160 136 0 0
-1.4604 0.6492 -0.2955 0.540 -0.269 0.797 186 164 140 0 0
-1.4582 0.6522 -0.2953 0.689 -0.213 0.692 188 166 143 0 0
-1.4277 0.7221 -0.2904 0.617 -0.494 0.612 189 163 141 0 0
-1.4049 0.7447 -0.2888 0.139 -0.501 0.854 193 169 146 0 0
-1.3990 0.7502 -0.2884 0.201 -0.346 0.916 195 172 151 0 0
-1.0121 0.6361 -0.2926 0.002 -0.838 0.546 186 155 123 0 0
-1.0037 0.6356 -0.2926 0.073 -0.900 0.429 182 143 105 0 0
-0.9673 0.6485 -0.2914 0.316 -0.830 0.459 202 96 66 0 0
-0.9604 0.6518 -0.2911 0.379 -0.918 0.118 200 120 63 0 0
-0.9570 0.6535 -0.2910 0.520 -0.833 -0.190 181 100 51 0 0
-0.9539 0.6553 -0.2908 0.789 -0.599 0.133 174 94 43 0 0
-0.9593 0.6911 -0.2886 0.882 -0.314 0.352 146 100 22 0 0
-0.9581 0.6938 -0.2884 0.758 -0.556 0.341 146 100 21 0 0
-0.9236 0.6966 -0.2879 -0.037 -0.957 0.287 130 84 13 0 0
-0.9173 0.6967 -0.2878 0.013 -0.878 0.479 133 85 13 0 0
-0.9080 0.6986 -0.2876 0.195 -0.564 0.803 176 129 39 0 0
-0.8970 0.6962 -0.2877 -0.043 -0.860 0.509 162 113 30 0 0
-0.8941 0.6980 -0.2876 -0.121 -0.890 0.439 149 103 28 0 0
-0.8516 0.7117 -0.2863 0.375 -0.920 0.116 146 102 34 0 0
-0.8465 0.7122 -0.2862 0.280 -0.946 -0.164 144 101 36 0 0
-0.8672 0.8397 -0.2781 0.486 0.143 0.862 88 64 33 0 0
-0.8912 0.8663 -0.2765 0.745 0.570 0.347 90 71 38 0 0
-0.8758 0.8601 -0.2768 -0.119 -0.917 0.381 95 74 42 0 0
-0.8763 0.8642 -0.2765 -0.234 -0.957 0.174 104 78 44 0 0
-0.8428 0.8609 -0.2765 -0.212 -0.911 0.353 176 147 74 0 0
-0.7861 0.9042 -0.2732 0.330 -0.804 -0.495 193 158 72 0 0
-0.7795 0.9031 -0.2732 0.496 -0.625 -0.603 193 157 73 0 0
-0.7795 0.9070 -0.2729 0.880 -0.466 -0.086 193 158 74 0 0
-0.7902 0.9186 -0.2723 0.792 0.601 -0.106 190 153 71 0 0
-0.9823 1.3250 -0.2473 0.244 -0.477 0.844 198 179 162 0 0
-0.9792 1.3274 -0.2471 0.282 -0.472 0.835 196 178 159 0 0
-0.9678 1.3915 -0.2428 0.366 -0.691 0.623 196 178 159 0 0
-0.8333 1.5791 -0.2294 0.210 -0.547 0.810 187 169 153 0 0
-0.8296 1.5807 -0.2293 0.210 -0.547 0.810 189 171 157 0 0
-0.7149 1.6492 -0.2238 0.814 -0.559 0.157 183 166 150 0 0
-0.7122 1.6518 -0.2236 0.940 -0.340 -0.041 180 163 147 0 0
-0.7249 1.6953 -0.2209 0.451 -0.561 0.694 176 159 144 0 0
-0.6528 1.7756 -0.2151 0.292 -0.418 0.860 182 165 155 0 0
-0.5813 1.8410 -0.2102 0.401 -0.345 0.848 181 165 153 0 0
-0.5811 1.8478 -0.2097 0.451 -0.220 0.865 182 164 154 0 0
-0.5738 1.8570 -0.2091 0.642 0.047 0.765 184 168 156 0 0
-0.5423 1.9116 -0.2052 0.497 -0.868 0.001 182 166 153 0 0
-1.7533 0.2635 -0.3269 0.509 -0.309 0.803 180 159 135 0 0
-1.7464 0.2659 -0.3267 0.590 -0.695 0.412 177 155 131 0 0
-1.7539 0.2701 -0.3265 0.175 -0.764 0.621 178 158 134 0 0
-1.6900 0.3268 -0.3223 0.262 -0.475 0.840 180 160 137 0 0
-1.6701 0.3637 -0.3197 0.211 -0.483 0.849 181 161 137 0 0
-1.6486 0.3868 -0.3180 0.226 -0.671 0.706 183 163 139 0 0
-1.6337 0.3873 -0.3178 0.097 -0.950 0.297 188 167 146 0 0
-1.6214 0.3883 -0.3176 0.442 -0.473 0.762 192 172 150 0 0
-1.6009 0.4458 -0.3137 0.961 -0.252 0.118 198 182 164 0 0
-1.5995 0.4594 -0.3128 0.502 -0.658 0.562 187 166 142 0 0
-1.5961 0.4622 -0.3126 0.502 -0.658 0.562 183 161 137 0 0
-1.5566 0.5199 -0.3085 0.269 -0.214 0.939 191 169 145 0 0
-1.5578 0.5238 -0.3083 0.148 -0.473 0.868 193 173 149 0 0
-1.5471 0.5281 -0.3079 0.161 -0.462 0.872 199 180 156 0 0
-1.5263 0.5513 -0.3062 0.164 -0.548 0.820 192 172 148 0 0
-1.4931 0.5890 -0.3035 0.287 -0.461 0.840 191 172 147 0 0
-1.4939 0.5929 -0.3032 0.189 -0.602 0.776 191 170 145 0 0
-1.4582 0.6074 -0.3019 0.529 -0.366 0.766 187 165 141 0 0
-1.4630 0.6276 -0.3007 0.937 0.092 0.336 192 171 150 0 0
-1.4627 0.6312 -0.3005 0.682 -0.470 0.560 190 169 147 0 0
-1.4608 0.6343 -0.3002 0.682 -0.470 0.560 191 170 148 0 0
-1.4591 0.6375 -0.3000 0.519 -0.595 0.613 189 166 144 0 0
-1.4600 0.6416 -0.2998 0.673 -0.166 0.720 182 158 134 0 0
-1.4590 0.6450 -0.2995 0.604 -0.423 0.675 179 155 131 0 0
-1.4558 0.6477 -0.2993 0.645 -0.220 0.732 176 152 127 0 0
-1.4554 0.6514 -0.2991 0.745 -0.008 0.667 175 150 127 0 0
-1.4559 0.6553 -0.2988 0.534 -0.286 0.795 178 155 131 0 0
-1.4523 0.6579 -0.2986 0.438 -0.520 0.733 182 158 134 0 0
-1.4496 0.6799 -0.2972 0.607 0.136 0.783 157 131 110 0 0
-1.4158 0.7216 -0.2942 0.521 -0.238 0.820 186 158 137 0 0
-1.4111 0.7276 -0.2938 0.394 -0.516 0.761 186 160 136 0 0
-1.0052 0.6331 -0.2958 0.125 -0.879 0.460 191 159 128 0 0
-0.9865 0.6411 -0.2951 0.942 -0.331 0.057 188 94 63 0 0
-0.9842 0.6466 -0.2947 0.708 -0.611 -0.354 194 90 63 0 0
-0.9561 0.6500 -0.2942 0.518 -0.782 0.346 198 100 69 0 0
-0.9546 0.6525 -0.2941 0.654 -0.727 0.210 181 93 52 0 0
-0.9527 0.6549 -0.2939 0.806 -0.577 0.134 180 113 47 0 0
-0.9538 0.6885 -0.2917 0.469 -0.784 -0.407 143 98 21 0 0
-0.9530 0.6915 -0.2915 0.536 -0.773 -0.340 144 98 22 0 0
-0.9433 0.6967 -0.2911 0.662 -0.748 0.046 140 96 17 0 0
-0.8605 0.6969 -0.2903 0.680 -0.455 0.575 142 96 28 0 0
-0.8463 0.7222 -0.2885 0.977 0.045 0.209 164 124 53 0 0
-0.8467 0.7325 -0.2879 0.770 0.006 0.639 140 102 36 0 0
-0.8844 0.7643 -0.2862 0.531 -0.691 -0.490 106 73 22 0 0
-0.8823 0.7666 -0.2860 0.777 -0.372 -0.508 116 82 23 0 0
-0.8584 0.8343 -0.2814 0.436 -0.005 0.900 88 65 32 0 0
-0.7940 0.8467 -0.2800 0.791 -0.607 0.073 217 213 150 0 0
-0.7765 0.8899 -0.2771 0.876 0.468 -0.116 195 161 72 0 0
-0.7750 0.8925 -0.2769 0.973 0.229 0.013 194 159 71 0 0
-0.7803 0.9002 -0.2764 0.917 -0.308 -0.252 194 159 71 0 0
-0.7821 0.9091 -0.2759 0.471 -0.621 0.626 193 157 75 0 0
-0.7809 0.9120 -0.2757 0.233 -0.784 0.575 191 154 72 0 0
-0.8084 0.9401 -0.2742 0.929 0.327 -0.174 191 155 83 0 0
-1.0536 1.1552 -0.2628 0.704 -0.232 0.671 211 195 177 0 0
-0.9789 1.3222 -0.2513 0.419 -0.391 0.819 198 179 160 0 0
-0.9691 1.3877 -0.2470 0.324 -0.838 0.440 193 175 157 0 0
-0.9657 1.3898 -0.2468 0.410 -0.775 0.481 195 177 159 0 0
-0.7554 1.6541 -0.2278 0.248 -0.417 0.875 189 171 157 0 0
-0.7133 1.6348 -0.2286 0.730 -0.684 -0.002 184 166 151 0 0
-0.7107 1.6375 -0.2284 0.730 -0.684 -0.002 182 165 149 0 0
-0.6598 1.7529 -0.2205 0.481 -0.698 -0.530 172 154 140 0 0
-0.5775 1.8350 -0.2144 0.401 -0.345 0.848 181 164 152 0 0
-0.5521 1.9076 -0.2095 0.207 -0.848 0.487 180 163 149 0 0
-0.5485 1.9085 -0.2094 0.207 -0.848 0.487 172 155 139 0 0
-1.7562 0.2607 -0.3309 0.240 -0.561 0.792 173 151 128 0 0
-1.7474 0.2628 -0.3307 0.464 -0.438 0.770 170 149 125 0 0
-1.7436 0.2656 -0.3305 0.567 -0.810 0.149 174 153 129 0 0
-1.7392 0.2683 -0.3303 0.306 -0.939 0.155 177 156 132 0 0
-1.7322 0.2706 -0.3300 0.306 -0.939 0.155 177 155 131 0 0
-1.7235 0.2727 -0.3298 0.398 -0.859 -0.322 178 158 134 0 0
-1.7180 0.2752 -0.3296 0.398 -0.859 -0.322 180 162 137 0 0
-1.7299 0.2801 -0.3294 0.640 -0.280 0.716 183 163 139 0 0
-1.7174 0.3047 -0.3277 0.257 -0.647 0.718 190 174 154 0 0
-1.6931 0.3208 -0.3264 0.400 -0.545 0.737 184 166 142 0 0
-1.6848 0.3261 -0.3260 0.314 -0.668 0.675 180 159 136 0 0
-1.6799 0.3286 -0.3258 0.314 -0.668 0.675 184 165 141 0 0
-1.6710 0.3471 -0.3245 0.686 0.095 0.721 193 176 155 0 0
-1.6555 0.3645 -0.3232 0.241 -0.458 0.856 186 167 145 0 0
-1.6548 0.3678 -0.3230 0.215 -0.506 0.835 189 172 147 0 0
-1.6374 0.3848 -0.3218 0.202 -0.849 0.489 184 164 140 0 0
-1.6294 0.3866 -0.3216 0.097 -0.950 0.297 185 165 143 0 0
-1.6143 0.3904 -0.3211 0.783 -0.547 0.298 192 174 153 0 0
-1.6123 0.3934 -0.3209 0.783 -0.547 0.298 191 173 151 0 0
-1.6183 0.4185 -0.3194 0.517 -0.706 0.484 178 157 133 0 0
-1.6176 0.4218 -0.3192 0.683 -0.554 0.476 177 155 132 0 0
-1.5460 0.5029 -0.3133 0.675 -0.486 0.555 184 161 139 0 0
-1.5460 0.5064 -0.3131 0.456 -0.665 0.591 186 164 142 0 0
-1.5424 0.5090 -0.3128 0.456 -0.665 0.591 187 165 142 0 0
-1.5429 0.5127 -0.3126 0.367 -0.550 0.750 181 159 135 0 0
-1.5405 0.5228 -0.3120 0.179 -0.533 0.827 189 170 146 0 0
-1.4846 0.5865 -0.3073 0.774 -0.168 0.611 186 165 141 0 0
-1.4792 0.5921 -0.3069 0.186 -0.983 0.003 182 158 133 0 0
-1.4732 0.5939 -0.3067 0.088 -0.988 0.127 179 155 131 0 0
-1.4680 0.5959 -0.3065 0.246 -0.964 0.096 184 160 135 0 0
-1.4615 0.5975 -0.3064 0.196 -0.980 0.042 184 162 138 0 0
-1.4591 0.6301 -0.3043 0.587 -0.162 0.793 200 182 161 0 0
-1.4492 0.6531 -0.3027 0.484 -0.161 0.860 178 153 129 0 0
-1.4479 0.6565 -0.3025 0.423 -0.422 0.802 178 154 130 0 0
-1.4445 0.6591 -0.3023 0.456 -0.439 0.774 179 155 131 0 0
-1.4426 0.6622 -0.3021 0.502 -0.249 0.828 181 156 133 0 0
-1.4443 0.7053 -0.2994 0.196 -0.220 0.956 200 176 154 0 0
-1.4121 0.7203 -0.2981 0.392 -0.203 0.897 179 149 128 0 0
-1.0048 0.6331 -0.2989 0.791 -0.602 -0.114 195 164 134 0 0
-1.0060 0.6369 -0.2987 0.022 -1.000 0.005 194 156 115 0 0
-0.9896 0.6394 -0.2983 0.965 -0.255 0.059 188 94 62 0 0
-0.9537 0.6490 -0.2973 0.730 -0.433 0.528 224 126 103 0 0
-0.9520 0.6911 -0.2946 0.174 -0.813 0.556 143 97 20 0 0
-0.9503 0.6936 -0.2945 0.226 -0.922 0.314 142 96 19 0 0
-0.9470 0.6953 -0.2943 -0.051 -0.969 0.243 141 95 19 0 0
-0.9400 0.6952 -0.2942 0.589 -0.569 0.574 133 88 12 0 0
-0.9291 0.6930 -0.2943 -0.124 -0.913 0.389 147 103 27 0 0
-0.9206 0.6921 -0.2942 -0.112 -0.886 0.449 139 95 21 0 0
-0.9121 0.6910 -0.2942 -0.059 -0.843 0.534 138 93 20 0 0
-0.8495 0.7042 -0.2926 0.383 -0.783 0.489 147 103 35 0 0
-0.8416 0.7098 -0.2922 0.733 -0.675 -0.079 138 94 28 0 0
-0.8441 0.7211 -0.2915 0.870 -0.394 0.298 167 128 58 0 0
-0.8432 0.7240 -0.2913 0.779 -0.485 0.397 156 115 45 0 0
-0.8433 0.7274 -0.2911 0.789 -0.278 0.548 145 105 33 0 0
-0.8447 0.7383 -0.2904 0.596 0.431 0.677 118 83 24 0 0
-0.8524 0.8307 -0.2847 0.057 -0.498 0.865 91 67 36 0 0
-0.7894 0.8956 -0.2799 0.767 0.611 0.198 196 164 75 0 0
-0.7772 0.8906 -0.2801 0.939 0.342 -0.042 194 161 72 0 0
-0.7751 0.8928 -0.2799 0.985 -0.025 0.173 194 159 72 0 0
-0.7788 0.9031 -0.2793 0.981 -0.187 0.049 193 157 73 0 0
-0.7845 0.9111 -0.2789 0.103 -0.884 0.455 194 157 74 0 0
-0.7801 0.9116 -0.2788 0.103 -0.884 0.455 192 155 72 0 0
-0.8094 0.9410 -0.2773 0.908 0.391 -0.149 191 156 83 0 0
-1.0255 1.2759 -0.2586 0.344 -0.563 0.752 175 147 125 0 0
-0.8601 1.4700 -0.2445 0.619 -0.395 0.679 191 173 158 0 0
-0.8578 1.5018 -0.2425 0.996 0.092 -0.022 176 155 137 0 0
-0.8571 1.5068 -0.2422 0.734 -0.650 -0.195 179 158 143 0 0
-0.8535 1.5145 -0.2416 0.963 -0.269 0.022 186 167 152 0 0
-0.8523 1.5189 -0.2413 0.963 -0.269 0.022 184 166 150 0 0
-0.8510 1.5233 -0.2411 0.913 -0.394 0.109 183 166 150 0 0
-0.7651 1.6233 -0.2338 0.480 -0.876 -0.043 191 174 160 0 0
-0.7600 1.6417 -0.2326 0.878 -0.473 -0.077 197 182 169 0 0
-0.7518 1.6497 -0.2320 0.151 -0.573 0.805 190 172 158 0 0
-0.7369 1.6486 -0.2319 0.273 -0.849 0.453 191 175 159 0 0
-0.6380 1.7535 -0.2241 0.022 -0.997 0.074 178 161 148 0 0
-0.5703 1.8447 -0.2176 0.555 -0.598 0.578 179 163 151 0 0
-0.5708 1.8528 -0.2171 0.612 -0.452 0.649 180 165 152 0 0
-0.5474 1.9070 -0.2134 0.460 -0.828 0.320 173 156 139 0 0
-0.5345 1.9133 -0.2129 0.398 -0.704 0.588 183 168 153 0 0
-1.7404 0.2620 -0.3344 0.463 -0.322 0.826 174 154 130 0 0
-1.7375 0.2649 -0.3342 0.632 -0.758 0.160 185 166 142 0 0
-1.7342 0.2677 -0.3340 0.632 -0.758 0.160 180 161 137 0 0
-1.7309 0.2705 -0.3338 0.632 -0.758 0.160 176 156 131 0 0
-1.7258 0.2731 -0.3336 0.454 -0.831 0.321 176 155 130 0 0
-1.7199 0.2755 -0.3333 0.397 -0.870 0.292 172 152 127 0 0
-1.7118 0.2973 -0.3319 0.654 -0.678 0.337 190 171 149 0 0
-1.7086 0.3001 -0.3317 0.491 -0.817 0.302 193 176 153 0 0
-1.7092 0.3035 -0.3315 0.380 -0.750 0.542 202 186 168 0 0
-1.6916 0.3140 -0.3306 0.437 -0.277 0.856 204 189 169 0 0
-1.6902 0.3171 -0.3304 0.430 -0.244 0.869 194 178 155 0 0
-1.6878 0.3200 -0.3302 0.345 -0.637 0.689 184 166 142 0 0
-1.6796 0.3253 -0.3297 0.332 -0.941 0.068 186 166 144 0 0
-1.6743 0.3278 -0.3295 0.196 -0.978 0.070 193 175 153 0 0
-1.6666 0.3298 -0.3293 0.511 -0.707 0.489 191 172 150 0 0
-1.6395 0.3650 -0.3268 0.191 -0.577 0.794 184 165 141 0 0
-1.6263 0.3793 -0.3257 0.537 -0.382 0.752 179 157 133 0 0
-1.6213 0.3817 -0.3255 0.703 -0.588 0.399 182 160 136 0 0
-1.6155 0.4180 -0.3232 0.517 -0.706 0.484 162 139 115 0 0
-1.6152 0.4214 -0.3230 0.640 -0.622 0.452 167 143 119 0 0
-1.6145 0.4247 -0.3227 0.655 -0.357 0.666 169 146 121 0 0
-1.6115 0.4275 -0.3225 0.715 -0.320 0.622 169 147 124 0 0
-1.6078 0.4336 -0.3221 0.617 -0.414 0.670 174 151 127 0 0
-1.6060 0.4367 -0.3219 0.617 -0.414 0.670 178 156 133 0 0
-1.5789 0.4618 -0.3200 0.275 -0.416 0.867 173 150 126 0 0
-1.5695 0.4666 -0.3196 0.174 -0.491 0.854 165 140 117 0 0
-1.5202 0.5246 -0.3154 0.398 -0.645 0.652 191 170 146 0 0
-1.5113 0.5436 -0.3141 0.252 -0.476 0.843 184 161 136 0 0
-1.5019 0.5481 -0.3137 0.230 -0.465 0.855 190 168 144 0 0
-1.4985 0.5507 -0.3135 0.170 -0.624 0.762 186 164 140 0 0
-1.4848 0.5940 -0.3106 0.151 -0.867 0.475 174 148 123 0 0
-1.4442 0.6515 -0.3065 0.498 -0.466 0.732 172 146 123 0 0
-1.4421 0.6546 -0.3063 0.507 -0.542 0.670 172 147 123 0 0
-1.4396 0.6575 -0.3061 0.530 -0.551 0.645 182 159 135 0 0
-1.4371 0.6604 -0.3059 0.706 -0.256 0.660 185 161 138 0 0
-1.4367 0.6640 -0.3057 0.608 -0.260 0.750 182 157 135 0 0
-1.4403 0.6692 -0.3054 0.546 -0.034 0.837 173 148 125 0 0
-1.4430 0.6894 -0.3042 0.211 -0.260 0.942 180 155 131 0 0
-1.4369 0.6949 -0.3038 0.167 -0.332 0.928 191 167 143 0 0
-1.4203 0.7041 -0.3030 0.134 -0.384 0.913 199 178 156 0 0
-1.4067 0.7222 -0.3017 0.177 -0.543 0.821 170 140 117 0 0
-0.9875 0.6418 -0.3012 0.823 -0.568 0.004 184 83 59 0 0
-0.9858 0.6443 -0.3010 0.823 -0.568 0.004 183 81 59 0 0
-0.9548 0.6464 -0.3005 0.411 -0.797 0.443 195 89 67 0 0
-0.9508 0.6478 -0.3004 0.788 -0.149 0.597 197 96 71 0 0
-0.9430 0.6901 -0.2977 0.506 -0.789 0.349 141 96 20 0 0
-0.9452 0.6946 -0.2974 -0.144 -0.952 0.271 140 95 19 0 0
-0.9335 0.6921 -0.2974 -0.028 -0.731 0.682 136 91 16 0 0
-0.9252 0.6912 -0.2974 -0.124 -0.913 0.389 142 98 23 0 0
-0.9161 0.6899 -0.2973 -0.112 -0.886 0.449 139 96 21 0 0
-0.8749 0.6950 -0.2965 0.722 -0.559 0.406 143 97 29 0 0
-0.8732 0.6974 -0.2963 0.686 -0.614 0.391 148 104 33 0 0
-0.8709 0.6994 -0.2961 0.206 -0.893 0.401 144 98 31 0 0
-0.8639 0.7023 -0.2959 0.293 -0.907 0.304 150 105 36 0 0
-0.8423 0.7103 -0.2951 0.861 -0.509 0.011 144 101 34 0 0
-0.8438 0.7211 -0.2945 0.777 -0.360 0.517 144 103 33 0 0
-0.8427 0.7238 -0.2943 0.777 -0.360 0.517 139 96 28 0 0
-0.8397 0.7288 -0.2939 0.688 -0.228 0.689 151 114 36 0 0
-0.8418 0.8758 -0.2849 -0.049 -0.999 -0.005 214 206 129 0 0
-0.7783 0.8916 -0.2831 0.916 0.389 0.097 195 160 71 0 0
-0.7793 0.9037 -0.2823 0.828 -0.264 -0.494 193 155 70 0 0
-0.7793 0.9074 -0.2821 0.935 -0.277 -0.219 195 159 77 0 0
-0.7783 0.9105 -0.2819 0.935 -0.277 -0.219 194 157 74 0 0
-1.0488 1.1521 -0.2705 0.880 -0.095 0.465 206 188 164 0 0
-0.8746 1.4692 -0.2486 -0.108 -0.985 0.133 186 169 151 0 0
-0.8579 1.4679 -0.2485 0.935 -0.347 0.081 210 197 186 0 0
-0.8571 1.5014 -0.2464 0.970 -0.174 0.168 169 148 130 0 0
-0.8602 1.5108 -0.2459 0.708 -0.179 0.683 171 151 135 0 0
-0.8471 1.5192 -0.2452 0.783 -0.620 0.046 182 160 143 0 0
-0.7544 1.6410 -0.2364 0.053 -0.737 0.674 194 179 164 0 0
-0.6030 1.7458 -0.2280 0.589 -0.550 0.592 178 160 146 0 0
-0.6008 1.7490 -0.2278 0.674 -0.402 0.619 180 163 149 0 0
-0.5703 1.8236 -0.2228 0.530 -0.786 0.317 176 158 148 0 0
-0.5652 1.8434 -0.2215 0.403 -0.580 0.708 177 160 147 0 0
-0.5521 1.8863 -0.2187 0.936 -0.244 0.256 170 151 136 0 0
-0.5490 1.9031 -0.2176 0.362 -0.720 0.592 172 154 138 0 0
-1.7475 0.2307 -0.3402 0.375 0.086 0.923 169 144 122 0 0
-1.7326 0.2513 -0.3387 0.183 -0.607 0.774 181 160 137 0 0
-1.7350 0.2646 -0.3380 0.286 -0.577 0.765 195 177 155 0 0
-1.7274 0.2701 -0.3375 0.442 -0.744 0.501 179 158 135 0 0
-1.7226 0.2727 -0.3373 0.419 -0.805 0.420 173 152 128 0 0
-1.7177 0.2753 -0.3371 0.397 -0.870 0.292 172 150 126 0 0
-1.6833 0.3161 -0.3341 0.430 -0.244 0.869 194 177 155 0 0
-1.6806 0.3190 -0.3339 0.288 -0.580 0.762 187 169 147 0 0
-1.6806 0.3256 -0.3335 0.394 -0.882 -0.259 185 165 142 0 0
-1.6635 0.3294 -0.3330 0.779 -0.612 0.135 186 166 142 0 0
-1.6625 0.3325 -0.3328 0.838 -0.312 0.448 182 161 138 0 0
-1.6239 0.3723 -0.3298 0.394 -0.730 0.558 182 161 137 0 0
-1.6181 0.3745 -0.3296 0.252 -0.932 0.261 179 158 133 0 0
-1.6130 0.3802 -0.3292 0.636 -0.523 0.567 182 161 136 0 0
-1.6072 0.3825 -0.3290 0.616 -0.644 0.454 186 165 142 0 0
-1.6017 0.4289 -0.3261 0.638 -0.336 0.693 171 148 124 0 0
-1.6023 0.4325 -0.3259 0.776 -0.454 0.438 172 148 124 0 0
-1.6008 0.4357 -0.3256 0.830 -0.374 0.413 176 152 129 0 0
-1.5981 0.4385 -0.3254 0.660 -0.739 0.135 177 156 132 0 0
-1.5942 0.4411 -0.3252 0.573 -0.690 0.441 177 157 133 0 0
-1.5037 0.5416 -0.3178 0.313 -0.446 0.838 182 159 133 0 0
-1.4918 0.5453 -0.3174 0.189 -0.479 0.858 181 159 135 0 0
-1.4871 0.5475 -0.3172 0.189 -0.479 0.858 188 166 142 0 0
-1.4737 0.5472 -0.3171 0.190 -0.647 0.738 185 163 139 0 0
-1.4803 0.5927 -0.3144 0.151 -0.867 0.475 165 139 114 0 0
-1.4354 0.6561 -0.3099 0.526 -0.352 0.774 195 172 149 0 0
-1.4330 0.6591 -0.3097 0.451 -0.442 0.775 195 172 149 0 0
-1.4302 0.6619 -0.3095 0.466 -0.438 0.769 187 163 141 0 0
-1.4334 0.6668 -0.3092 0.483 -0.227 0.846 182 158 134 0 0
-1.4241 0.6864 -0.3079 0.188 -0.210 0.959 191 170 146 0 0
-1.3930 0.7209 -0.3054 0.349 -0.400 0.847 188 165 141 0 0
-1.3861 0.7298 -0.3047 0.489 -0.847 0.210 188 164 140 0 0
-0.9850 0.6409 -0.3043 0.737 -0.663 0.131 181 81 60 0 0
-0.9851 0.6442 -0.3041 0.827 -0.449 0.340 181 81 58 0 0
-0.9672 0.6490 -0.3036 0.058 -0.993 0.102 182 79 55 0 0
-0.9573 0.6477 -0.3035 0.177 -0.977 0.122 184 79 56 0 0
-0.9497 0.6506 -0.3032 0.806 -0.278 0.522 182 96 55 0 0
-0.9492 0.6536 -0.3030 0.840 -0.174 0.514 188 137 50 0 0
-0.9433 0.6871 -0.3009 0.306 -0.707 0.637 155 107 33 0 0
-0.9417 0.6896 -0.3007 0.506 -0.789 0.349 148 103 28 0 0
-0.8626 0.6952 -0.2992 0.344 -0.789 0.509 144 97 30 0 0
-0.8590 0.6965 -0.2991 0.538 -0.705 0.462 149 102 34 0 0
-0.8420 0.7203 -0.2974 0.663 -0.306 0.683 146 105 33 0 0
-0.8372 0.8106 -0.2919 0.485 -0.404 0.776 91 67 33 0 0
-0.8361 0.8243 -0.2910 0.668 -0.040 0.743 90 67 34 0 0
-0.7975 0.8208 -0.2907 0.892 0.425 0.156 116 87 47 0 0
-0.7990 0.8254 -0.2904 0.919 0.362 0.159 121 92 49 0 0
-0.8592 0.8840 -0.2878 -0.239 -0.722 -0.650 211 199 114 0 0
-0.7986 0.8504 -0.2889 0.079 -0.987 -0.140 212 209 142 0 0
-0.7596 0.8599 -0.2878 0.575 -0.151 0.804 205 181 96 0 0
-0.7818 0.8868 -0.2865 0.866 0.499 -0.027 198 165 74 0 0
-0.7857 0.9123 -0.2850 0.088 -0.785 -0.613 194 157 73 0 0
-0.7808 0.9126 -0.2849 0.054 -0.788 -0.614 194 157 74 0 0
-0.8136 0.9526 -0.2829 0.958 0.202 0.202 199 170 135 0 0
-0.9617 1.2971 -0.2642 0.653 -0.730 0.202 198 180 161 0 0
-0.9140 1.4327 -0.2553 0.445 -0.276 0.852 198 181 164 0 0
-0.8994 1.4286 -0.2553 0.082 -0.457 0.886 197 180 165 0 0
-0.8543 1.4987 -0.2504 0.705 -0.709 -0.019 167 144 128 0 0
-0.8523 1.5021 -0.2502 0.426 -0.866 -0.263 165 143 127 0 0
-0.8498 1.5051 -0.2500 0.058 -0.964 -0.258 172 153 136 0 0
-0.8466 1.5072 -0.2498 0.583 -0.807 0.099 180 161 144 0 0
-0.8038 1.5750 -0.2451 0.862 -0.486 -0.140 185 168 152 0 0
-0.7559 1.6372 -0.2406 0.078 -0.760 0.645 197 182 170 0 0
-0.7054 1.6761 -0.2375 0.067 -0.596 0.800 166 145 131 0 0
-0.6364 1.7518 -0.2319 0.245 -0.697 0.674 167 148 136 0 0
-0.6157 1.7462 -0.2320 -0.240 -0.971 -0.016 165 145 130 0 0
-0.5787 1.8173 -0.2271 0.362 -0.927 -0.097 189 173 161 0 0
-0.5752 1.8183 -0.2270 0.485 -0.875 0.009 198 184 174 0 0
-0.5690 1.8218 -0.2267 0.485 -0.875 0.009 175 158 145 0 0
-0.5468 1.8997 -0.2217 0.639 -0.743 0.199 191 174 157 0 0
-0.5437 1.9014 -0.2215 0.146 -0.981 -0.123 181 164 146 0 0
-1.7252 0.2473 -0.3426 0.214 -0.579 0.786 184 163 139 0 0
-1.7219 0.2662 -0.3414 0.289 -0.533 0.795 179 158 133 0 0
-1.7183 0.2690 -0.3412 0.337 -0.525 0.782 175 154 130 0 0
-1.7145 0.2717 -0.3410 0.337 -0.525 0.782 173 152 127 0 0
-1.6597 0.3355 -0.3363 0.782 -0.274 0.559 167 143 121 0 0
-1.6224 0.3587 -0.3343 0.331 -0.459 0.825 188 168 144 0 0
-1.6058 0.3722 -0.3333 0.627 -0.273 0.730 184 163 138 0 0
-1.6089 0.3795 -0.3329 0.615 -0.191 0.765 175 153 129 0 0
-1.6071 0.3825 -0.3327 0.342 -0.592 0.730 173 150 124 0 0
-1.6007 0.3846 -0.3324 0.431 -0.453 0.780 180 159 135 0 0
-1.5049 0.5206 -0.3228 0.386 -0.264 0.884 190 170 145 0 0
-1.4759 0.5408 -0.3212 0.164 -0.457 0.874 193 172 147 0 0
-1.4734 0.5436 -0.3210 0.144 -0.618 0.773 192 171 147 0 0
-1.4663 0.5451 -0.3208 0.190 -0.647 0.738 189 167 144 0 0
-1.4627 0.5477 -0.3205 0.399 -0.520 0.755 186 163 138 0 0
-1.4505 0.5981 -0.3174 0.144 -0.721 0.678 197 181 158 0 0
-1.4470 0.6006 -0.3171 0.289 -0.604 0.743 189 169 145 0 0
-1.4366 0.6454 -0.3143 0.654 -0.428 0.623 174 148 125 0 0
-1.4345 0.6522 -0.3139 0.424 -0.737 0.526 174 149 126 0 0
-1.4324 0.6552 -0.3137 0.422 -0.611 0.670 192 169 147 0 0
-1.4255 0.6603 -0.3133 0.466 -0.438 0.769 189 165 143 0 0
-1.4203 0.6660 -0.3128 0.507 -0.010 0.862 182 159 136 0 0
-1.4089 0.6847 -0.3115 0.128 -0.369 0.921 193 170 148 0 0
-1.3984 0.6961 -0.3107 0.137 -0.447 0.884 192 170 147 0 0
-1.3958 0.6989 -0.3105 0.345 -0.012 0.939 197 176 154 0 0
-1.3983 0.7192 -0.3093 0.431 -0.646 0.630 209 192 173 0 0
-1.3927 0.7248 -0.3089 0.502 -0.836 0.223 190 165 140 0 0
-1.3888 0.7272 -0.3087 0.795 -0.574 0.197 184 156 132 0 0
-0.9844 0.6407 -0.3074 0.718 -0.689 -0.099 178 80 59 0 0
-0.9825 0.6431 -0.3072 0.763 -0.612 0.208 179 79 58 0 0
-0.9793 0.6449 -0.3070 0.760 -0.535 0.368 179 80 57 0 0
-0.9786 0.6479 -0.3069 0.632 -0.493 0.598 178 78 55 0 0
-0.9558 0.6471 -0.3065 0.271 -0.959 0.082 178 76 53 0 0
-0.9422 0.6867 -0.3040 0.603 -0.567 0.562 149 102 32 0 0
-0.9402 0.6890 -0.3038 0.603 -0.567 0.562 144 100 27 0 0
-0.8574 0.6958 -0.3021 0.538 -0.705 0.462 147 100 32 0 0
-0.8498 0.7016 -0.3016 0.262 -0.965 0.008 161 114 36 0 0
-0.8453 0.7024 -0.3015 0.639 -0.718 -0.277 161 114 36 0 0
-0.8382 0.7216 -0.3002 0.586 -0.617 0.525 151 110 37 0 0
-0.8305 0.7307 -0.2996 0.930 -0.161 0.329 145 103 30 0 0
-0.8411 0.7989 -0.2957 0.764 -0.616 0.193 110 79 38 0 0
-0.8406 0.8022 -0.2955 0.748 -0.656 0.103 97 70 36 0 0
-0.8386 0.8045 -0.2953 0.748 -0.656 0.103 97 70 35 0 0
-0.8320 0.8110 -0.2948 0.396 -0.459 0.795 90 64 30 0 0
-0.7968 0.8205 -0.2937 0.892 0.425 0.156 110 83 43 0 0
-0.8016 0.8308 -0.2932 0.911 0.389 0.137 128 96 51 0 0
-0.8038 0.8359 -0.2929 0.928 0.357 0.109 165 131 66 0 0
-0.8060 0.8410 -0.2926 0.966 0.255 -0.038 197 171 82 0 0
-0.7604 0.8570 -0.2909 0.642 -0.184 0.744 205 181 97 0 0
-0.9634 1.2937 -0.2682 0.635 -0.730 0.252 200 180 161 0 0
-0.9609 1.2967 -0.2680 0.696 -0.676 0.243 193 174 155 0 0
-0.9089 1.4277 -0.2594 0.439 -0.269 0.857 196 178 162 0 0
-0.8650 1.4150 -0.2595 0.282 -0.952 -0.124 208 196 187 0 0
-0.8627 1.4180 -0.2593 0.846 -0.533 0.017 203 190 178 0 0
-0.8567 1.4673 -0.2562 0.877 -0.466 0.116 190 172 156 0 0
-0.8545 1.4993 -0.2543 0.671 -0.739 -0.062 154 131 117 0 0
-0.8496 1.5052 -0.2539 0.193 -0.920 0.342 155 134 117 0 0
-0.8085 1.5691 -0.2494 0.530 -0.744 -0.407 184 165 147 0 0
-0.8033 1.5749 -0.2490 0.671 -0.668 -0.323 187 168 153 0 0
-0.7437 1.6339 -0.2445 0.490 -0.204 0.848 182 165 150 0 0
-0.7412 1.6368 -0.2443 0.546 -0.733 0.405 185 167 153 0 0
-0.7390 1.6401 -0.2441 -0.059 -0.944 0.324 185 168 153 0 0
-0.5785 1.8175 -0.2310 0.341 -0.939 -0.050 179 162 148 0 0
-0.5748 1.8182 -0.2309 0.535 -0.845 -0.010 187 171 159 0 0
-0.5688 1.8220 -0.2306 0.535 -0.845 -0.010 181 164 149 0 0
-0.5659 1.8242 -0.2304 0.557 -0.830 0.043 165 146 133 0 0
-0.5389 1.9007 -0.2254 -0.006 -0.971 0.241 164 144 127 0 0
-1.7325 0.2418 -0.3467 0.276 -0.489 0.828 190 170 147 0 0
-1.7174 0.2464 -0.3462 0.182 -0.940 0.288 182 161 138 0 0
-1.5820 0.4420 -0.3325 0.372 -0.827 0.422 187 168 144 0 0
-1.5781 0.4446 -0.3322 0.402 -0.709 0.579 186 165 141 0 0
-1.5740 0.4471 -0.3320 0.402 -0.709 0.579 182 160 136 0 0
-1.5720 0.4501 -0.3318 0.455 -0.480 0.750 178 155 131 0 0
-1.5694 0.4530 -0.3316 0.572 -0.387 0.723 176 154 131 0 0
-1.5653 0.4555 -0.3314 0.655 -0.555 0.513 179 157 134 0 0
-1.5605 0.4578 -0.3312 0.678 -0.604 0.418 180 158 134 0 0
-1.5331 0.4651 -0.3303 0.293 -0.677 0.676 191 173 152 0 0
-1.5280 0.4673 -0.3300 0.223 -0.726 0.650 199 183 163 0 0
-1.5012 0.5268 -0.3261 0.075 -0.969 0.237 172 149 123 0 0
-1.4945 0.5285 -0.3259 0.221 -0.770 0.599 179 157 131 0 0
-1.4896 0.5307 -0.3257 0.226 -0.653 0.723 186 164 138 0 0
-1.4830 0.5323 -0.3255 0.271 -0.529 0.804 189 168 143 0 0
-1.4684 0.5388 -0.3248 0.205 -0.540 0.816 190 168 145 0 0
-1.4643 0.5411 -0.3246 0.144 -0.618 0.773 187 166 141 0 0
-1.4589 0.5431 -0.3244 0.190 -0.647 0.738 186 165 140 0 0
-1.4435 0.5960 -0.3211 0.144 -0.721 0.678 208 192 170 0 0
-1.4411 0.5988 -0.3209 0.289 -0.604 0.743 191 171 149 0 0
-1.4378 0.6014 -0.3207 0.488 -0.361 0.795 187 165 141 0 0
-1.4301 0.6098 -0.3200 0.512 -0.731 0.452 180 155 130 0 0
-1.4256 0.6157 -0.3196 0.969 0.236 -0.077 179 154 128 0 0
-1.4204 0.6586 -0.3170 0.376 -0.624 0.685 187 163 142 0 0
-1.4209 0.6626 -0.3168 0.301 -0.349 0.887 188 164 143 0 0
-1.4140 0.6639 -0.3166 0.507 -0.010 0.862 195 174 151 0 0
-1.4138 0.6676 -0.3164 0.455 -0.077 0.887 197 176 156 0 0
-1.3940 0.6830 -0.3151 0.172 -0.504 0.847 193 171 148 0 0
-1.3923 0.6862 -0.3149 0.184 -0.423 0.887 194 172 149 0 0
-1.3837 0.6906 -0.3145 0.343 -0.086 0.935 190 166 144 0 0
-1.3830 0.6941 -0.3143 0.315 -0.102 0.944 197 176 154 0 0
-0.9780 0.6412 -0.3103 0.769 -0.608 -0.198 176 79 57 0 0
-0.9755 0.6434 -0.3101 0.838 -0.474 0.270 176 77 54 0 0
-0.9736 0.6457 -0.3100 0.789 -0.578 -0.209 174 74 53 0 0
-0.9401 0.6858 -0.3070 0.674 -0.531 -0.513 135 88 23 0 0
-0.9379 0.6880 -0.3069 0.680 -0.633 -0.369 138 89 24 0 0
-0.9107 0.6876 -0.3064 0.118 -0.951 -0.287 134 86 23 0 0
-0.8821 0.6927 -0.3056 0.431 -0.798 -0.421 223 184 72 0 0
-0.8753 0.6957 -0.3053 0.223 -0.967 -0.120 196 150 62 0 0
-0.8229 0.7198 -0.3030 0.568 -0.776 0.273 148 106 33 0 0
-0.8132 0.7275 -0.3024 0.729 -0.650 0.215 160 118 39 0 0
-0.7998 0.8262 -0.2964 0.872 0.430 -0.236 119 93 50 0 0
-0.8023 0.8315 -0.2961 0.872 0.430 -0.236 159 130 64 0 0
-0.8049 0.8368 -0.2959 0.872 0.430 -0.236 208 184 93 0 0
-0.8072 0.8420 -0.2956 0.978 0.206 -0.016 207 186 90 0 0
-0.7926 0.8504 -0.2949 0.574 -0.789 -0.218 224 222 172 0 0
-0.7576 0.8552 -0.2940 0.842 -0.123 0.526 205 181 97 0 0
-0.9584 1.2998 -0.2716 0.831 -0.485 0.274 191 171 152 0 0
-0.9327 1.3435 -0.2686 0.080 -0.815 0.573 206 191 175 0 0
-0.9281 1.3444 -0.2685 0.289 -0.700 0.652 207 193 179 0 0
-0.8719 1.4171 -0.2633 -0.167 -0.942 0.290 208 194 183 0 0
-0.8651 1.4154 -0.2633 0.282 -0.952 -0.124 211 201 192 0 0
-0.8059 1.5724 -0.2531 0.641 -0.762 -0.097 179 159 142 0 0
-0.7630 1.6161 -0.2498 0.794 -0.418 0.440 190 173 158 0 0
-0.7582 1.6161 -0.2497 0.685 -0.360 0.634 191 175 162 0 0
-0.6984 1.6671 -0.2457 0.095 -0.607 0.789 183 166 151 0 0
-0.6964 1.6706 -0.2455 -0.236 -0.743 0.626 197 183 170 0 0
-0.5777 1.8166 -0.2349 0.532 -0.843 0.078 168 151 136 0 0
-0.5747 1.8185 -0.2347 0.584 -0.800 0.134 166 148 133 0 0
-0.5656 1.8242 -0.2342 0.557 -0.830 0.043 180 163 149 0 0
-0.5507 1.8340 -0.2334 0.577 -0.705 0.412 176 159 144 0 0
-0.5049 1.8900 -0.2293 0.033 -0.602 0.798 174 159 145 0 0
-0.5011 1.8903 -0.2292 0.075 -0.572 0.817 172 156 144 0 0
-1.7158 0.2463 -0.3499 0.261 -0.951 0.167 176 155 132 0 0
-1.6777 0.2861 -0.3469 0.314 -0.498 0.809 183 164 141 0 0
-1.5829 0.3913 -0.3391 0.422 -0.513 0.748 198 179 155 0 0
-1.5779 0.4071 -0.3381 0.279 -0.467 0.839 180 159 136 0 0
-1.5748 0.4440 -0.3360 0.348 -0.893 0.287 183 162 138 0 0
-1.5673 0.4457 -0.3357 0.396 -0.834 0.384 178 156 132 0 0
-1.5629 0.4481 -0.3355 0.478 -0.588 0.652 178 156 132 0 0
-1.5092 0.4765 -0.3328 0.451 -0.431 0.781 194 176 155 0 0
-1.4996 0.5123 -0.3306 0.418 -0.424 0.804 188 167 141 0 0
-1.4972 0.5152 -0.3304 0.372 -0.574 0.730 188 167 141 0 0
-1.4769 0.5307 -0.3291 0.379 -0.438 0.815 180 159 133 0 0
-1.4715 0.5327 -0.3289 0.379 -0.505 0.776 181 160 133 0 0
-1.4673 0.5351 -0.3287 0.194 -0.890 0.412 184 163 136 0 0
-1.4609 0.5367 -0.3285 0.164 -0.875 0.456 184 163 138 0 0
-1.4565 0.5390 -0.3283 0.129 -0.898 0.422 182 160 136 0 0
-1.4529 0.5415 -0.3281 0.294 -0.575 0.763 182 161 135 0 0
-1.4332 0.5964 -0.3246 0.221 -0.762 0.609 189 167 143 0 0
