ply
format ascii 1.0
element vertex 817
property float x
property float y
property float z
property float nx
property float ny
property float nz
property uchar diffuse_red
property uchar diffuse_green
property uchar diffuse_blue
property uchar class
property uchar detection
end_header
-1.5773 0.5188 -0.3205 0.306 -0.803 0.510 171 144 116 0 0
-1.5751 0.5191 -0.3214 0.306 -0.803 0.510 170 143 115 0 0
-1.4913 0.5211 -0.3481 0.565 -0.728 0.388 169 144 116 0 0
-1.4812 0.5250 -0.3534 -0.036 -0.578 0.816 199 181 156 0 0
-1.4665 0.5297 -0.3605 0.068 -0.448 0.891 179 155 127 0 0
-1.4505 0.5283 -0.3646 0.450 -0.674 0.586 180 156 125 0 0
-1.4357 0.5115 -0.3600 -0.700 -0.552 0.453 182 157 126 0 0
-1.2185 0.5320 -0.4378 0.343 -0.760 0.552 181 153 123 0 0
-1.2053 0.5369 -0.4446 0.179 -0.948 0.263 172 142 114 0 0
-1.1672 0.5362 -0.4559 -0.046 -0.884 0.465 200 175 145 0 0
-1.1578 0.5382 -0.4599 -0.416 -0.772 0.480 191 162 132 0 0
-1.0552 0.5720 -0.5097 -0.283 -0.856 0.432 198 169 143 0 0
-1.0524 0.5711 -0.5101 -0.263 -0.892 0.369 198 168 143 0 0
-1.0470 0.5702 -0.5113 0.207 -0.952 0.227 183 149 122 0 0
-1.0447 0.5713 -0.5126 0.095 -0.856 0.508 184 149 121 0 0
-1.0420 0.5709 -0.5132 0.177 -0.983 0.056 181 146 119 0 0
-1.0399 0.5729 -0.5149 0.410 -0.911 -0.041 178 143 116 0 0
-1.0372 0.5725 -0.5156 0.686 -0.725 -0.064 180 145 118 0 0
-1.0351 0.5745 -0.5173 0.708 -0.706 -0.025 183 149 121 0 0
-1.0325 0.5748 -0.5182 0.551 -0.806 0.216 183 149 121 0 0
-1.0298 0.5740 -0.5187 0.129 -0.868 0.480 176 140 113 0 0
-1.0271 0.5740 -0.5194 0.129 -0.868 0.480 172 136 110 0 0
-1.0088 0.5732 -0.5246 0.053 -0.805 0.591 181 147 120 0 0
-1.0060 0.5724 -0.5250 0.446 -0.755 0.481 191 163 135 0 0
-1.0035 0.5724 -0.5258 0.329 -0.740 0.587 199 174 150 0 0
-1.0008 0.5723 -0.5266 0.508 -0.718 0.476 201 176 153 0 0
-0.9986 0.5740 -0.5282 0.548 -0.832 0.082 203 181 157 0 0
-0.9959 0.5734 -0.5287 0.663 -0.685 0.303 202 179 156 0 0
-0.9478 0.5648 -0.5388 -0.116 -0.443 0.889 210 187 161 0 0
-0.9367 0.5763 -0.5485 -0.011 -0.257 0.966 192 165 136 0 0
-0.9340 0.5755 -0.5488 0.332 -0.511 0.793 192 165 136 0 0
-0.9315 0.5761 -0.5499 0.414 -0.658 0.629 190 160 131 0 0
-0.9290 0.5765 -0.5509 0.408 -0.792 0.455 182 151 122 0 0
-0.9264 0.5769 -0.5519 0.032 -0.897 0.441 189 159 133 0 0
-0.8486 0.5485 -0.5604 0.112 -0.542 0.833 204 184 163 0 0
-0.8440 0.5543 -0.5649 -0.188 -0.933 0.306 196 174 150 0 0
-0.8171 0.5726 -0.5831 -0.347 -0.852 0.393 199 178 154 0 0
-0.8145 0.5719 -0.5836 -0.396 -0.824 0.406 200 179 156 0 0
-0.7912 0.5695 -0.5894 0.442 -0.885 0.147 187 163 139 0 0
-0.7396 0.5825 -0.6123 0.322 -0.713 0.623 175 152 126 0 0
-0.6754 0.5668 -0.6235 0.915 -0.403 -0.012 190 169 145 0 0
-0.6725 0.5733 -0.6279 0.904 -0.422 -0.066 185 162 139 0 0
-0.5965 0.5829 -0.6565 -0.101 -0.906 0.412 166 139 117 0 0
-0.5765 0.5769 -0.6593 -0.020 -0.987 0.157 201 187 170 0 0
-0.5714 0.5764 -0.6606 -0.329 -0.924 0.195 206 195 177 0 0
-0.5633 0.5791 -0.6646 0.530 -0.313 0.788 198 182 163 0 0
-0.5492 0.5865 -0.6729 0.766 -0.241 0.596 171 145 118 0 0
-0.4872 0.5840 -0.6906 0.332 -0.388 0.860 191 171 149 0 0
-0.4644 0.5694 -0.6897 -0.111 -0.965 0.237 174 152 129 0 0
-0.4207 0.5905 -0.7146 0.249 -0.676 0.694 184 163 139 0 0
-0.4184 0.5890 -0.7144 0.443 -0.766 0.466 184 164 140 0 0
-0.3752 0.5853 -0.7257 0.064 -0.694 0.717 178 158 134 0 0
-0.3252 0.5874 -0.7422 -0.033 -0.730 0.683 185 168 148 0 0
-0.3181 0.5933 -0.7476 0.579 -0.416 0.701 187 170 150 0 0
-0.3148 0.5952 -0.7496 0.611 -0.384 0.692 188 171 151 0 0
-0.2761 0.6161 -0.7729 0.472 -0.432 0.769 179 160 137 0 0
-0.2502 0.6072 -0.7760 0.154 -0.506 0.849 179 158 135 0 0
-0.2480 0.6059 -0.7760 0.303 -0.553 0.776 183 165 142 0 0
-0.2321 0.6129 -0.7847 0.481 -0.709 0.515 154 133 112 0 0
-0.2286 0.6152 -0.7870 0.726 -0.640 0.250 149 129 108 0 0
-0.2135 0.6264 -0.7977 -0.392 -0.883 0.259 137 116 94 0 0
-0.2113 0.6254 -0.7979 -0.392 -0.883 0.259 136 114 91 0 0
-0.2089 0.6246 -0.7982 -0.466 -0.821 0.330 135 113 92 0 0
-0.2067 0.6234 -0.7982 -0.466 -0.821 0.330 137 115 96 0 0
-0.2052 0.6205 -0.7971 -0.326 -0.944 0.045 140 115 95 0 0
-0.2030 0.6193 -0.7971 -0.389 -0.915 0.106 138 114 93 0 0
-0.1838 0.6021 -0.7936 0.070 -0.904 0.421 161 139 120 0 0
-0.1353 0.6047 -0.8100 0.623 -0.188 0.759 172 152 129 0 0
-0.1335 0.6030 -0.8095 0.779 -0.604 0.168 170 150 127 0 0
-0.1228 0.6090 -0.8161 -0.102 -0.612 0.784 175 155 131 0 0
-0.1191 0.6112 -0.8184 0.454 -0.811 0.369 178 157 135 0 0
-0.1185 0.6069 -0.8163 -0.123 -0.614 0.779 177 158 136 0 0
-0.1087 0.6219 -0.8275 0.465 -0.437 0.770 175 156 133 0 0
-1.6946 0.4951 -0.2745 0.272 -0.082 0.959 175 154 123 0 0
-1.6917 0.4946 -0.2751 0.200 -0.088 0.976 175 152 123 0 0
-1.6836 0.4998 -0.2805 0.764 -0.217 0.608 182 164 139 0 0
-1.6826 0.5016 -0.2818 0.856 -0.318 0.407 176 155 131 0 0
-1.6814 0.5032 -0.2831 0.856 -0.318 0.407 164 140 114 0 0
-1.6670 0.5103 -0.2913 -0.153 -0.668 0.729 156 129 102 0 0
-1.6596 0.5070 -0.2918 -0.559 -0.620 0.551 175 149 122 0 0
-1.6304 0.4946 -0.2940 0.716 -0.422 0.557 171 147 120 0 0
-1.6290 0.4961 -0.2952 0.775 -0.315 0.547 169 145 119 0 0
-1.5819 0.5165 -0.3208 -0.061 -0.909 0.411 172 145 116 0 0
-1.5800 0.5173 -0.3219 -0.173 -0.914 0.367 161 131 103 0 0
-1.5770 0.5166 -0.3224 -0.094 -0.897 0.431 165 135 108 0 0
-1.5742 0.5161 -0.3230 -0.090 -0.904 0.418 167 139 111 0 0
-1.5708 0.5148 -0.3233 -0.184 -0.870 0.458 167 139 112 0 0
-1.5591 0.5086 -0.3235 -0.160 -0.952 0.262 167 138 109 0 0
-1.5239 0.5117 -0.3360 0.162 -0.389 0.907 192 174 148 0 0
-1.4941 0.5196 -0.3495 -0.308 -0.776 0.551 170 144 117 0 0
-1.3728 0.5265 -0.3905 -0.299 -0.646 0.703 201 181 154 0 0
-1.3625 0.5261 -0.3934 -0.019 -0.839 0.544 203 186 163 0 0
-1.3598 0.5256 -0.3940 -0.019 -0.839 0.544 205 186 161 0 0
-1.2978 0.5325 -0.4168 -0.489 -0.378 0.786 199 179 151 0 0
-1.2239 0.5243 -0.4350 -0.166 -0.985 0.046 186 160 132 0 0
-1.2201 0.5273 -0.4378 0.299 -0.911 0.285 189 164 134 0 0
-1.2027 0.5342 -0.4469 -0.146 -0.938 0.315 161 131 102 0 0
-1.1578 0.5355 -0.4614 -0.503 -0.680 0.534 191 162 134 0 0
-1.1556 0.5363 -0.4625 -0.431 -0.670 0.604 194 167 138 0 0
-1.1004 0.5727 -0.4993 0.077 -0.573 0.816 193 161 131 0 0
-1.0977 0.5722 -0.4999 0.077 -0.573 0.816 197 168 138 0 0
-1.0797 0.5632 -0.5005 -0.176 -0.819 0.545 189 155 125 0 0
-1.0775 0.5646 -0.5020 0.321 -0.781 0.536 189 156 127 0 0
-1.0750 0.5649 -0.5029 0.441 -0.771 0.459 192 159 131 0 0
-1.0557 0.5704 -0.5118 -0.155 -0.735 0.660 192 160 133 0 0
-1.0529 0.5695 -0.5122 -0.155 -0.735 0.660 192 162 135 0 0
-1.0478 0.5698 -0.5139 0.061 -0.892 0.448 177 141 113 0 0
-1.0453 0.5700 -0.5148 0.095 -0.856 0.508 176 140 113 0 0
-1.0379 0.5717 -0.5180 0.745 -0.580 0.329 182 149 121 0 0
-1.0356 0.5729 -0.5194 0.640 -0.397 0.658 186 153 125 0 0
-1.0133 0.5540 -0.5159 -0.568 -0.769 0.294 183 148 121 0 0
-1.0065 0.5701 -0.5268 0.470 -0.664 0.582 199 174 147 0 0
-1.0038 0.5697 -0.5274 0.227 -0.669 0.708 204 180 157 0 0
-1.0009 0.5680 -0.5274 0.238 -0.447 0.862 200 176 152 0 0
-0.9807 0.5570 -0.5275 -0.112 -0.575 0.810 199 174 148 0 0
-0.9320 0.5737 -0.5516 0.402 -0.770 0.495 186 156 126 0 0
-0.9268 0.5736 -0.5531 0.056 -0.746 0.664 179 149 122 0 0
-0.9041 0.5588 -0.5520 0.250 -0.950 -0.186 188 162 135 0 0
-0.8957 0.5730 -0.5624 -0.347 -0.842 0.414 189 167 142 0 0
-0.8929 0.5716 -0.5624 -0.313 -0.927 0.208 180 154 130 0 0
-0.8493 0.5472 -0.5625 0.218 -0.345 0.913 201 179 155 0 0
-0.8047 0.5658 -0.5864 -0.068 -0.836 0.545 180 153 128 0 0
-0.8021 0.5653 -0.5869 -0.068 -0.836 0.545 177 151 127 0 0
-0.7404 0.5803 -0.6140 0.227 -0.719 0.656 187 166 141 0 0
-0.7326 0.5730 -0.6124 0.134 -0.640 0.756 174 149 123 0 0
-0.6840 0.5615 -0.6211 0.709 -0.292 0.642 194 176 154 0 0
-0.6815 0.5614 -0.6218 0.829 -0.327 0.453 190 170 147 0 0
-0.6788 0.5643 -0.6242 0.847 -0.386 0.365 189 168 144 0 0
-0.6760 0.5684 -0.6273 0.905 -0.352 0.240 191 169 147 0 0
-0.6733 0.5720 -0.6301 0.869 -0.259 0.421 189 168 144 0 0
-0.5507 0.5814 -0.6729 0.672 -0.259 0.694 167 140 113 0 0
-0.5407 0.5787 -0.6745 -0.272 -0.659 0.701 164 136 112 0 0
-0.5325 0.5652 -0.6696 0.545 -0.583 0.602 191 171 147 0 0
-0.4750 0.5706 -0.6902 0.274 -0.950 0.151 173 149 125 0 0
-0.4723 0.5712 -0.6913 0.274 -0.950 0.151 171 149 125 0 0
-0.4334 0.5834 -0.7100 -0.199 -0.868 0.455 175 154 129 0 0
-0.4217 0.5887 -0.7164 0.197 -0.636 0.746 186 167 142 0 0
-0.3766 0.5822 -0.7267 -0.647 -0.608 0.461 179 159 137 0 0
-0.3168 0.5830 -0.7455 -0.183 -0.141 0.973 184 167 147 0 0
-0.2141 0.6262 -0.8007 -0.262 -0.823 0.504 163 143 120 0 0
-0.2120 0.6249 -0.8006 -0.183 -0.863 0.470 160 137 113 0 0
-0.2056 0.6209 -0.8004 -0.448 -0.811 0.376 152 130 107 0 0
-0.2033 0.6200 -0.8006 -0.456 -0.828 0.326 147 124 103 0 0
-0.1984 0.6123 -0.7979 -0.635 -0.337 0.695 140 117 96 0 0
-0.1761 0.5968 -0.7962 -0.016 -0.999 -0.051 174 156 133 0 0
-0.1734 0.5969 -0.7972 -0.040 -0.719 0.694 181 163 142 0 0
-0.1420 0.5968 -0.8067 0.641 -0.266 0.720 174 154 131 0 0
-0.1360 0.5986 -0.8096 0.789 -0.601 0.128 167 147 123 0 0
-1.6881 0.4886 -0.2759 -0.058 -0.251 0.966 176 155 126 0 0
-1.6829 0.5004 -0.2840 0.919 -0.304 0.251 172 150 123 0 0
-1.6781 0.5038 -0.2873 0.578 -0.632 0.516 127 102 79 0 0
-1.6705 0.5100 -0.2930 -0.021 -0.782 0.623 142 116 93 0 0
-1.6672 0.5089 -0.2935 -0.106 -0.745 0.659 155 127 104 0 0
-1.6671 0.5119 -0.2952 -0.125 -0.560 0.819 158 131 104 0 0
-1.6352 0.4994 -0.2981 0.513 -0.444 0.735 170 145 117 0 0
-1.6330 0.4998 -0.2989 0.933 -0.284 0.221 168 142 116 0 0
-1.5935 0.5171 -0.3206 0.482 -0.713 0.510 166 138 109 0 0
-1.5758 0.5095 -0.3219 -0.632 -0.618 0.467 156 126 98 0 0
-1.5679 0.5054 -0.3220 -0.360 -0.464 0.809 159 131 103 0 0
-1.5625 0.5083 -0.3253 -0.089 -0.973 0.212 162 132 106 0 0
-1.5599 0.5081 -0.3260 -0.160 -0.952 0.262 161 133 105 0 0
-1.5222 0.5035 -0.3350 0.776 -0.528 -0.344 187 164 136 0 0
-1.3590 0.5220 -0.3953 0.005 -0.979 0.205 197 176 148 0 0
-1.3100 0.5242 -0.4115 -0.358 -0.304 0.883 202 181 157 0 0
-1.2956 0.5255 -0.4166 -0.168 -0.304 0.938 203 183 158 0 0
-1.2936 0.5265 -0.4178 0.142 -0.419 0.897 205 186 163 0 0
-1.0980 0.5697 -0.5016 -0.013 -0.611 0.791 198 169 139 0 0
-1.0803 0.5618 -0.5027 -0.333 -0.920 0.209 183 149 120 0 0
-1.0777 0.5617 -0.5034 -0.264 -0.865 0.427 184 150 122 0 0
-1.0755 0.5632 -0.5049 0.181 -0.652 0.736 191 158 130 0 0
-1.0562 0.5687 -0.5138 -0.126 -0.758 0.640 183 149 121 0 0
-1.0091 0.5659 -0.5268 0.735 -0.322 0.597 186 155 128 0 0
-1.0065 0.5661 -0.5276 0.448 -0.230 0.864 198 172 146 0 0
-1.0039 0.5658 -0.5283 0.272 -0.237 0.932 206 183 160 0 0
-0.9044 0.5542 -0.5525 0.472 -0.813 0.342 182 153 127 0 0
-0.8962 0.5708 -0.5641 -0.029 -0.878 0.477 184 159 134 0 0
-0.8934 0.5687 -0.5638 0.205 -0.956 -0.208 178 150 126 0 0
-0.8457 0.5542 -0.5705 0.048 -0.662 0.748 194 170 146 0 0
-0.8438 0.5621 -0.5754 0.201 -0.315 0.927 195 172 148 0 0
-0.8028 0.5638 -0.5889 0.030 -0.740 0.672 182 156 132 0 0
-0.8002 0.5633 -0.5894 -0.136 -0.902 0.410 188 162 140 0 0
-0.7770 0.5591 -0.5943 0.581 -0.172 0.795 182 157 133 0 0
-0.7745 0.5622 -0.5968 0.286 -0.179 0.941 176 150 126 0 0
-0.7334 0.5708 -0.6141 0.134 -0.640 0.756 186 162 136 0 0
-0.7308 0.5707 -0.6148 0.544 -0.585 0.601 175 153 126 0 0
-0.7283 0.5719 -0.6163 0.709 -0.469 0.526 179 155 128 0 0
-0.6876 0.5558 -0.6199 -0.403 -0.626 0.667 208 196 179 0 0
-0.6848 0.5605 -0.6233 0.639 -0.607 0.472 204 188 171 0 0
-0.6824 0.5580 -0.6227 0.801 -0.370 0.471 198 180 161 0 0
-0.6797 0.5613 -0.6254 0.853 -0.423 0.307 190 170 147 0 0
-0.6769 0.5653 -0.6284 0.905 -0.352 0.240 190 169 146 0 0
-0.6742 0.5673 -0.6303 0.717 -0.143 0.682 189 169 146 0 0
-0.6561 0.5699 -0.6374 -0.313 -0.339 0.887 181 159 135 0 0
-0.5423 0.5563 -0.6648 0.122 -0.657 0.744 164 138 113 0 0
-0.5398 0.5559 -0.6654 0.100 -0.645 0.758 177 154 131 0 0
-0.5334 0.5641 -0.6718 0.636 -0.526 0.565 190 170 145 0 0
-0.5077 0.5503 -0.6721 -0.087 -0.790 0.607 190 172 149 0 0
-0.4785 0.5692 -0.6914 0.030 -0.945 0.326 170 148 123 0 0
-0.4760 0.5690 -0.6921 0.030 -0.945 0.326 170 147 123 0 0
-0.4227 0.5872 -0.7185 -0.742 -0.554 0.378 185 167 142 0 0
-0.3609 0.5761 -0.7314 0.537 -0.776 0.330 176 156 132 0 0
-0.3247 0.5843 -0.7470 0.467 -0.294 0.834 180 163 141 0 0
-0.2511 0.6006 -0.7785 0.450 -0.677 0.582 185 167 143 0 0
-0.2071 0.6054 -0.7946 0.243 -0.864 -0.440 155 133 111 0 0
-0.1883 0.5999 -0.7974 -0.376 -0.910 0.176 151 129 108 0 0
-0.1875 0.5956 -0.7952 0.260 -0.966 -0.000 155 134 112 0 0
-0.1846 0.5964 -0.7966 0.260 -0.966 -0.000 162 141 118 0 0
-0.1765 0.5969 -0.7993 0.100 -0.990 -0.102 179 161 139 0 0
-0.1755 0.5932 -0.7976 -0.583 -0.780 0.228 187 170 147 0 0
-0.1568 0.5942 -0.8039 -0.003 0.121 0.993 170 152 127 0 0
-1.6853 0.4926 -0.2819 0.980 -0.193 0.052 173 152 123 0 0
-1.6842 0.4944 -0.2832 0.933 -0.139 0.333 175 153 124 0 0
-1.6841 0.4973 -0.2849 0.779 -0.319 0.540 171 149 120 0 0
-1.6827 0.4986 -0.2860 0.713 -0.362 0.600 165 142 113 0 0
-1.6814 0.5001 -0.2872 0.566 -0.491 0.662 152 128 102 0 0
-1.6794 0.5008 -0.2882 0.620 -0.474 0.625 132 106 84 0 0
-1.6707 0.5118 -0.2970 0.143 -0.533 0.834 161 134 107 0 0
-1.6678 0.5113 -0.2976 -0.112 -0.551 0.827 161 134 106 0 0
-1.6438 0.4961 -0.2966 -0.118 -0.584 0.803 185 163 136 0 0
-1.6385 0.4956 -0.2979 0.445 -0.574 0.687 179 155 128 0 0
-1.6374 0.4974 -0.2992 0.540 -0.397 0.742 177 153 125 0 0
-1.6347 0.4971 -0.2999 0.293 -0.534 0.793 172 148 120 0 0
-1.6331 0.4982 -0.3010 0.857 -0.406 0.316 173 148 120 0 0
-1.6319 0.4999 -0.3023 0.733 -0.596 0.327 181 159 131 0 0
-1.5936 0.5155 -0.3227 0.482 -0.713 0.510 175 150 122 0 0
-1.5900 0.5174 -0.3248 0.340 -0.881 -0.328 169 142 113 0 0
-1.5622 0.5097 -0.3291 -0.185 -0.502 0.845 151 124 96 0 0
-1.5330 0.5031 -0.3344 -0.256 -0.671 0.696 188 166 137 0 0
-1.5295 0.5016 -0.3347 -0.041 -0.843 0.537 186 165 135 0 0
-1.5221 0.5016 -0.3370 0.408 -0.912 0.037 179 155 126 0 0
-1.3598 0.5215 -0.3977 0.005 -0.979 0.205 181 156 126 0 0
-1.3131 0.5231 -0.4130 -0.409 -0.303 0.861 196 175 148 0 0
-1.3095 0.5209 -0.4128 -0.358 -0.342 0.869 191 167 139 0 0
-1.3058 0.5183 -0.4126 -0.276 -0.302 0.913 190 168 140 0 0
-1.3029 0.5174 -0.4129 0.031 -0.158 0.987 192 169 140 0 0
-1.2915 0.5143 -0.4148 0.585 -0.489 0.647 200 179 153 0 0
-1.2929 0.5227 -0.4190 0.315 -0.559 0.767 198 177 149 0 0
-1.2878 0.5225 -0.4204 0.489 -0.674 0.555 185 161 131 0 0
-1.2593 0.5379 -0.4377 0.811 -0.419 0.407 189 166 138 0 0
-1.2020 0.5270 -0.4492 0.277 -0.910 0.308 181 154 127 0 0
-1.1017 0.5353 -0.4846 0.583 -0.268 0.767 210 189 167 0 0
-1.0999 0.5379 -0.4866 0.430 -0.400 0.810 202 177 150 0 0
-1.0973 0.5374 -0.4871 -0.247 -0.644 0.724 186 157 128 0 0
-1.0940 0.5350 -0.4868 -0.064 -0.553 0.831 197 169 139 0 0
-1.0806 0.5321 -0.4893 0.381 -0.730 0.568 193 162 134 0 0
-1.0810 0.5611 -0.5052 -0.547 -0.763 0.344 177 142 114 0 0
-1.0581 0.5620 -0.5127 -0.176 -0.154 0.972 174 138 111 0 0
-0.9903 0.5578 -0.5312 -0.382 -0.627 0.679 189 160 132 0 0
-0.9050 0.5529 -0.5547 0.443 -0.891 0.099 173 142 115 0 0
-0.8818 0.5728 -0.5728 -0.327 -0.742 0.585 196 172 147 0 0
-0.8531 0.5431 -0.5652 0.703 -0.597 0.386 191 168 141 0 0
-0.8507 0.5448 -0.5669 0.703 -0.597 0.386 194 171 147 0 0
-0.8485 0.5480 -0.5693 0.731 -0.651 -0.203 194 172 148 0 0
-0.8466 0.5552 -0.5738 -0.326 -0.652 0.684 194 172 147 0 0
-0.8418 0.5590 -0.5774 0.378 -0.402 0.834 197 177 153 0 0
-0.8347 0.5664 -0.5837 0.904 -0.268 0.334 204 185 163 0 0
-0.8009 0.5610 -0.5911 -0.310 -0.746 0.590 195 173 151 0 0
-0.7984 0.5630 -0.5930 0.189 -0.637 0.747 191 169 146 0 0
-0.7802 0.5570 -0.5952 0.467 -0.532 0.706 190 166 141 0 0
-0.7776 0.5560 -0.5954 0.479 -0.656 0.583 188 165 141 0 0
-0.7519 0.5436 -0.5965 0.763 -0.601 0.236 193 173 152 0 0
-0.7342 0.5648 -0.6136 0.538 -0.734 0.415 187 165 141 0 0
-0.7316 0.5662 -0.6152 0.749 -0.633 0.193 184 161 136 0 0
-0.7290 0.5688 -0.6174 0.795 -0.594 0.120 180 156 129 0 0
-0.7264 0.5719 -0.6199 0.789 -0.588 0.177 184 161 135 0 0
-0.7238 0.5718 -0.6207 0.438 -0.539 0.719 191 169 145 0 0
-0.6908 0.5566 -0.6225 -0.334 -0.941 -0.046 212 201 185 0 0
-0.6883 0.5558 -0.6228 0.020 -0.994 0.103 209 196 180 0 0
-0.6832 0.5549 -0.6238 0.694 -0.720 -0.004 204 189 171 0 0
-0.6805 0.5587 -0.6267 0.640 -0.717 -0.276 194 176 156 0 0
-0.6778 0.5627 -0.6298 0.840 -0.533 -0.101 195 177 156 0 0
-0.6752 0.5635 -0.6311 0.803 -0.287 0.521 200 183 163 0 0
-0.6570 0.5672 -0.6387 -0.371 -0.398 0.839 168 144 120 0 0
-0.5445 0.5623 -0.6705 0.334 -0.669 0.664 157 129 106 0 0
-0.5431 0.5549 -0.6668 -0.550 -0.660 0.512 169 143 119 0 0
-0.5409 0.5530 -0.6665 -0.112 -0.641 0.759 188 166 142 0 0
-0.5344 0.5614 -0.6731 0.636 -0.526 0.565 188 168 143 0 0
-0.5135 0.5497 -0.6731 -0.155 -0.988 -0.007 186 166 142 0 0
-0.4793 0.5683 -0.6938 -0.063 -0.933 0.355 168 146 120 0 0
-0.4768 0.5681 -0.6945 0.050 -0.921 0.387 171 147 122 0 0
-0.4739 0.5697 -0.6963 0.317 -0.943 0.101 169 144 120 0 0
-0.4711 0.5706 -0.6976 0.445 -0.854 0.271 169 145 120 0 0
-0.3465 0.5742 -0.7378 0.702 -0.310 0.641 164 142 119 0 0
-0.2538 0.5948 -0.7777 0.347 -0.646 0.679 184 167 144 0 0
-0.2325 0.6092 -0.7921 0.028 -1.000 -0.001 177 160 135 0 0
-0.2195 0.6219 -0.8031 -0.227 -0.958 -0.177 187 170 147 0 0
-0.2175 0.6204 -0.8029 -0.006 -1.000 0.013 183 165 142 0 0
-0.2149 0.6202 -0.8036 0.576 -0.482 0.660 181 163 139 0 0
-0.1833 0.6005 -0.8024 -0.136 -0.910 0.391 160 138 116 0 0
-0.1771 0.5967 -0.8023 0.037 -0.999 0.004 181 163 140 0 0
-0.1585 0.5915 -0.8051 -0.413 0.073 0.908 175 156 134 0 0
-0.1382 0.5957 -0.8136 0.779 -0.604 0.168 173 154 131 0 0
-0.1269 0.5867 -0.8121 0.686 -0.405 0.604 168 148 125 0 0
-1.6965 0.4837 -0.2765 0.363 -0.060 0.930 191 174 147 0 0
-1.6890 0.4896 -0.2820 0.870 -0.461 0.178 168 145 115 0 0
-1.6867 0.4898 -0.2829 0.869 -0.491 0.059 168 144 114 0 0
-1.6851 0.4908 -0.2839 0.921 -0.161 0.354 169 146 116 0 0
-1.6838 0.4923 -0.2851 0.933 -0.139 0.333 169 146 118 0 0
-1.6820 0.4962 -0.2878 0.519 -0.353 0.779 154 129 105 0 0
-1.6801 0.4969 -0.2888 0.275 -0.455 0.847 139 114 89 0 0
-1.6717 0.5114 -0.2995 -0.112 -0.472 0.874 166 141 112 0 0
-1.6375 0.4959 -0.3014 -0.012 -0.621 0.784 172 148 120 0 0
-1.6343 0.4949 -0.3018 0.110 -0.578 0.809 174 150 123 0 0
-1.5906 0.4957 -0.3156 -0.034 -0.237 0.971 176 150 125 0 0
-1.5945 0.5150 -0.3251 0.723 -0.690 -0.037 175 151 122 0 0
-1.5931 0.5166 -0.3264 0.446 -0.807 -0.387 174 149 118 0 0
-1.5623 0.5081 -0.3312 -0.252 -0.480 0.840 154 125 100 0 0
-1.5584 0.5060 -0.3312 -0.252 -0.480 0.840 154 124 98 0 0
-1.5549 0.5045 -0.3315 -0.209 -0.424 0.881 159 131 103 0 0
-1.5509 0.5023 -0.3315 0.003 -0.422 0.907 170 144 117 0 0
-1.5479 0.5016 -0.3320 0.046 -0.400 0.916 184 160 131 0 0
-1.5363 0.5027 -0.3362 -0.229 -0.673 0.704 188 168 139 0 0
-1.5329 0.5013 -0.3364 -0.229 -0.673 0.704 187 166 138 0 0
-1.5298 0.5002 -0.3368 0.086 -0.807 0.584 186 164 134 0 0
-1.5254 0.4974 -0.3366 0.196 -0.951 -0.241 184 161 131 0 0
-1.4705 0.5121 -0.3616 -0.271 -0.868 0.416 195 175 147 0 0
-1.4405 0.5077 -0.3683 -0.582 -0.474 0.661 190 169 138 0 0
-1.4402 0.5114 -0.3705 -0.408 -0.908 0.094 189 167 136 0 0
-1.4071 0.5099 -0.3798 0.626 -0.779 0.038 170 145 116 0 0
-1.4054 0.5114 -0.3811 0.293 -0.956 0.005 169 144 116 0 0
-1.3997 0.5237 -0.3898 0.545 -0.338 0.767 192 172 145 0 0
-1.3892 0.5370 -0.4003 -0.631 -0.442 0.637 188 165 138 0 0
-1.3119 0.5132 -0.4108 -0.441 -0.300 0.846 199 181 156 0 0
-1.3124 0.5193 -0.4141 -0.302 -0.264 0.916 200 182 158 0 0
-1.3090 0.5175 -0.4141 -0.373 -0.405 0.835 199 180 155 0 0
-1.2981 0.5049 -0.4105 -0.390 -0.731 0.560 199 179 153 0 0
-1.2910 0.5218 -0.4220 0.225 -0.877 0.424 176 151 121 0 0
-1.2883 0.5212 -0.4226 0.357 -0.749 0.559 177 153 122 0 0
-1.2856 0.5209 -0.4232 0.156 -0.712 0.684 188 167 139 0 0
-1.2832 0.5211 -0.4241 0.267 -0.693 0.670 195 176 150 0 0
-1.2562 0.5401 -0.4428 0.810 -0.390 0.438 208 192 169 0 0
-1.1741 0.5234 -0.4588 0.074 -0.936 0.345 203 179 154 0 0
-1.1662 0.5223 -0.4606 0.579 -0.590 0.563 201 177 150 0 0
-1.1155 0.5528 -0.4931 0.229 -0.306 0.924 213 195 170 0 0
-1.1098 0.5595 -0.4985 0.659 -0.065 0.749 211 191 166 0 0
-1.0972 0.5340 -0.4883 0.565 -0.554 0.611 197 172 145 0 0
-1.0946 0.5337 -0.4889 -0.217 -0.708 0.672 201 176 146 0 0
-1.0919 0.5332 -0.4894 0.260 -0.669 0.696 195 168 138 0 0
-1.0893 0.5328 -0.4901 -0.095 -0.759 0.644 193 163 134 0 0
-1.0840 0.5592 -0.5063 0.199 -0.976 -0.091 172 137 108 0 0
-1.0810 0.5577 -0.5064 -0.571 -0.797 0.194 171 136 108 0 0
-1.0609 0.5591 -0.5134 -0.168 -0.029 0.985 178 142 115 0 0
-1.0004 0.5527 -0.5284 0.612 -0.183 0.769 196 169 143 0 0
-0.9989 0.5579 -0.5317 0.800 -0.291 0.524 196 169 142 0 0
-0.9930 0.5542 -0.5315 -0.440 -0.897 0.031 196 170 143 0 0
-0.9900 0.5521 -0.5312 -0.578 -0.815 0.042 188 160 131 0 0
-0.9872 0.5505 -0.5312 -0.580 -0.753 0.311 182 152 123 0 0
-0.9408 0.5632 -0.5525 0.290 -0.206 0.934 178 148 121 0 0
-0.9382 0.5632 -0.5533 0.487 -0.189 0.853 172 141 114 0 0
-0.9357 0.5640 -0.5544 0.538 -0.184 0.823 172 141 114 0 0
-0.8451 0.5584 -0.5792 -0.113 -0.482 0.869 200 179 157 0 0
-0.8424 0.5565 -0.5789 0.331 -0.439 0.835 201 181 157 0 0
-0.8352 0.5631 -0.5848 0.904 -0.268 0.334 202 183 159 0 0
-0.8244 0.5555 -0.5839 -0.361 -0.485 0.796 198 180 156 0 0
-0.7912 0.5557 -0.5942 -0.253 -0.658 0.709 192 170 147 0 0
-0.7578 0.5452 -0.5987 -0.079 -0.654 0.753 196 178 158 0 0
-0.7527 0.5425 -0.5987 0.269 -0.878 0.397 192 172 151 0 0
-0.7502 0.5444 -0.6005 0.738 -0.650 0.182 187 167 143 0 0
-0.7324 0.5628 -0.6162 0.653 -0.522 0.548 186 164 139 0 0
-0.7298 0.5654 -0.6184 0.754 -0.470 0.458 182 159 132 0 0
-0.7272 0.5670 -0.6201 0.736 -0.440 0.514 181 161 134 0 0
-0.7247 0.5666 -0.6207 0.321 -0.400 0.859 187 167 142 0 0
-0.7221 0.5665 -0.6214 0.257 -0.405 0.877 190 170 146 0 0
-0.6941 0.5571 -0.6248 -0.292 -0.944 -0.156 197 181 161 0 0
-0.6811 0.5609 -0.6309 0.386 -0.774 -0.502 200 182 162 0 0
-0.6784 0.5653 -0.6342 0.448 -0.730 -0.517 201 185 166 0 0
-0.6046 0.5577 -0.6526 -0.109 -0.343 0.933 187 166 141 0 0
-0.6022 0.5561 -0.6524 0.317 -0.402 0.859 185 164 141 0 0
-0.5998 0.5555 -0.6529 0.091 -0.394 0.914 188 166 144 0 0
-0.5973 0.5545 -0.6530 0.443 -0.394 0.805 183 161 138 0 0
-0.5502 0.5629 -0.6722 0.006 -0.818 0.576 151 124 102 0 0
-0.5456 0.5600 -0.6720 0.214 -0.847 0.487 157 131 107 0 0
-0.5070 0.5474 -0.6769 0.042 -0.946 -0.322 173 151 126 0 0
-0.4802 0.5670 -0.6959 -0.006 -0.920 0.392 167 144 120 0 0
-0.4776 0.5671 -0.6968 0.050 -0.921 0.387 172 148 124 0 0
-0.4746 0.5692 -0.6988 0.317 -0.943 0.101 172 148 124 0 0
-0.4313 0.5781 -0.7171 0.711 -0.463 0.529 172 150 124 0 0
-0.4285 0.5790 -0.7184 0.626 -0.393 0.673 171 150 122 0 0
-0.3913 0.5730 -0.7266 0.754 -0.483 0.446 173 153 128 0 0
-0.3485 0.5782 -0.7425 0.091 -0.987 0.131 172 152 128 0 0
-0.3453 0.5801 -0.7446 0.532 -0.757 0.379 167 147 121 0 0
-0.3127 0.5466 -0.7360 0.427 -0.527 0.735 180 164 139 0 0
-0.2548 0.5934 -0.7798 0.256 -0.616 0.745 186 170 147 0 0
-0.2418 0.6000 -0.7874 0.643 -0.756 0.121 180 162 138 0 0
-0.2297 0.6108 -0.7970 0.706 -0.707 -0.042 184 166 142 0 0
-0.2168 0.6166 -0.8042 0.616 -0.455 0.643 182 164 140 0 0
-0.2021 0.6135 -0.8070 -0.871 -0.454 -0.189 175 157 135 0 0
-0.1842 0.5994 -0.8047 -0.269 -0.875 0.402 159 137 116 0 0
-0.1818 0.5991 -0.8053 -0.058 -0.977 0.206 166 145 122 0 0
-0.1776 0.5966 -0.8052 0.117 -0.991 0.069 179 160 136 0 0
-0.1238 0.5885 -0.8172 0.757 -0.372 0.537 170 150 127 0 0
-0.1214 0.5881 -0.8178 0.637 -0.426 0.643 170 152 127 0 0
-1.6861 0.4905 -0.2864 0.604 -0.121 0.788 156 131 104 0 0
-1.6837 0.4906 -0.2872 0.752 -0.157 0.640 155 129 104 0 0
-1.6531 0.4986 -0.3010 -0.234 -0.676 0.699 172 147 119 0 0
-1.6408 0.4954 -0.3030 -0.112 -0.828 0.549 168 144 115 0 0
-1.5945 0.5133 -0.3272 0.887 -0.452 0.096 180 157 128 0 0
-1.5817 0.5023 -0.3250 0.021 -0.526 0.850 174 148 120 0 0
-1.5797 0.5029 -0.3260 -0.385 -0.539 0.749 168 142 112 0 0
-1.5725 0.4997 -0.3264 -0.444 -0.539 0.716 169 142 115 0 0
-1.5650 0.5103 -0.3346 -0.537 -0.486 0.690 171 147 123 0 0
-1.5577 0.5032 -0.3329 -0.294 -0.511 0.808 174 150 124 0 0
-1.5469 0.4983 -0.3335 0.045 -0.395 0.917 187 165 136 0 0
-1.5201 0.4913 -0.3378 0.204 -0.779 0.592 178 154 123 0 0
-1.4028 0.5182 -0.3887 0.727 -0.411 0.550 182 161 131 0 0
-1.3885 0.5337 -0.4017 -0.457 -0.323 0.829 188 167 139 0 0
-1.3364 0.5102 -0.4047 0.180 -0.812 0.555 196 176 149 0 0
-1.3339 0.5102 -0.4055 0.180 -0.812 0.555 194 173 147 0 0
-1.3294 0.5112 -0.4074 0.467 -0.769 0.436 194 173 146 0 0
-1.3089 0.5098 -0.4129 -0.206 -0.430 0.879 209 194 173 0 0
-1.2984 0.5032 -0.4125 -0.474 -0.783 0.403 211 194 175 0 0
-1.2931 0.5186 -0.4226 0.573 -0.740 0.353 175 148 118 0 0
-1.2886 0.5196 -0.4246 0.357 -0.749 0.559 175 149 121 0 0
-1.2559 0.5369 -0.4442 0.643 -0.567 0.515 210 194 173 0 0
-1.2477 0.5235 -0.4393 -0.742 -0.480 0.468 207 190 168 0 0
-1.1616 0.5205 -0.4641 0.170 -0.542 0.823 203 181 154 0 0
-1.1542 0.5210 -0.4666 0.101 -0.384 0.918 199 174 146 0 0
-1.1423 0.5227 -0.4712 0.138 -0.097 0.986 193 166 138 0 0
-1.1149 0.5476 -0.4935 -0.227 -0.694 0.683 209 188 161 0 0
-1.0818 0.5570 -0.5088 -0.479 -0.771 0.420 174 139 111 0 0
-1.0249 0.5551 -0.5253 0.035 -0.525 0.850 194 164 137 0 0
-1.0216 0.5522 -0.5247 -0.465 -0.576 0.672 188 158 129 0 0
-1.0162 0.5509 -0.5256 -0.413 -0.558 0.720 190 160 131 0 0
-1.0111 0.5508 -0.5271 0.503 -0.044 0.863 187 156 128 0 0
-0.9902 0.5484 -0.5322 -0.229 -0.907 -0.353 189 161 133 0 0
-0.9873 0.5465 -0.5320 -0.444 -0.895 -0.038 184 154 127 0 0
-0.9848 0.5471 -0.5331 -0.324 -0.895 0.307 177 146 120 0 0
-0.9822 0.5466 -0.5336 0.021 -0.922 0.386 170 138 114 0 0
-0.9605 0.5392 -0.5361 -0.353 -0.719 0.599 192 167 141 0 0
-0.9577 0.5376 -0.5361 0.008 -0.996 -0.088 188 161 135 0 0
-0.9416 0.5630 -0.5552 -0.406 -0.643 0.649 174 144 119 0 0
-0.9390 0.5628 -0.5559 -0.091 -0.580 0.810 169 138 111 0 0
-0.9363 0.5621 -0.5563 0.033 -0.469 0.883 166 133 107 0 0
-0.8981 0.5652 -0.5698 0.676 -0.540 0.501 185 160 136 0 0
-0.8381 0.5570 -0.5836 0.816 -0.456 0.354 199 179 156 0 0
-0.8358 0.5596 -0.5858 0.770 -0.445 0.457 200 179 157 0 0
-0.8126 0.5579 -0.5920 0.006 -0.259 0.966 196 175 151 0 0
-0.8049 0.5576 -0.5942 -0.137 -0.625 0.768 190 167 144 0 0
-0.8023 0.5567 -0.5944 -0.137 -0.625 0.768 194 171 148 0 0
-0.7534 0.5411 -0.6008 0.313 -0.815 0.488 196 178 159 0 0
-0.7000 0.5540 -0.6244 -0.361 -0.531 0.767 188 167 144 0 0
-0.6975 0.5544 -0.6254 -0.560 -0.816 0.143 191 170 148 0 0
-0.6415 0.5528 -0.6416 0.091 -0.937 0.337 182 161 136 0 0
-0.5463 0.5593 -0.6745 0.031 -0.951 0.308 163 137 112 0 0
-0.5364 0.5572 -0.6763 0.207 -0.950 0.235 190 168 145 0 0
-0.5293 0.5541 -0.6768 -0.136 -0.991 0.018 183 162 136 0 0
-0.5048 0.5491 -0.6815 0.042 -0.946 -0.322 173 150 125 0 0
-0.5017 0.5522 -0.6842 0.485 -0.873 -0.056 176 155 127 0 0
-0.4959 0.5691 -0.6954 0.286 -0.303 0.909 181 160 134 0 0
-0.4897 0.5614 -0.6930 0.514 -0.541 0.665 176 154 130 0 0
-0.4867 0.5634 -0.6950 0.454 -0.716 0.530 173 150 126 0 0
-0.4259 0.5815 -0.7238 -0.518 -0.056 0.854 158 136 112 0 0
-0.4056 0.5697 -0.7234 -0.044 -0.654 0.756 171 150 126 0 0
-0.3969 0.5737 -0.7283 0.741 -0.593 0.315 170 150 128 0 0
-0.3924 0.5710 -0.7282 0.756 -0.625 0.193 178 159 135 0 0
-0.3889 0.5744 -0.7311 0.756 -0.625 0.193 177 157 135 0 0
-0.3620 0.5693 -0.7366 0.255 -0.736 0.628 170 147 123 0 0
-0.3207 0.5698 -0.7495 0.356 -0.934 -0.008 172 151 129 0 0
-0.2539 0.5902 -0.7814 -0.097 -0.490 0.866 186 168 145 0 0
-0.1788 0.5949 -0.8071 0.261 -0.919 0.295 174 156 130 0 0
-0.1722 0.5920 -0.8075 -0.471 -0.722 0.507 194 179 160 0 0
-0.1545 0.5794 -0.8059 0.155 -0.915 0.373 168 149 125 0 0
-0.1430 0.5874 -0.8139 0.820 -0.481 0.309 175 157 134 0 0
-1.6908 0.4827 -0.2835 0.858 -0.088 0.507 161 136 109 0 0
-1.6850 0.4876 -0.2881 0.590 -0.223 0.776 142 116 91 0 0
-1.6238 0.4908 -0.3086 -0.441 -0.738 0.511 184 164 137 0 0
-1.6110 0.4867 -0.3103 0.375 -0.921 -0.110 198 182 156 0 0
-1.5904 0.5024 -0.3253 0.286 -0.539 0.793 182 158 128 0 0
-1.5880 0.5025 -0.3261 0.286 -0.539 0.793 184 161 131 0 0
-1.5789 0.5001 -0.3276 -0.385 -0.539 0.749 179 155 125 0 0
-1.5753 0.4985 -0.3278 -0.270 -0.331 0.904 175 150 120 0 0
-1.5705 0.4951 -0.3274 -0.327 -0.382 0.864 177 152 122 0 0
-1.5568 0.5002 -0.3345 -0.294 -0.511 0.808 194 176 149 0 0
-1.5459 0.4951 -0.3349 0.045 -0.395 0.917 184 162 133 0 0
-1.5422 0.4932 -0.3350 -0.168 -0.344 0.924 186 164 134 0 0
-1.5142 0.4843 -0.3386 -0.319 -0.514 0.797 175 151 121 0 0
-1.5108 0.5016 -0.3493 0.212 -0.512 0.832 181 158 127 0 0
-1.5088 0.5023 -0.3504 0.120 -0.379 0.917 188 164 134 0 0
-1.4821 0.5071 -0.3612 0.343 -0.594 0.728 192 172 146 0 0
-1.4686 0.5094 -0.3666 0.084 -0.976 0.200 178 155 124 0 0
-1.4662 0.5095 -0.3674 0.120 -0.969 0.216 179 156 124 0 0
-1.3246 0.5145 -0.4137 0.217 -0.916 0.339 185 160 131 0 0
-1.3221 0.5144 -0.4144 0.223 -0.799 0.558 189 165 136 0 0
-1.2993 0.5030 -0.4150 -0.259 -0.559 0.788 210 195 175 0 0
-1.2955 0.5002 -0.4146 0.130 -0.555 0.822 204 187 164 0 0
-1.2889 0.5181 -0.4266 0.422 -0.656 0.625 167 141 114 0 0
-1.2557 0.5341 -0.4457 0.599 -0.299 0.743 203 185 160 0 0
-1.2348 0.5139 -0.4409 0.308 -0.845 0.436 195 173 145 0 0
-1.2190 0.5180 -0.4481 -0.416 -0.333 0.846 181 151 123 0 0
-1.2154 0.5151 -0.4476 -0.346 -0.442 0.827 183 155 126 0 0
-1.1428 0.5213 -0.4733 0.390 -0.111 0.914 195 167 138 0 0
-1.1389 0.5246 -0.4763 -0.318 -0.197 0.927 196 169 140 0 0
-1.1350 0.5203 -0.4751 -0.435 -0.131 0.891 197 170 143 0 0
-1.1297 0.5193 -0.4762 0.055 -0.425 0.904 204 179 153 0 0
-1.0913 0.5332 -0.4957 0.824 -0.563 0.061 181 150 118 0 0
-1.0886 0.5326 -0.4962 0.527 -0.826 -0.203 181 147 118 0 0
-1.0857 0.5311 -0.4963 0.085 -0.790 0.607 177 143 114 0 0
-1.0831 0.5309 -0.4970 0.118 -0.936 0.331 177 142 114 0 0
-1.0221 0.5504 -0.5266 -0.435 -0.398 0.808 189 158 131 0 0
-1.0194 0.5493 -0.5268 -0.425 -0.358 0.831 187 156 127 0 0
-0.9869 0.5401 -0.5316 0.552 -0.321 0.770 186 157 130 0 0
-0.9845 0.5411 -0.5329 0.617 -0.477 0.626 183 155 127 0 0
-0.9583 0.5363 -0.5382 0.161 -0.961 0.225 185 156 131 0 0
-0.8417 0.5292 -0.5701 0.414 -0.658 0.629 199 178 155 0 0
-0.8230 0.5489 -0.5869 0.476 -0.218 0.852 207 190 167 0 0
-0.8055 0.5550 -0.5956 0.062 -0.506 0.860 197 176 155 0 0
-0.8030 0.5545 -0.5961 0.062 -0.506 0.860 194 171 147 0 0
-0.8003 0.5533 -0.5963 -0.116 -0.344 0.932 191 168 143 0 0
-0.7795 0.5403 -0.5954 -0.224 -0.941 0.253 191 168 144 0 0
-0.7721 0.5468 -0.6013 -0.005 -0.981 0.192 182 156 132 0 0
-0.5934 0.5561 -0.6613 0.644 -0.760 -0.086 187 165 142 0 0
-0.5725 0.5598 -0.6698 -0.009 -0.984 0.177 179 158 135 0 0
-0.5446 0.5583 -0.6775 -0.506 -0.862 -0.020 175 148 127 0 0
-0.5372 0.5565 -0.6788 -0.051 -0.994 0.101 186 164 140 0 0
-0.5273 0.5545 -0.6807 -0.515 -0.693 0.505 179 158 131 0 0
-0.5054 0.5493 -0.6845 0.251 -0.957 -0.145 178 155 132 0 0
-0.5023 0.5520 -0.6870 0.319 -0.946 -0.061 178 155 130 0 0
-0.4970 0.5666 -0.6967 0.243 -0.178 0.953 178 157 130 0 0
-0.4909 0.5586 -0.6942 0.653 -0.368 0.662 177 157 132 0 0
-0.4851 0.5619 -0.6978 0.176 -0.578 0.797 177 156 131 0 0
-0.4632 0.5682 -0.7081 0.102 -0.914 0.392 188 168 146 0 0
-0.4274 0.5781 -0.7246 -0.495 -0.051 0.867 152 129 106 0 0
-0.4254 0.5754 -0.7236 -0.495 -0.051 0.867 158 136 112 0 0
-0.3987 0.5688 -0.7282 0.797 -0.357 0.486 177 157 132 0 0
-0.3683 0.5675 -0.7368 0.444 -0.763 0.470 161 138 114 0 0
-0.3246 0.5674 -0.7501 -0.151 -0.950 0.274 174 154 131 0 0
-0.2578 0.5883 -0.7823 0.240 -0.503 0.830 187 170 147 0 0
-0.2556 0.5872 -0.7823 -0.093 -0.306 0.948 184 165 142 0 0
-0.1854 0.5929 -0.8071 0.314 -0.547 0.776 171 150 129 0 0
-0.1800 0.5933 -0.8090 0.277 -0.776 0.566 175 157 131 0 0
-0.1581 0.5782 -0.8072 0.155 -0.915 0.373 176 156 134 0 0
-0.1555 0.5783 -0.8081 0.155 -0.915 0.373 175 157 133 0 0
-0.1473 0.5791 -0.8111 0.416 -0.783 0.462 176 158 134 0 0
-0.1338 0.5749 -0.8128 0.654 -0.515 0.555 178 162 137 0 0
-0.1302 0.5770 -0.8151 0.654 -0.515 0.555 177 160 137 0 0
-1.6905 0.4808 -0.2855 0.836 -0.079 0.543 149 123 97 0 0
-1.6753 0.4892 -0.2949 0.605 -0.124 0.786 157 131 106 0 0
-1.6243 0.4866 -0.3090 -0.230 -0.812 0.537 174 151 123 0 0
-1.6223 0.4872 -0.3100 -0.313 -0.875 0.368 180 160 132 0 0
-1.5895 0.4925 -0.3231 0.517 -0.852 0.081 177 151 123 0 0
-1.5900 0.4967 -0.3252 0.747 -0.615 0.252 177 151 125 0 0
-1.5101 0.4987 -0.3509 -0.087 -0.420 0.903 182 157 128 0 0
-1.5071 0.4980 -0.3514 -0.071 -0.349 0.934 193 170 142 0 0
-1.5042 0.4972 -0.3519 -0.068 -0.337 0.939 191 170 140 0 0
-1.2943 0.5005 -0.4181 0.662 -0.686 0.303 187 164 135 0 0
-1.2925 0.5019 -0.4195 0.706 -0.660 0.256 179 153 126 0 0
-1.2890 0.5161 -0.4285 0.424 -0.619 0.662 164 136 109 0 0
-1.2768 0.5167 -0.4325 0.312 -0.581 0.752 168 142 115 0 0
-1.2601 0.5013 -0.4290 -0.371 -0.736 0.566 197 176 150 0 0
-1.2352 0.5125 -0.4430 0.254 -0.895 0.367 191 169 139 0 0
-1.2207 0.5135 -0.4480 0.619 -0.514 0.594 188 159 131 0 0
-1.2184 0.5140 -0.4490 -0.212 -0.271 0.939 183 154 125 0 0
-1.2093 0.5099 -0.4495 -0.471 -0.774 0.423 195 170 142 0 0
-1.1981 0.5395 -0.4695 0.696 -0.710 0.112 195 171 141 0 0
-1.1840 0.5150 -0.4601 -0.013 -0.996 -0.086 191 166 136 0 0
-1.1442 0.5150 -0.4723 0.166 -0.354 0.920 192 164 136 0 0
-1.1338 0.5137 -0.4748 0.161 -0.398 0.903 199 173 146 0 0
-1.1312 0.5134 -0.4754 -0.293 -0.108 0.950 200 173 147 0 0
-1.0965 0.5221 -0.4909 0.795 -0.349 0.497 202 180 151 0 0
-1.0947 0.5244 -0.4928 0.926 -0.223 0.304 205 180 154 0 0
-1.0344 0.5338 -0.5166 0.280 -0.182 0.943 197 170 144 0 0
-1.0319 0.5339 -0.5174 0.282 -0.202 0.938 183 151 123 0 0
-1.0192 0.5447 -0.5273 -0.464 -0.354 0.812 185 154 126 0 0
-0.9163 0.5361 -0.5541 0.167 -0.472 0.866 206 184 161 0 0
-0.9073 0.5445 -0.5616 0.829 -0.439 0.346 189 162 137 0 0
-0.8967 0.5607 -0.5739 0.630 -0.359 0.689 195 173 149 0 0
-0.8447 0.5258 -0.5703 0.566 -0.677 0.471 193 171 147 0 0
-0.8388 0.5453 -0.5831 0.300 -0.937 0.181 194 170 146 0 0
-0.8210 0.5441 -0.5878 0.004 -0.544 0.839 195 174 150 0 0
-0.7802 0.5380 -0.5969 0.102 -0.951 0.292 193 169 143 0 0
-0.7600 0.5405 -0.6045 0.017 -0.929 0.370 181 157 133 0 0
-0.7424 0.5464 -0.6132 0.258 -0.916 0.306 178 155 129 0 0
-0.7347 0.5462 -0.6155 0.118 -0.989 -0.085 187 166 142 0 0
-0.7093 0.5506 -0.6258 0.201 -0.128 0.971 192 172 153 0 0
-0.6459 0.5471 -0.6433 0.184 -0.539 0.822 183 159 136 0 0
-0.6433 0.5469 -0.6439 0.502 -0.614 0.610 183 160 136 0 0
-0.6407 0.5479 -0.6453 0.406 -0.726 0.555 184 162 138 0 0
-0.6247 0.5571 -0.6554 0.374 -0.821 0.432 189 167 147 0 0
-0.5919 0.5531 -0.6632 0.706 -0.553 0.444 179 157 134 0 0
-0.5861 0.5586 -0.6680 0.202 -0.849 -0.488 162 137 114 0 0
-0.5733 0.5589 -0.6722 -0.216 -0.971 0.099 177 155 132 0 0
-0.5528 0.5591 -0.6786 -0.108 -0.915 0.387 162 136 116 0 0
-0.5451 0.5594 -0.6811 -0.564 -0.810 -0.158 173 146 125 0 0
-0.4983 0.5631 -0.6975 0.158 -0.378 0.912 175 154 128 0 0
-0.4353 0.5691 -0.7202 0.663 -0.621 0.418 159 137 114 0 0
-0.4267 0.5729 -0.7250 -0.492 -0.037 0.870 161 139 115 0 0
-0.3301 0.5681 -0.7520 -0.387 -0.914 0.120 185 166 145 0 0
-0.3288 0.5640 -0.7500 -0.373 -0.896 0.240 177 157 134 0 0
-0.3226 0.5675 -0.7539 0.508 -0.861 -0.020 168 148 124 0 0
-0.2471 0.5901 -0.7898 0.121 -0.955 0.272 173 155 132 0 0
-0.1856 0.5875 -0.8071 0.707 -0.505 0.495 177 159 136 0 0
-0.1498 0.5748 -0.8110 0.322 -0.895 0.309 176 158 135 0 0
-0.1304 0.5721 -0.8154 0.510 -0.169 0.843 179 161 138 0 0
-1.7025 0.4879 -0.2887 -0.379 -0.658 0.651 142 116 89 0 0
-1.6900 0.4786 -0.2873 0.890 -0.203 0.409 140 114 85 0 0
-1.6820 0.4837 -0.2927 0.679 -0.530 0.508 170 147 119 0 0
-1.6783 0.4853 -0.2947 0.680 -0.407 0.610 172 148 120 0 0
-1.6759 0.4854 -0.2955 0.382 -0.247 0.891 172 147 120 0 0
-1.6631 0.4908 -0.3025 -0.192 -0.186 0.964 174 148 122 0 0
-1.5776 0.4948 -0.3310 -0.476 -0.646 0.596 180 157 126 0 0
-1.5175 0.4895 -0.3464 -0.478 -0.754 0.450 176 151 120 0 0
-1.5143 0.4884 -0.3467 -0.289 -0.762 0.580 175 150 120 0 0
-1.4846 0.5035 -0.3644 -0.042 -0.649 0.760 183 160 130 0 0
-1.4478 0.5041 -0.3760 -0.073 -0.956 -0.286 183 160 129 0 0
-1.3025 0.5001 -0.4183 -0.152 -0.706 0.691 202 184 161 0 0
-1.2997 0.4994 -0.4188 0.041 -0.861 0.507 203 186 162 0 0
-1.2839 0.5134 -0.4315 0.256 -0.841 0.478 183 158 128 0 0
-1.2631 0.5000 -0.4304 -0.188 -0.622 0.760 197 175 148 0 0
-1.2435 0.5121 -0.4432 -0.267 -0.348 0.899 190 165 137 0 0
-1.2395 0.5085 -0.4424 0.134 -0.491 0.861 188 163 134 0 0
-1.2252 0.5037 -0.4441 -0.401 -0.584 0.706 204 182 157 0 0
-1.2242 0.5072 -0.4464 0.460 -0.881 0.113 196 171 144 0 0
-1.2097 0.5081 -0.4514 -0.320 -0.386 0.865 200 177 148 0 0
-1.2016 0.5261 -0.4640 0.630 -0.563 0.535 197 173 146 0 0
-1.1925 0.5151 -0.4606 0.153 -0.848 -0.507 192 168 140 0 0
-1.1845 0.5139 -0.4623 0.319 -0.806 0.499 194 170 140 0 0
-1.1257 0.5403 -0.4952 0.850 -0.503 0.155 195 170 141 0 0
-1.1236 0.5417 -0.4967 0.472 -0.718 0.511 199 173 146 0 0
-1.0948 0.5217 -0.4942 0.672 -0.107 0.733 193 167 140 0 0
-1.0870 0.5206 -0.4960 -0.286 -0.034 0.958 175 142 113 0 0
-1.0853 0.5234 -0.4981 0.260 -0.004 0.966 177 144 116 0 0
-1.0317 0.5293 -0.5179 0.556 -0.626 0.546 194 169 143 0 0
-1.0295 0.5307 -0.5194 0.678 -0.409 0.611 181 149 122 0 0
-0.9645 0.5327 -0.5404 0.123 -0.273 0.954 184 159 133 0 0
-0.9166 0.5324 -0.5550 0.057 -0.467 0.883 208 186 162 0 0
-0.9058 0.5458 -0.5658 0.056 -0.766 0.641 186 161 135 0 0
-0.9032 0.5455 -0.5665 0.056 -0.766 0.641 195 173 149 0 0
-0.9006 0.5452 -0.5671 0.056 -0.766 0.641 197 177 153 0 0
-0.8970 0.5566 -0.5746 0.702 -0.195 0.685 202 181 160 0 0
-0.8115 0.5416 -0.5924 0.595 -0.667 0.448 203 186 164 0 0
-0.8090 0.5429 -0.5939 0.595 -0.667 0.448 206 189 167 0 0
-0.8041 0.5454 -0.5968 0.414 -0.780 0.469 195 174 152 0 0
-0.7608 0.5395 -0.6068 0.017 -0.929 0.370 176 152 128 0 0
-0.7582 0.5398 -0.6077 -0.028 -0.978 0.208 181 158 133 0 0
-0.7431 0.5454 -0.6156 0.175 -0.939 0.297 182 161 135 0 0
-0.7380 0.5459 -0.6174 0.214 -0.977 0.013 196 178 155 0 0
-0.7355 0.5465 -0.6185 0.250 -0.964 0.089 190 172 149 0 0
-0.7329 0.5482 -0.6202 0.436 -0.884 0.169 195 178 155 0 0
-0.6258 0.5524 -0.6555 0.330 -0.511 0.793 190 169 148 0 0
-0.6233 0.5517 -0.6558 0.451 -0.499 0.740 188 169 148 0 0
-0.6163 0.5452 -0.6543 -0.396 -0.382 0.835 203 189 170 0 0
-0.6139 0.5434 -0.6540 -0.396 -0.382 0.835 204 189 172 0 0
-0.6112 0.5454 -0.6560 0.372 -0.296 0.880 206 191 174 0 0
-0.6007 0.5488 -0.6611 0.651 -0.759 0.032 196 178 155 0 0
-0.5929 0.5508 -0.6647 0.706 -0.553 0.444 176 154 132 0 0
-0.5787 0.5619 -0.6753 -0.046 -0.923 -0.383 158 133 109 0 0
-0.5740 0.5588 -0.6750 -0.216 -0.971 0.099 171 149 126 0 0
-0.5482 0.5601 -0.6836 0.029 -0.999 -0.041 167 141 120 0 0
-0.5018 0.5616 -0.6987 -0.144 -0.182 0.973 174 150 125 0 0
-0.4993 0.5610 -0.6991 -0.043 -0.376 0.925 171 149 125 0 0
-0.4694 0.5572 -0.7062 0.322 -0.380 0.867 184 165 142 0 0
-0.4601 0.5530 -0.7066 0.822 -0.174 0.543 186 168 145 0 0
-0.4570 0.5556 -0.7091 0.543 -0.199 0.816 187 168 146 0 0
-0.4366 0.5664 -0.7214 0.591 -0.700 0.400 173 153 128 0 0
-0.4302 0.5714 -0.7262 -0.526 -0.033 0.850 162 141 117 0 0
-0.4262 0.5669 -0.7249 -0.310 -0.007 0.951 172 151 127 0 0
-0.4238 0.5659 -0.7251 -0.346 0.050 0.937 171 150 127 0 0
-0.4219 0.5633 -0.7242 -0.378 0.052 0.925 174 154 130 0 0
-0.4232 0.5381 -0.7096 0.782 -0.114 0.613 177 157 134 0 0
-0.4165 0.5543 -0.7207 0.335 -0.135 0.932 177 158 134 0 0
-0.4170 0.5331 -0.7087 0.095 -0.085 0.992 182 163 141 0 0
-0.3311 0.5666 -0.7539 -0.081 -0.985 -0.150 182 164 143 0 0
-0.3273 0.5626 -0.7528 0.202 -0.962 0.182 175 154 130 0 0
-0.3131 0.5745 -0.7639 0.686 -0.380 0.620 169 149 125 0 0
-0.2673 0.5794 -0.7807 0.477 -0.702 0.529 182 164 143 0 0
-0.2641 0.5812 -0.7827 0.467 -0.866 -0.181 178 160 136 0 0
-0.2603 0.5842 -0.7855 -0.395 -0.625 0.673 178 160 136 0 0
-0.2586 0.5819 -0.7848 -0.402 -0.275 0.873 174 154 130 0 0
-0.1716 0.5790 -0.8098 -0.516 -0.506 0.691 185 168 145 0 0
-0.1696 0.5776 -0.8097 -0.484 -0.587 0.649 182 165 141 0 0
-0.1552 0.5751 -0.8127 0.316 -0.871 0.376 174 157 133 0 0
-0.1518 0.5769 -0.8147 0.508 -0.609 0.610 173 156 131 0 0
-0.1499 0.5756 -0.8146 0.105 -0.695 0.711 179 161 137 0 0
-0.1395 0.5649 -0.8117 0.369 -0.360 0.857 179 161 137 0 0
-0.1371 0.5644 -0.8122 0.118 -0.429 0.896 181 164 140 0 0
-1.7034 0.4816 -0.2878 0.112 -0.575 -0.810 134 108 80 0 0
-1.7028 0.4838 -0.2893 0.135 -0.579 -0.804 133 106 80 0 0
-1.6809 0.4809 -0.2943 0.657 -0.620 0.429 184 164 134 0 0
-1.6793 0.4819 -0.2954 0.657 -0.620 0.429 181 160 133 0 0
-1.6778 0.4831 -0.2965 0.571 -0.707 0.417 181 160 132 0 0
-1.6713 0.4810 -0.2974 0.374 -0.116 0.920 168 144 116 0 0
-1.5966 0.4822 -0.3209 0.111 -0.549 0.829 155 128 101 0 0
-1.5939 0.4818 -0.3215 0.056 -0.624 0.779 149 122 94 0 0
-1.5813 0.4915 -0.3309 0.203 -0.892 -0.403 175 149 120 0 0
-1.4890 0.4891 -0.3579 0.389 -0.428 0.816 185 159 131 0 0
-1.3539 0.5021 -0.4067 0.299 -0.784 0.543 185 162 133 0 0
-1.3021 0.4970 -0.4197 0.073 -0.707 0.704 195 175 148 0 0
-1.2999 0.4977 -0.4207 -0.006 -0.661 0.750 193 172 145 0 0
-1.2968 0.4963 -0.4209 -0.163 -0.599 0.784 186 161 133 0 0
-1.2256 0.5022 -0.4461 -0.482 -0.818 0.313 198 174 147 0 0
-1.1237 0.5387 -0.4981 0.502 -0.305 0.809 197 172 144 0 0
-1.1211 0.5388 -0.4989 0.049 -0.409 0.911 194 167 138 0 0
-1.1067 0.5329 -0.5000 0.011 -0.286 0.958 198 172 144 0 0
-1.0838 0.5147 -0.4967 -0.307 -0.230 0.924 189 160 134 0 0
-1.0803 0.5111 -0.4957 -0.220 -0.389 0.895 189 162 133 0 0
-1.0321 0.5273 -0.5197 0.556 -0.626 0.546 210 192 168 0 0
-0.9647 0.5294 -0.5415 0.386 -0.269 0.882 188 163 138 0 0
-0.9108 0.5388 -0.5634 0.755 -0.529 0.388 200 178 154 0 0
-0.9062 0.5422 -0.5668 0.376 -0.570 0.731 198 176 152 0 0
-0.9038 0.5436 -0.5683 0.125 -0.746 0.654 202 182 158 0 0
-0.7615 0.5385 -0.6090 0.189 -0.823 0.536 175 151 125 0 0
-0.7590 0.5388 -0.6100 0.302 -0.950 0.079 177 154 128 0 0
-0.7439 0.5445 -0.6179 0.192 -0.919 0.345 189 167 143 0 0
-0.7413 0.5467 -0.6199 0.254 -0.950 -0.183 199 181 158 0 0
-0.7363 0.5484 -0.6224 0.492 -0.867 0.085 195 178 156 0 0
-0.6933 0.5401 -0.6309 0.458 -0.443 0.771 180 158 135 0 0
-0.6124 0.5406 -0.6560 0.212 -0.335 0.918 206 191 171 0 0
-0.6020 0.5430 -0.6605 0.640 -0.109 0.761 193 174 152 0 0
-0.5373 0.5525 -0.6858 -0.102 -0.957 0.271 163 137 114 0 0
-0.5077 0.5610 -0.6997 0.312 -0.035 0.949 177 155 132 0 0
-0.5006 0.5578 -0.7000 -0.189 -0.865 0.464 169 146 122 0 0
-0.4829 0.5319 -0.6908 0.712 -0.026 0.702 182 161 138 0 0
-0.4584 0.5521 -0.7097 0.792 -0.207 0.574 187 169 147 0 0
-0.4446 0.5249 -0.6986 0.745 0.015 0.666 181 163 139 0 0
-0.4413 0.5282 -0.7015 0.714 0.031 0.699 178 157 136 0 0
-0.4279 0.5517 -0.7189 -0.361 -0.036 0.932 182 163 139 0 0
-0.4240 0.5571 -0.7231 -0.389 0.039 0.920 179 159 135 0 0
-0.4185 0.5489 -0.7202 0.072 -0.086 0.994 179 159 134 0 0
-0.4140 0.5277 -0.7096 0.768 -0.545 0.336 193 175 155 0 0
-0.4107 0.5307 -0.7123 0.768 -0.545 0.336 181 163 140 0 0
-0.4085 0.5294 -0.7122 0.665 -0.489 0.564 176 156 132 0 0
-0.4055 0.5313 -0.7142 0.665 -0.489 0.564 176 156 131 0 0
-0.4026 0.5327 -0.7159 -0.097 -0.576 0.812 174 153 130 0 0
-0.2741 0.5765 -0.7801 -0.258 -0.366 0.894 184 166 145 0 0
-0.2724 0.5742 -0.7793 0.308 -0.657 0.688 181 164 140 0 0
-0.2694 0.5752 -0.7808 0.612 -0.790 -0.032 181 163 139 0 0
-0.2660 0.5773 -0.7831 0.587 -0.760 -0.280 179 160 137 0 0
-0.2639 0.5762 -0.7831 0.518 -0.717 0.467 175 157 135 0 0
-0.1712 0.5751 -0.8109 -0.724 -0.452 0.522 185 169 146 0 0
-0.1415 0.5616 -0.8124 -0.069 -0.306 0.950 175 158 134 0 0
-1.6988 0.4804 -0.2915 -0.581 -0.757 0.300 139 114 84 0 0
-1.6857 0.4763 -0.2932 0.160 -0.656 0.738 169 147 118 0 0
-1.5927 0.4785 -0.3230 -0.042 -0.861 0.506 142 115 89 0 0
-1.5921 0.4810 -0.3246 0.516 -0.765 0.386 147 119 93 0 0
-1.5832 0.4924 -0.3338 0.459 -0.861 -0.220 173 147 120 0 0
-1.5815 0.4935 -0.3349 -0.071 -0.944 -0.323 172 147 117 0 0
-1.5548 0.4731 -0.3315 -0.329 -0.695 0.640 182 158 127 0 0
-1.5492 0.4719 -0.3326 0.734 -0.523 0.434 189 170 140 0 0
-1.4882 0.4860 -0.3593 0.640 -0.479 0.601 181 155 126 0 0
-1.4510 0.5056 -0.3819 0.259 -0.949 0.180 181 158 129 0 0
-1.3808 0.4951 -0.3974 0.236 -0.502 0.832 203 184 158 0 0
-1.3561 0.5091 -0.4130 -0.217 -0.536 0.816 179 154 127 0 0
-1.3301 0.5018 -0.4168 0.375 -0.520 0.768 197 179 154 0 0
-1.3278 0.5022 -0.4177 0.375 -0.520 0.768 196 177 152 0 0
-1.3260 0.5035 -0.4190 -0.039 -0.552 0.833 196 176 151 0 0
-1.3027 0.4961 -0.4220 0.582 -0.444 0.681 191 169 142 0 0
-1.2322 0.5040 -0.4480 0.335 -0.942 -0.031 195 171 143 0 0
-1.2252 0.4988 -0.4473 -0.305 -0.670 0.677 191 165 137 0 0
-1.2237 0.5013 -0.4491 0.459 -0.877 0.143 194 168 140 0 0
-1.1739 0.5134 -0.4713 0.580 -0.658 0.480 203 178 151 0 0
-1.1716 0.5140 -0.4723 0.543 -0.840 0.005 201 178 148 0 0
-1.1277 0.5323 -0.4962 0.976 -0.079 0.204 198 172 143 0 0
-1.0830 0.5086 -0.4965 -0.576 -0.363 0.732 203 179 155 0 0
-1.0769 0.5315 -0.5113 0.167 -0.077 0.983 188 160 131 0 0
-1.0300 0.5250 -0.5221 0.597 -0.550 0.584 195 171 148 0 0
-0.9950 0.5256 -0.5332 0.378 -0.926 0.003 185 154 127 0 0
-0.9716 0.5213 -0.5379 0.617 -0.324 0.717 194 170 143 0 0
-0.9651 0.5269 -0.5431 0.118 -0.266 0.957 188 161 137 0 0
-0.9324 0.5421 -0.5617 -0.615 -0.503 0.607 195 170 144 0 0
-0.9102 0.5466 -0.5711 0.343 -0.563 0.752 200 178 155 0 0
-0.8451 0.5309 -0.5821 0.012 -0.932 0.363 186 162 136 0 0
-0.8425 0.5307 -0.5828 0.138 -0.905 0.403 188 164 138 0 0
-0.7750 0.5418 -0.6098 -0.050 -0.522 0.852 171 145 119 0 0
-0.7497 0.5412 -0.6173 0.437 -0.848 0.299 179 155 131 0 0
-0.7472 0.5422 -0.6186 0.503 -0.822 0.268 178 154 130 0 0
-0.7446 0.5430 -0.6198 0.437 -0.848 0.299 186 165 140 0 0
-0.7421 0.5439 -0.6212 0.360 -0.875 0.323 195 177 153 0 0
-0.6301 0.5478 -0.6577 0.492 -0.345 0.799 193 175 153 0 0
-0.6158 0.5386 -0.6569 -0.359 -0.444 0.821 206 193 174 0 0
-0.6133 0.5381 -0.6573 0.159 -0.482 0.861 206 192 171 0 0
-0.6012 0.5340 -0.6588 0.843 -0.157 0.515 182 163 141 0 0
-0.5864 0.5521 -0.6736 -0.196 -0.005 0.981 173 153 129 0 0
-0.5840 0.5512 -0.6738 0.331 -0.038 0.943 172 151 128 0 0
-0.5330 0.5511 -0.6894 -0.159 -0.913 0.375 148 122 100 0 0
-0.5091 0.5569 -0.7000 0.171 -0.008 0.985 178 156 132 0 0
-0.4986 0.5450 -0.6965 0.345 -0.285 0.894 185 165 141 0 0
-0.4932 0.5214 -0.6847 -0.033 -0.683 0.730 186 165 143 0 0
-0.4906 0.5218 -0.6857 0.245 -0.374 0.895 184 165 142 0 0
-0.4647 0.5379 -0.7028 0.864 -0.488 0.126 188 171 147 0 0
-0.3452 0.5497 -0.7462 0.715 -0.598 0.362 157 135 112 0 0
-0.2743 0.5701 -0.7796 0.345 -0.458 0.819 182 164 142 0 0
-0.2700 0.5748 -0.7835 0.593 -0.803 -0.057 181 163 139 0 0
-0.2659 0.5722 -0.7833 0.559 -0.407 0.723 176 158 136 0 0
-0.2384 0.5632 -0.7866 0.289 -0.595 0.750 182 166 143 0 0
-0.2164 0.5608 -0.7920 0.767 -0.609 0.203 184 167 147 0 0
-0.2073 0.5640 -0.7967 0.571 -0.156 0.806 179 161 139 0 0
-0.1847 0.5807 -0.8131 0.521 -0.484 0.703 177 159 137 0 0
-0.1816 0.5819 -0.8147 0.351 -0.577 0.738 172 153 129 0 0
-0.1799 0.5800 -0.8142 -0.041 -0.631 0.775 170 152 128 0 0
-0.1722 0.5740 -0.8131 -0.634 -0.480 0.607 188 173 150 0 0
-0.1383 0.5584 -0.8147 0.473 -0.816 0.333 172 154 129 0 0
-1.7001 0.4805 -0.2941 -0.513 -0.693 0.507 137 112 84 0 0
-1.5930 0.4773 -0.3251 -0.042 -0.861 0.506 142 114 88 0 0
-1.4909 0.4847 -0.3607 0.148 -0.388 0.910 176 151 121 0 0
-1.4886 0.4849 -0.3615 0.594 -0.485 0.642 181 155 127 0 0
-1.4868 0.4858 -0.3626 0.594 -0.485 0.642 182 157 129 0 0
-1.3553 0.5056 -0.4142 -0.146 -0.370 0.918 186 163 134 0 0
-1.3305 0.5006 -0.4189 0.384 -0.422 0.821 192 171 145 0 0
-1.3027 0.4940 -0.4237 0.631 -0.369 0.682 194 173 146 0 0
-1.2695 0.4910 -0.4322 0.170 -0.486 0.857 190 167 138 0 0
-1.2601 0.4920 -0.4356 -0.234 -0.474 0.849 185 159 131 0 0
-1.2531 0.4929 -0.4383 0.587 -0.663 0.464 185 159 132 0 0
-1.2472 0.4960 -0.4419 0.700 -0.712 -0.064 191 166 138 0 0
-1.2417 0.5006 -0.4462 0.084 -0.826 0.558 194 171 144 0 0
-1.2388 0.4996 -0.4465 -0.053 -0.921 0.386 190 167 136 0 0
-1.2328 0.5029 -0.4502 0.018 -0.816 0.578 184 158 129 0 0
-1.2259 0.4981 -0.4496 -0.453 -0.574 0.683 187 158 129 0 0
-1.2052 0.5019 -0.4581 -0.152 -0.702 0.696 202 181 154 0 0
-1.1727 0.5144 -0.4752 0.528 -0.839 -0.129 196 172 143 0 0
-1.1707 0.5156 -0.4766 0.309 -0.950 -0.055 190 162 134 0 0
-1.1066 0.5262 -0.5023 0.086 -0.380 0.921 195 171 143 0 0
-1.0837 0.5078 -0.4988 -0.447 -0.334 0.830 206 187 162 0 0
-1.0762 0.5254 -0.5112 0.271 -0.030 0.962 199 175 148 0 0
-1.0739 0.5261 -0.5123 0.710 -0.135 0.692 203 180 153 0 0
-1.0717 0.5273 -0.5136 0.336 -0.171 0.926 201 179 155 0 0
-0.9976 0.5220 -0.5333 0.324 -0.936 -0.139 180 150 122 0 0
-0.9953 0.5231 -0.5347 -0.020 -0.989 -0.145 182 151 124 0 0
