ply
format ascii 1.0
element vertex 828
property float x
property float y
property float z
property float nx
property float ny
property float nz
property uchar diffuse_red
property uchar diffuse_green
property uchar diffuse_blue
property uchar class
property uchar detection
end_header
-0.6189 1.6337 -0.2832 0.706 0.627 0.330 147 124 107 0 0
-0.6386 1.6585 -0.2794 0.760 -0.435 0.483 128 105 87 0 0
-0.6304 1.6742 -0.2651 0.573 0.475 0.668 147 122 102 0 0
-0.6255 1.6743 -0.2622 0.905 0.425 -0.028 153 128 109 0 0
-0.6240 1.6756 -0.2605 0.933 -0.099 -0.345 157 133 113 0 0
-0.6233 1.6771 -0.2592 0.933 -0.099 -0.345 158 135 114 0 0
-0.6215 1.6783 -0.2574 0.983 -0.171 -0.071 155 130 111 0 0
-0.6214 1.6801 -0.2563 0.990 -0.127 0.065 148 123 103 0 0
-0.6201 1.6850 -0.2525 0.906 0.410 -0.103 156 133 113 0 0
-0.6234 1.6880 -0.2526 0.884 0.229 -0.409 160 139 117 0 0
-0.6347 1.7119 -0.2445 0.646 0.041 0.762 174 155 134 0 0
-0.6341 1.7135 -0.2432 0.981 -0.122 -0.151 180 162 144 0 0
-0.6439 1.7828 -0.2066 0.450 -0.300 0.841 153 131 112 0 0
-0.6729 1.8272 -0.1962 0.396 -0.281 0.874 168 150 130 0 0
-0.6743 1.8296 -0.1956 0.362 -0.079 0.929 167 149 129 0 0
-0.6751 1.8317 -0.1947 0.355 0.032 0.934 170 151 133 0 0
-0.6783 1.8349 -0.1946 0.324 0.068 0.944 171 153 132 0 0
-0.3381 0.6809 -0.7057 0.989 -0.144 0.017 161 139 116 0 0
-0.3395 0.6848 -0.7041 0.450 0.630 0.633 159 135 114 0 0
-0.3634 0.7283 -0.6913 0.758 -0.392 0.521 171 148 126 0 0
-0.3842 0.7794 -0.6722 0.356 0.105 0.929 185 167 150 0 0
-0.3853 0.7812 -0.6717 0.442 -0.064 0.895 180 161 143 0 0
-0.3890 0.7841 -0.6721 0.859 0.067 0.508 174 152 133 0 0
-0.3901 0.7859 -0.6717 0.921 -0.386 0.050 176 155 134 0 0
-0.4046 0.8384 -0.6480 0.211 0.737 0.642 149 123 106 0 0
-0.4055 0.8403 -0.6473 0.922 -0.383 0.056 167 143 122 0 0
-0.4043 0.8455 -0.6434 0.699 -0.162 0.697 143 118 101 0 0
-0.4056 0.8473 -0.6430 0.749 -0.062 0.659 145 119 101 0 0
-0.4027 0.8509 -0.6392 0.916 -0.341 0.210 149 126 108 0 0
-0.4369 0.9234 -0.6147 -0.087 0.491 0.867 169 144 123 0 0
-0.4382 0.9276 -0.6129 0.690 -0.629 0.359 168 145 122 0 0
-0.4336 0.9700 -0.5843 0.422 0.868 0.262 176 153 131 0 0
-0.4380 0.9732 -0.5849 0.712 -0.657 0.247 177 153 131 0 0
-0.4340 0.9788 -0.5792 0.735 -0.587 0.339 189 168 147 0 0
-0.4318 0.9839 -0.5748 0.935 -0.348 0.069 198 183 168 0 0
-0.4409 1.0212 -0.5573 0.352 -0.628 0.694 176 153 138 0 0
-0.4380 1.0263 -0.5525 0.494 0.016 0.869 189 173 158 0 0
-0.4555 1.0419 -0.5531 0.956 0.047 0.289 154 127 111 0 0
-0.4563 1.0439 -0.5523 0.969 -0.117 0.217 151 124 110 0 0
-0.4562 1.0461 -0.5509 0.896 -0.385 0.219 155 129 114 0 0
-0.4530 1.0577 -0.5419 0.884 -0.119 0.452 179 157 139 0 0
-0.4713 1.0628 -0.5494 0.700 -0.376 0.607 169 145 125 0 0
-0.4783 1.1008 -0.5303 0.375 -0.613 0.695 167 143 122 0 0
-0.4711 1.1106 -0.5201 0.981 0.043 0.189 196 180 164 0 0
-0.4794 1.1244 -0.5165 0.722 0.427 0.544 152 125 109 0 0
-0.4919 1.1634 -0.4999 0.244 -0.387 0.889 177 154 136 0 0
-0.5129 1.2167 -0.4795 0.289 0.041 0.956 174 151 132 0 0
-0.5165 1.2187 -0.4804 0.611 -0.148 0.777 177 155 136 0 0
-0.5184 1.2207 -0.4802 0.764 -0.206 0.611 181 160 142 0 0
-0.5191 1.2228 -0.4794 0.621 -0.025 0.783 183 161 142 0 0
-0.5180 1.2705 -0.4496 0.829 -0.553 -0.081 169 144 126 0 0
-0.5200 1.2726 -0.4495 0.694 -0.707 -0.138 168 143 126 0 0
-0.5529 1.3371 -0.4291 0.763 0.603 0.233 163 140 122 0 0
-0.5506 1.3430 -0.4241 0.800 -0.498 -0.335 151 128 111 0 0
-0.5482 1.3550 -0.4155 0.821 0.486 0.299 194 182 169 0 0
-0.5498 1.3571 -0.4151 0.974 0.010 0.224 198 186 173 0 0
-0.5470 1.3689 -0.4063 0.970 0.237 0.057 176 157 141 0 0
-0.5468 1.3708 -0.4049 0.957 0.285 -0.054 180 162 144 0 0
-0.5565 1.4213 -0.3798 0.899 0.430 0.089 174 153 134 0 0
-0.5570 1.4233 -0.3788 0.798 0.594 0.102 173 152 135 0 0
-0.5608 1.4258 -0.3795 0.958 0.276 -0.077 172 150 133 0 0
-0.5662 1.4305 -0.3797 0.819 -0.277 0.503 166 144 127 0 0
-0.5549 1.4917 -0.3357 0.902 0.113 -0.416 180 163 152 0 0
-0.5735 1.5145 -0.3326 0.856 -0.484 0.179 156 133 115 0 0
-0.5869 1.5345 -0.3281 0.276 -0.546 0.791 164 143 125 0 0
-0.5988 1.5714 -0.3125 0.641 -0.767 0.030 174 155 136 0 0
-0.5959 1.5780 -0.3067 0.652 -0.572 0.497 168 147 127 0 0
-0.6156 1.6319 -0.2852 0.801 0.527 0.282 150 127 109 0 0
-0.6163 1.6340 -0.2844 0.540 0.766 0.348 148 126 109 0 0
-0.6239 1.6893 -0.2549 0.963 0.119 0.243 153 130 111 0 0
-0.6344 1.7148 -0.2455 0.995 -0.039 0.093 180 163 144 0 0
-0.6282 1.7616 -0.2132 -0.008 -0.052 0.999 167 147 129 0 0
-0.6295 1.7639 -0.2126 0.155 -0.415 0.896 165 146 129 0 0
-0.6323 1.7755 -0.2071 0.066 0.143 0.987 150 128 109 0 0
-0.6446 1.7843 -0.2089 0.452 -0.172 0.875 149 127 107 0 0
-0.6701 1.8271 -0.1975 0.396 -0.281 0.874 166 147 127 0 0
-0.6707 1.8291 -0.1966 0.373 -0.266 0.889 166 148 127 0 0
-0.6724 1.8317 -0.1961 0.494 0.328 0.805 166 148 129 0 0
-0.6749 1.8346 -0.1957 0.494 0.328 0.805 167 150 132 0 0
-0.6769 1.8372 -0.1952 0.313 -0.025 0.949 170 153 133 0 0
-0.3352 0.6811 -0.7068 0.889 0.036 0.456 161 136 118 0 0
-0.3393 0.6808 -0.7093 0.473 0.392 0.789 161 136 116 0 0
-0.3466 0.6858 -0.7105 0.341 -0.375 0.862 160 134 115 0 0
-0.3481 0.6874 -0.7104 0.570 -0.564 0.597 158 133 114 0 0
-0.3590 0.7147 -0.7000 0.248 0.524 0.815 169 145 125 0 0
-0.3612 0.7158 -0.7007 0.953 0.120 0.278 174 153 132 0 0
-0.3605 0.7187 -0.6985 0.368 0.206 0.907 171 149 127 0 0
-0.3708 0.7634 -0.6771 0.696 -0.616 0.369 171 150 129 0 0
-0.3943 0.8274 -0.6516 0.774 -0.387 0.500 161 134 116 0 0
-0.4043 0.8417 -0.6488 0.941 -0.330 -0.078 139 113 95 0 0
-0.4112 0.8738 -0.6331 0.938 -0.138 0.319 169 149 129 0 0
-0.4111 0.8761 -0.6316 0.970 0.037 0.241 161 137 115 0 0
-0.4099 0.8789 -0.6292 0.836 -0.546 0.053 159 135 113 0 0
-0.4122 0.8850 -0.6268 0.588 -0.631 0.507 161 135 116 0 0
-0.4131 0.8869 -0.6261 0.643 -0.679 0.355 155 129 112 0 0
-0.4356 0.9248 -0.6162 0.025 0.587 0.809 161 136 116 0 0
-0.4346 0.9706 -0.5875 0.443 0.721 0.533 171 145 123 0 0
-0.4380 0.9718 -0.5887 0.773 -0.521 0.361 166 140 118 0 0
-0.4309 0.9806 -0.5793 0.825 -0.361 0.435 190 170 150 0 0
-0.4289 0.9856 -0.5750 0.909 0.167 0.381 203 187 171 0 0
-0.4296 0.9876 -0.5742 0.955 0.151 0.254 206 192 178 0 0
-0.4485 1.0069 -0.5733 0.899 -0.424 -0.114 186 166 150 0 0
-0.4396 1.0180 -0.5614 0.881 -0.471 0.046 155 129 114 0 0
-0.4346 1.0280 -0.5524 0.775 -0.106 0.623 195 181 167 0 0
-0.4406 1.0309 -0.5541 0.566 0.130 0.814 189 174 158 0 0
-0.4389 1.0335 -0.5515 0.287 0.903 0.319 182 165 146 0 0
-0.4520 1.0589 -0.5436 0.884 -0.119 0.452 177 155 137 0 0
-0.4621 1.0764 -0.5388 0.255 -0.450 0.856 193 175 159 0 0
-0.4790 1.0973 -0.5358 0.614 -0.675 0.409 167 142 122 0 0
-0.4722 1.1156 -0.5206 0.940 0.341 -0.017 208 198 185 0 0
-0.4787 1.1254 -0.5184 0.722 0.427 0.544 148 121 104 0 0
-0.4704 1.1477 -0.5000 0.681 -0.639 0.358 181 162 142 0 0
-0.4677 1.1501 -0.4969 0.821 -0.502 0.273 188 170 152 0 0
-0.4711 1.1539 -0.4965 -0.006 0.007 1.000 185 167 148 0 0
-0.4873 1.1648 -0.4993 0.182 0.099 0.978 175 151 133 0 0
-0.4894 1.1667 -0.4993 0.632 -0.011 0.775 184 165 146 0 0
-0.4988 1.1934 -0.4885 0.714 -0.246 0.655 183 163 145 0 0
-0.4976 1.1955 -0.4865 0.808 -0.410 0.424 179 156 138 0 0
-0.5149 1.2198 -0.4817 0.590 0.051 0.806 187 169 151 0 0
-0.5161 1.2218 -0.4812 0.858 -0.042 0.512 184 166 149 0 0
-0.5168 1.2239 -0.4803 0.924 0.085 0.374 181 161 142 0 0
-0.5165 1.2715 -0.4510 0.690 -0.663 0.292 170 146 129 0 0
-0.5213 1.2757 -0.4513 0.669 -0.139 0.730 172 149 133 0 0
-0.5152 1.2817 -0.4440 0.471 0.236 0.850 179 159 141 0 0
-0.5225 1.3142 -0.4284 0.358 -0.152 0.921 200 186 173 0 0
-0.5435 1.3315 -0.4301 0.073 0.602 0.795 178 157 138 0 0
-0.5509 1.3381 -0.4303 0.698 0.309 0.646 172 150 131 0 0
-0.5469 1.3699 -0.4085 0.648 -0.025 0.761 168 148 131 0 0
-0.5579 1.3989 -0.3972 0.644 0.657 0.392 167 147 130 0 0
-0.5596 1.4011 -0.3968 0.639 0.506 0.580 169 150 133 0 0
-0.5614 1.4033 -0.3965 0.549 0.456 0.701 175 158 141 0 0
-0.5567 1.4224 -0.3821 0.895 0.264 -0.360 168 148 130 0 0
-0.5590 1.4247 -0.3820 0.809 0.527 -0.262 167 146 129 0 0
-0.5614 1.4270 -0.3820 0.973 0.199 -0.115 166 143 127 0 0
-0.5662 1.4316 -0.3820 0.961 0.070 0.267 163 140 124 0 0
-0.5599 1.4749 -0.3518 0.848 0.435 0.303 187 173 158 0 0
-0.5603 1.4958 -0.3392 0.886 0.193 0.421 173 155 142 0 0
-0.5731 1.5155 -0.3346 0.750 -0.650 0.120 155 132 114 0 0
-0.5691 1.5202 -0.3294 0.695 0.281 0.662 174 154 137 0 0
-0.5712 1.5226 -0.3292 0.544 0.653 0.527 175 154 138 0 0
-0.5807 1.5342 -0.3276 0.464 -0.150 0.873 160 138 120 0 0
-0.5938 1.5786 -0.3081 0.593 -0.300 0.748 160 138 117 0 0
-0.5940 1.5805 -0.3070 0.876 -0.395 0.278 165 144 123 0 0
-0.5936 1.5823 -0.3057 0.752 -0.324 0.574 172 151 132 0 0
-0.5937 1.5842 -0.3046 0.716 -0.369 0.593 175 156 138 0 0
-0.5988 1.5967 -0.2999 0.963 -0.268 -0.034 175 154 133 0 0
-0.6031 1.6201 -0.2881 0.890 -0.349 0.294 177 158 138 0 0
-0.6099 1.6277 -0.2874 0.209 0.327 0.922 163 141 124 0 0
-0.6141 1.6308 -0.2879 0.273 0.393 0.878 155 132 117 0 0
-0.6152 1.6330 -0.2873 0.544 0.555 0.629 152 129 113 0 0
-0.6176 1.6356 -0.2871 0.437 0.547 0.714 153 132 114 0 0
-0.6223 1.6389 -0.2878 0.387 0.527 0.756 158 136 116 0 0
-0.6183 1.6651 -0.2694 0.917 -0.030 0.399 156 132 112 0 0
-0.6202 1.6675 -0.2690 0.644 0.374 0.667 158 135 117 0 0
-0.6268 1.6753 -0.2681 0.588 0.401 0.702 143 120 100 0 0
-0.6187 1.7029 -0.2465 0.826 0.508 0.243 133 112 93 0 0
-0.6209 1.7055 -0.2462 0.782 0.048 0.621 142 121 103 0 0
-0.6209 1.7597 -0.2130 0.113 -0.074 0.991 166 148 128 0 0
-0.6241 1.7628 -0.2130 0.169 -0.366 0.915 166 147 130 0 0
-0.6133 1.7600 -0.2084 0.577 0.113 0.809 166 147 129 0 0
-0.6146 1.7622 -0.2078 0.558 0.093 0.825 163 143 124 0 0
-0.6163 1.7647 -0.2073 0.490 -0.053 0.870 161 140 122 0 0
-0.6189 1.7675 -0.2071 0.229 0.169 0.959 153 131 113 0 0
-0.6268 1.7743 -0.2075 0.104 0.222 0.969 150 129 110 0 0
-0.6313 1.7780 -0.2079 0.078 0.283 0.956 151 128 111 0 0
-0.6373 1.7823 -0.2087 0.250 0.425 0.870 150 128 108 0 0
-0.6676 1.8289 -0.1978 0.645 -0.225 0.730 165 145 127 0 0
-0.6764 1.8418 -0.1951 0.397 -0.407 0.822 169 151 132 0 0
-0.3384 0.6821 -0.7110 -0.002 0.433 0.901 160 135 114 0 0
-0.3575 0.7212 -0.6981 0.271 -0.178 0.946 181 159 141 0 0
-0.3538 0.7426 -0.6829 0.874 0.467 -0.132 166 143 123 0 0
-0.3550 0.7467 -0.6811 0.931 0.195 -0.310 168 143 123 0 0
-0.3652 0.7577 -0.6803 -0.181 0.279 0.943 159 132 111 0 0
-0.3687 0.7653 -0.6777 0.681 -0.624 0.383 168 144 125 0 0
-0.3814 0.8085 -0.6586 0.625 -0.334 0.706 166 141 121 0 0
-0.3913 0.8249 -0.6544 0.960 0.074 0.270 172 147 129 0 0
-0.3940 0.8284 -0.6539 0.825 0.459 0.330 164 138 121 0 0
-0.3921 0.8316 -0.6508 0.745 -0.049 0.665 150 124 106 0 0
-0.4005 0.8372 -0.6522 0.775 -0.123 0.619 126 101 81 0 0
-0.4104 0.8749 -0.6349 0.938 -0.138 0.319 176 157 137 0 0
-0.4088 0.8779 -0.6322 0.955 -0.039 -0.295 166 143 124 0 0
-0.4082 0.8805 -0.6302 0.937 -0.267 -0.224 162 139 118 0 0
-0.4097 0.9142 -0.6104 0.394 0.217 0.893 205 193 180 0 0
-0.4348 0.9305 -0.6151 0.981 -0.191 -0.028 170 146 124 0 0
-0.4372 0.9729 -0.5905 0.721 -0.636 0.276 164 135 115 0 0
-0.4458 1.0085 -0.5737 0.926 -0.356 -0.122 179 158 140 0 0
-0.4375 1.0195 -0.5622 0.793 -0.378 0.477 153 128 111 0 0
-0.4332 1.0292 -0.5537 0.753 -0.180 0.634 203 192 179 0 0
-0.4376 1.0325 -0.5543 0.691 -0.104 0.715 188 174 157 0 0
-0.4387 1.0344 -0.5537 0.325 0.886 0.331 187 171 155 0 0
-0.4412 1.0361 -0.5542 0.284 0.888 0.362 190 174 159 0 0
-0.4509 1.0578 -0.5465 0.875 -0.272 -0.399 178 155 139 0 0
-0.4587 1.0780 -0.5387 0.479 -0.454 0.751 195 179 164 0 0
-0.4634 1.0836 -0.5380 0.045 -0.239 0.970 186 168 152 0 0
-0.4706 1.0888 -0.5391 -0.078 0.318 0.945 153 127 109 0 0
-0.4731 1.0906 -0.5394 -0.065 0.180 0.982 154 127 108 0 0
-0.4702 1.0954 -0.5348 0.610 -0.466 0.641 166 143 125 0 0
-0.4689 1.1488 -0.5013 0.716 -0.618 0.325 185 167 148 0 0
-0.4674 1.1511 -0.4990 0.980 0.003 0.200 192 175 159 0 0
-0.4668 1.1553 -0.4961 0.913 -0.218 0.344 196 182 167 0 0
-0.4713 1.1569 -0.4977 0.182 0.321 0.930 191 172 155 0 0
-0.4832 1.1662 -0.4990 0.054 -0.129 0.990 181 159 142 0 0
-0.4839 1.1682 -0.4982 0.173 -0.072 0.982 184 165 147 0 0
-0.4935 1.2031 -0.4824 0.836 -0.121 0.535 158 133 113 0 0
-0.5062 1.2623 -0.4536 0.860 0.119 0.497 184 164 145 0 0
-0.5057 1.3006 -0.4298 0.786 0.495 0.369 177 159 141 0 0
-0.5134 1.3049 -0.4317 0.655 0.051 0.754 181 162 145 0 0
-0.5186 1.3091 -0.4321 0.903 0.065 0.425 190 174 160 0 0
-0.5201 1.3111 -0.4318 0.870 0.479 -0.116 195 182 169 0 0
-0.5209 1.3132 -0.4310 0.807 0.553 -0.207 196 181 168 0 0
-0.5222 1.3153 -0.4305 0.807 0.553 -0.207 194 181 169 0 0
-0.5181 1.3171 -0.4270 0.913 -0.038 0.405 194 182 170 0 0
-0.5482 1.3450 -0.4275 0.819 -0.550 -0.165 159 135 118 0 0
-0.5423 1.3526 -0.4193 0.883 -0.174 0.436 176 158 145 0 0
-0.5549 1.3937 -0.4015 0.886 -0.432 -0.171 172 153 135 0 0
-0.5558 1.3978 -0.3996 0.616 0.771 0.162 175 155 139 0 0
-0.5596 1.4022 -0.3990 0.615 0.293 0.732 165 144 128 0 0
-0.5609 1.4044 -0.3985 0.623 0.137 0.770 170 150 133 0 0
-0.5622 1.4065 -0.3980 0.556 0.054 0.829 177 159 142 0 0
-0.5609 1.4260 -0.3852 0.836 0.480 -0.265 179 159 143 0 0
-0.5659 1.4307 -0.3853 0.968 0.234 0.093 164 141 124 0 0
-0.5654 1.4326 -0.3839 0.682 -0.323 0.656 169 146 130 0 0
-0.5618 1.4456 -0.3737 0.601 0.302 0.740 182 162 145 0 0
-0.5635 1.4479 -0.3734 0.493 0.406 0.770 180 159 141 0 0
-0.5596 1.4760 -0.3539 0.848 0.435 0.303 180 163 148 0 0
-0.5627 1.4842 -0.3506 0.928 0.052 -0.368 174 155 140 0 0
-0.5595 1.4968 -0.3411 0.898 0.154 0.411 184 167 154 0 0
-0.5721 1.5164 -0.3364 0.804 -0.519 0.290 157 133 115 0 0
-0.5675 1.5228 -0.3297 0.681 0.732 0.005 178 157 140 0 0
-0.5700 1.5253 -0.3297 0.722 0.633 0.280 170 149 132 0 0
-0.5725 1.5278 -0.3297 0.813 0.098 0.574 169 147 130 0 0
-0.5783 1.5347 -0.3288 0.493 0.122 0.861 162 139 122 0 0
-0.5797 1.5370 -0.3283 0.493 0.122 0.861 165 143 127 0 0
-0.5759 1.5472 -0.3197 0.798 0.600 0.043 182 164 147 0 0
-0.5938 1.5816 -0.3091 0.673 -0.189 0.715 159 135 114 0 0
-0.5942 1.5836 -0.3082 0.773 -0.162 0.614 164 142 120 0 0
-0.5945 1.5855 -0.3072 0.667 0.006 0.745 168 147 128 0 0
-0.5939 1.5946 -0.3012 0.981 0.040 0.188 174 152 133 0 0
-0.5966 1.5972 -0.3012 0.984 -0.178 0.029 170 148 131 0 0
-0.5986 1.5996 -0.3009 0.960 -0.274 -0.065 167 145 124 0 0
-0.6011 1.6206 -0.2895 0.544 -0.127 0.830 180 162 140 0 0
-0.6020 1.6227 -0.2887 0.638 0.166 0.752 184 166 145 0 0
-0.6026 1.6247 -0.2878 0.844 0.098 0.527 183 165 147 0 0
-0.6066 1.6278 -0.2883 0.358 0.284 0.889 176 156 138 0 0
-0.6113 1.6311 -0.2890 0.313 0.424 0.850 164 142 124 0 0
-0.6137 1.6337 -0.2888 0.627 0.614 0.479 158 134 116 0 0
-0.6162 1.6363 -0.2887 0.487 0.556 0.674 158 136 118 0 0
-0.6202 1.6394 -0.2891 0.371 0.520 0.769 164 143 124 0 0
-0.6195 1.6667 -0.2720 0.921 -0.016 0.390 153 129 109 0 0
-0.6205 1.6688 -0.2713 0.799 0.246 0.549 157 133 113 0 0
-0.6160 1.7013 -0.2488 0.585 0.709 0.395 128 108 89 0 0
-0.6188 1.7041 -0.2487 0.638 0.508 0.579 129 108 89 0 0
-0.6209 1.7067 -0.2483 0.531 0.211 0.821 133 112 93 0 0
-0.6198 1.7466 -0.2232 0.794 0.380 0.475 150 128 107 0 0
-0.6175 1.7492 -0.2203 0.920 0.392 0.023 167 149 132 0 0
-0.6124 1.7488 -0.2176 0.954 0.109 -0.280 171 154 136 0 0
-0.6143 1.7547 -0.2150 0.474 0.738 0.480 172 155 138 0 0
-0.6143 1.7564 -0.2140 0.880 0.412 0.235 170 151 134 0 0
-0.6169 1.7593 -0.2138 0.971 0.239 -0.008 167 149 131 0 0
-0.6134 1.7595 -0.2116 0.748 0.230 0.622 168 149 133 0 0
-0.6137 1.7613 -0.2106 0.906 -0.267 -0.328 166 147 131 0 0
-0.6138 1.7630 -0.2096 0.940 -0.290 -0.178 165 145 126 0 0
-0.6126 1.7642 -0.2082 0.820 -0.536 -0.199 161 140 120 0 0
-0.6132 1.7662 -0.2073 0.452 0.403 0.796 153 131 110 0 0
-0.6182 1.7701 -0.2079 0.295 0.557 0.776 149 126 106 0 0
-0.6233 1.7740 -0.2085 0.259 0.536 0.804 151 129 110 0 0
-0.6299 1.7786 -0.2095 0.264 0.571 0.778 153 131 110 0 0
-0.3415 0.6906 -0.7105 0.906 0.059 0.420 148 122 104 0 0
-0.3478 0.7085 -0.7032 0.254 -0.294 0.921 179 159 138 0 0
-0.3589 0.7476 -0.6857 0.883 -0.469 0.003 164 138 117 0 0
-0.3593 0.7545 -0.6817 0.544 -0.029 0.839 158 133 113 0 0
-0.3832 0.7895 -0.6743 0.278 0.307 0.910 171 149 129 0 0
-0.3840 0.7914 -0.6736 0.784 -0.268 0.561 174 152 130 0 0
-0.3789 0.8105 -0.6589 0.813 -0.222 0.539 169 145 124 0 0
-0.3879 0.8203 -0.6582 0.805 0.561 0.192 154 128 109 0 0
-0.3894 0.8219 -0.6580 0.933 -0.146 0.329 180 156 141 0 0
-0.3897 0.8241 -0.6569 0.950 0.070 0.305 183 162 146 0 0
-0.3908 0.8259 -0.6564 0.960 0.074 0.270 166 141 122 0 0
-0.3914 0.8280 -0.6555 0.966 0.195 0.170 161 134 116 0 0
-0.3875 0.8322 -0.6507 0.925 -0.378 -0.030 174 147 129 0 0
-0.4061 0.8775 -0.6337 0.759 -0.633 0.151 180 159 139 0 0
-0.4090 0.8810 -0.6334 0.918 -0.203 -0.341 166 144 125 0 0
-0.4028 0.9108 -0.6114 0.659 0.524 0.540 171 149 126 0 0
-0.4043 0.9125 -0.6112 0.726 0.260 0.637 180 159 140 0 0
-0.4325 0.9685 -0.5934 0.942 0.283 -0.182 167 140 122 0 0
-0.4381 1.0114 -0.5704 0.515 0.671 0.533 177 156 139 0 0
-0.4392 1.0133 -0.5699 0.929 0.241 0.282 178 159 139 0 0
-0.4373 1.0182 -0.5657 0.820 -0.533 0.208 159 135 116 0 0
-0.4363 1.0207 -0.5636 0.844 -0.350 0.408 144 118 102 0 0
-0.4323 1.0282 -0.5567 0.876 -0.176 0.449 204 191 182 0 0
-0.4326 1.0303 -0.5556 0.891 -0.129 0.435 203 189 177 0 0
-0.4330 1.0324 -0.5545 0.718 0.526 0.457 191 177 162 0 0
-0.4364 1.0337 -0.5557 0.834 -0.005 0.552 182 166 149 0 0
-0.4389 1.0353 -0.5562 0.351 0.884 0.309 186 171 154 0 0
-0.4686 1.1477 -0.5047 0.811 -0.389 0.438 184 165 146 0 0
-0.4680 1.1499 -0.5030 0.889 -0.346 0.300 185 166 149 0 0
-0.4670 1.1521 -0.5011 0.980 0.003 0.200 191 173 157 0 0
-0.4672 1.1583 -0.4973 0.954 -0.273 0.122 198 182 167 0 0
-0.4678 1.1603 -0.4965 0.780 0.086 0.620 190 172 154 0 0
-0.4933 1.1978 -0.4885 0.475 -0.239 0.847 184 166 147 0 0
-0.4968 1.2018 -0.4881 0.759 -0.405 -0.510 167 143 123 0 0
-0.4960 1.2060 -0.4850 0.981 0.187 0.057 157 130 111 0 0
-0.4938 1.2082 -0.4824 0.684 0.729 -0.027 161 134 116 0 0
-0.5052 1.2634 -0.4552 0.980 0.019 0.196 179 159 140 0 0
-0.5055 1.2654 -0.4542 0.892 0.276 0.358 171 146 127 0 0
-0.5056 1.3016 -0.4320 0.681 0.732 0.026 177 159 141 0 0
-0.5416 1.3516 -0.4225 0.998 -0.040 -0.052 156 134 117 0 0
-0.5426 1.3737 -0.4096 0.379 0.044 0.924 173 152 134 0 0
-0.5462 1.3760 -0.4102 0.383 0.094 0.919 177 158 139 0 0
-0.5518 1.3964 -0.4010 0.814 -0.509 0.281 168 146 130 0 0
-0.5539 1.3987 -0.4009 0.954 0.216 0.207 169 150 133 0 0
-0.5613 1.4252 -0.3889 0.820 0.358 -0.446 186 168 148 0 0
-0.5553 1.4418 -0.3752 0.721 0.074 0.689 185 167 151 0 0
-0.5608 1.4485 -0.3743 0.687 0.466 0.557 181 162 146 0 0
-0.5629 1.4508 -0.3741 0.820 0.345 0.457 180 160 144 0 0
-0.5624 1.4527 -0.3727 0.950 0.134 0.283 168 146 127 0 0
-0.5636 1.4587 -0.3697 0.857 0.324 0.402 172 151 134 0 0
-0.5578 1.4748 -0.3564 0.895 0.441 0.067 177 159 145 0 0
-0.5589 1.4769 -0.3557 0.876 0.233 0.422 175 157 142 0 0
-0.5661 1.4840 -0.3556 0.982 0.094 -0.161 179 162 147 0 0
-0.5587 1.4958 -0.3441 0.998 0.038 -0.041 194 181 170 0 0
-0.5594 1.4978 -0.3432 0.952 -0.092 0.292 189 175 163 0 0
-0.5664 1.5219 -0.3326 0.857 0.463 -0.227 172 151 132 0 0
-0.5736 1.5310 -0.3312 0.878 0.389 0.279 168 147 130 0 0
-0.5752 1.5333 -0.3308 0.886 0.293 0.360 165 142 124 0 0
-0.5787 1.5416 -0.3277 0.751 0.377 0.543 172 151 132 0 0
-0.5690 1.5448 -0.3200 0.889 -0.193 0.415 166 146 124 0 0
-0.5763 1.5484 -0.3221 0.939 0.329 0.101 173 153 134 0 0
-0.5773 1.5506 -0.3214 0.696 0.706 0.131 171 152 132 0 0
-0.5799 1.5531 -0.3214 0.696 0.706 0.131 169 148 128 0 0
-0.5816 1.5665 -0.3141 0.146 0.324 0.935 172 151 133 0 0
-0.5872 1.5698 -0.3154 0.179 0.171 0.969 168 146 127 0 0
-0.5917 1.5840 -0.3093 0.996 -0.011 0.093 157 134 116 0 0
-0.5935 1.5956 -0.3033 0.981 0.040 0.188 165 142 123 0 0
-0.5957 1.5999 -0.3019 0.939 -0.291 0.185 158 136 115 0 0
-0.5969 1.6021 -0.3013 0.950 0.311 0.018 151 129 108 0 0
-0.5976 1.6207 -0.2903 0.241 -0.177 0.954 181 163 143 0 0
-0.5995 1.6231 -0.2899 0.434 0.094 0.896 185 167 147 0 0
-0.5997 1.6250 -0.2889 0.686 0.264 0.678 187 169 152 0 0
-0.6029 1.6278 -0.2890 0.305 0.162 0.939 184 167 149 0 0
-0.6079 1.6312 -0.2899 0.314 0.439 0.842 177 158 141 0 0
-0.6111 1.6340 -0.2900 0.403 0.413 0.817 168 146 129 0 0
-0.6146 1.6370 -0.2903 0.431 0.340 0.836 162 140 122 0 0
-0.6177 1.6398 -0.2904 0.364 0.461 0.809 167 147 128 0 0
-0.6187 1.6676 -0.2739 0.921 -0.016 0.390 150 125 106 0 0
-0.6196 1.6697 -0.2731 0.799 0.246 0.549 154 129 111 0 0
-0.6214 1.6721 -0.2727 0.672 0.684 0.284 158 135 116 0 0
-0.6243 1.6750 -0.2727 0.664 0.700 0.263 158 136 117 0 0
-0.6056 1.6774 -0.2602 0.520 0.634 0.572 159 137 115 0 0
-0.6089 1.6803 -0.2603 0.523 0.368 0.769 163 142 121 0 0
-0.6121 1.6975 -0.2517 0.350 -0.259 0.900 160 138 117 0 0
-0.6126 1.7012 -0.2497 0.407 0.201 0.891 136 115 95 0 0
-0.6208 1.7185 -0.2439 0.392 -0.089 0.916 172 154 135 0 0
-0.6204 1.7201 -0.2427 0.621 -0.540 0.568 168 149 125 0 0
-0.6144 1.7230 -0.2374 0.669 0.688 0.282 152 130 109 0 0
-0.6271 1.7333 -0.2385 0.573 0.602 0.556 149 127 106 0 0
-0.6334 1.7376 -0.2396 0.716 0.384 0.583 149 126 106 0 0
-0.6189 1.7509 -0.2229 0.844 0.489 0.218 166 146 128 0 0
-0.6128 1.7501 -0.2198 0.912 0.142 -0.386 170 153 133 0 0
-0.6088 1.7519 -0.2163 0.531 0.653 0.540 173 157 137 0 0
-0.6139 1.7557 -0.2170 0.474 0.738 0.480 175 157 140 0 0
-0.6130 1.7570 -0.2156 0.853 0.498 -0.155 172 155 137 0 0
-0.6202 1.7636 -0.2159 0.647 0.444 0.620 169 150 133 0 0
-0.6132 1.7657 -0.2105 0.660 -0.292 -0.692 162 141 122 0 0
-0.6155 1.7701 -0.2091 0.571 0.556 0.604 147 125 106 0 0
-0.6266 1.7783 -0.2106 0.396 0.686 0.610 156 135 116 0 0
-0.3495 0.7106 -0.7059 0.468 0.040 0.883 177 156 136 0 0
-0.3586 0.7462 -0.6894 0.960 -0.281 0.002 171 148 128 0 0
-0.3568 0.7544 -0.6833 0.952 -0.103 0.290 156 129 110 0 0
-0.3571 0.7566 -0.6821 0.810 -0.146 0.569 156 130 111 0 0
-0.3596 0.7599 -0.6815 -0.101 0.673 0.732 156 130 108 0 0
-0.3668 0.7655 -0.6823 0.719 -0.136 0.681 161 135 114 0 0
-0.3676 0.7675 -0.6816 0.814 -0.361 0.455 157 132 113 0 0
-0.3692 0.7690 -0.6816 0.887 0.390 0.246 161 135 116 0 0
-0.3879 0.8211 -0.6607 0.805 0.561 0.192 152 125 106 0 0
-0.3887 0.8230 -0.6599 0.990 -0.049 -0.133 167 142 124 0 0
-0.3883 0.8256 -0.6581 0.971 0.093 0.219 172 148 129 0 0
-0.3885 0.8278 -0.6569 0.991 -0.134 -0.020 165 140 120 0 0
-0.3891 0.8299 -0.6560 0.859 0.481 0.174 165 138 120 0 0
-0.3870 0.8332 -0.6526 0.928 -0.365 0.076 160 134 115 0 0
-0.3861 0.8359 -0.6505 0.374 0.483 0.792 145 118 100 0 0
-0.3899 0.8366 -0.6523 0.462 -0.590 0.663 135 113 92 0 0
-0.3892 0.8392 -0.6503 0.292 -0.154 0.944 128 105 87 0 0
-0.4025 0.8844 -0.6304 0.662 -0.750 -0.001 169 145 128 0 0
-0.4021 0.9029 -0.6188 0.932 -0.135 0.336 155 130 110 0 0
-0.4016 0.9053 -0.6170 0.957 0.144 0.252 156 130 110 0 0
-0.4348 0.9619 -0.6018 0.908 -0.248 -0.338 155 130 110 0 0
-0.4361 1.0128 -0.5713 0.611 0.600 0.516 174 153 135 0 0
-0.4355 1.0174 -0.5681 0.808 -0.124 0.576 175 154 135 0 0
-0.4358 1.0217 -0.5656 0.927 -0.307 0.213 156 131 118 0 0
-0.4358 1.0348 -0.5576 0.642 0.754 -0.139 166 148 133 0 0
-0.4409 1.0379 -0.5587 0.341 0.868 0.362 177 159 145 0 0
-0.4568 1.0497 -0.5608 0.963 0.149 -0.225 138 114 97 0 0
-0.4503 1.0620 -0.5495 0.633 0.248 0.734 167 141 124 0 0
-0.4527 1.0810 -0.5392 0.215 -0.515 0.830 191 174 160 0 0
-0.4686 1.1041 -0.5344 0.536 -0.614 0.579 160 134 117 0 0
-0.4674 1.1488 -0.5062 0.881 -0.102 0.463 188 170 151 0 0
-0.4668 1.1510 -0.5045 0.874 -0.088 0.478 184 165 144 0 0
-0.4679 1.1530 -0.5039 0.961 0.228 0.155 185 168 148 0 0
-0.4659 1.1594 -0.4988 0.904 -0.428 -0.009 215 203 186 0 0
-0.4676 1.1613 -0.4986 0.909 0.155 0.387 188 171 153 0 0
-0.4911 1.1990 -0.4894 0.326 -0.110 0.939 185 167 150 0 0
-0.4920 1.2010 -0.4887 0.517 -0.129 0.846 185 165 148 0 0
-0.4969 1.2028 -0.4905 0.839 -0.475 -0.266 181 159 142 0 0
-0.4945 1.2071 -0.4864 0.734 -0.216 0.644 159 134 114 0 0
-0.4948 1.2092 -0.4853 0.902 -0.032 0.430 155 129 109 0 0
-0.4949 1.2112 -0.4841 0.767 0.413 0.491 163 137 121 0 0
-0.5028 1.2583 -0.4598 0.898 -0.111 0.426 170 149 132 0 0
-0.5057 1.2685 -0.4553 0.780 0.623 0.062 169 146 128 0 0
-0.5044 1.2926 -0.4397 0.996 0.084 -0.026 181 160 142 0 0
-0.5067 1.3027 -0.4349 0.782 0.617 0.090 177 158 142 0 0
-0.5104 1.3068 -0.4345 0.821 -0.066 0.568 180 162 145 0 0
-0.5403 1.3725 -0.4118 0.416 -0.538 0.733 173 152 135 0 0
-0.5405 1.3745 -0.4107 0.377 0.029 0.926 173 154 137 0 0
-0.5417 1.3806 -0.4077 0.960 -0.021 0.279 184 167 151 0 0
-0.5439 1.3828 -0.4076 0.707 0.561 0.432 186 169 153 0 0
-0.5456 1.3849 -0.4073 0.778 0.514 0.362 181 163 147 0 0
-0.5488 1.3873 -0.4078 0.917 0.315 0.243 184 167 151 0 0
-0.5496 1.3953 -0.4033 0.898 -0.260 0.356 166 144 128 0 0
-0.5502 1.3973 -0.4024 0.725 -0.542 0.425 162 137 121 0 0
-0.5516 1.3995 -0.4019 0.747 -0.156 0.646 163 139 122 0 0
-0.5638 1.4109 -0.4021 0.550 0.318 0.773 163 141 124 0 0
-0.5636 1.4129 -0.4008 0.758 -0.305 0.576 177 157 142 0 0
-0.5639 1.4149 -0.3997 0.686 -0.539 0.489 178 159 141 0 0
-0.5648 1.4249 -0.3941 0.963 -0.004 0.268 185 166 149 0 0
-0.5627 1.4265 -0.3919 0.746 0.666 0.024 187 168 152 0 0
-0.5522 1.4386 -0.3782 0.815 0.300 0.496 189 172 156 0 0
-0.5532 1.4407 -0.3776 0.827 0.152 0.541 191 174 156 0 0
-0.5544 1.4428 -0.3770 0.933 -0.041 0.357 181 163 144 0 0
-0.5572 1.4452 -0.3771 0.785 0.547 0.291 177 156 137 0 0
-0.5606 1.4515 -0.3753 0.817 0.442 0.371 182 163 146 0 0
-0.5615 1.4536 -0.3745 0.967 -0.083 0.239 172 150 129 0 0
-0.5575 1.4778 -0.3573 0.894 -0.361 0.265 172 152 136 0 0
-0.5596 1.4801 -0.3571 0.771 0.580 0.265 175 158 141 0 0
-0.5614 1.4823 -0.3568 0.771 0.580 0.265 180 162 148 0 0
-0.5635 1.4846 -0.3566 0.887 -0.159 0.434 180 163 148 0 0
-0.5627 1.4864 -0.3551 0.992 0.099 -0.077 178 160 146 0 0
-0.5620 1.4882 -0.3536 0.918 -0.373 0.136 172 155 140 0 0
-0.5605 1.4935 -0.3494 0.874 -0.459 -0.158 182 167 154 0 0
-0.5581 1.4949 -0.3471 0.868 0.248 0.430 187 175 164 0 0
-0.5590 1.4970 -0.3464 0.686 0.144 0.713 192 180 169 0 0
-0.5595 1.5008 -0.3443 0.694 -0.184 0.696 186 172 159 0 0
-0.5589 1.5026 -0.3429 0.724 -0.267 0.636 179 161 148 0 0
-0.5680 1.5233 -0.3355 0.920 0.284 -0.271 170 149 131 0 0
-0.5716 1.5279 -0.3348 0.892 0.388 -0.234 168 147 129 0 0
-0.5722 1.5299 -0.3339 0.871 0.407 -0.276 169 148 130 0 0
-0.5744 1.5323 -0.3337 0.920 0.391 0.017 168 147 130 0 0
-0.5758 1.5345 -0.3332 0.970 0.244 -0.001 161 138 120 0 0
-0.5735 1.5396 -0.3287 0.875 0.048 0.482 167 145 128 0 0
-0.5739 1.5415 -0.3278 0.937 0.159 0.312 169 148 130 0 0
-0.5686 1.5458 -0.3220 0.949 0.112 0.295 164 142 121 0 0
-0.5746 1.5491 -0.3235 0.667 0.344 0.661 166 144 124 0 0
-0.5855 1.5889 -0.3055 0.434 -0.019 0.901 162 139 119 0 0
-0.5871 1.5949 -0.3028 0.594 0.542 0.595 158 135 116 0 0
-0.5950 1.6009 -0.3038 0.939 -0.291 0.185 155 133 112 0 0
-0.5933 1.6022 -0.3019 0.606 0.481 0.633 152 128 111 0 0
-0.5990 1.6076 -0.3020 0.363 0.450 0.816 141 118 97 0 0
-0.5963 1.6232 -0.2908 0.306 -0.272 0.912 182 164 145 0 0
-0.5978 1.6255 -0.2903 0.462 -0.213 0.861 184 166 147 0 0
-0.5974 1.6272 -0.2890 0.142 -0.177 0.974 184 167 146 0 0
-0.6237 1.6485 -0.2915 0.318 0.341 0.885 178 161 140 0 0
-0.6170 1.6682 -0.2755 0.822 -0.175 0.542 148 123 107 0 0
-0.6181 1.6703 -0.2747 0.691 0.225 0.687 153 127 108 0 0
-0.6196 1.6727 -0.2742 0.625 0.333 0.706 155 131 111 0 0
-0.6024 1.6791 -0.2600 0.844 0.531 -0.071 167 146 123 0 0
-0.6039 1.6815 -0.2595 0.837 0.424 -0.345 171 151 130 0 0
-0.6046 1.6835 -0.2587 0.906 0.317 -0.281 173 155 135 0 0
-0.6084 1.6867 -0.2590 0.706 -0.468 0.532 171 150 127 0 0
-0.6076 1.6881 -0.2576 0.483 -0.690 0.539 167 145 124 0 0
-0.6013 1.6876 -0.2542 0.146 0.306 0.941 167 146 124 0 0
-0.6131 1.7043 -0.2509 0.264 0.077 0.961 149 129 110 0 0
-0.6151 1.7069 -0.2505 0.264 0.077 0.961 146 125 107 0 0
-0.6179 1.7168 -0.2461 0.349 -0.026 0.937 176 159 140 0 0
-0.6193 1.7191 -0.2455 0.527 0.101 0.844 178 162 142 0 0
-0.6158 1.7195 -0.2432 0.835 -0.241 -0.494 170 153 130 0 0
-0.6145 1.7242 -0.2395 0.656 0.675 0.338 150 128 107 0 0
-0.6153 1.7263 -0.2387 0.656 0.754 -0.040 149 125 104 0 0
-0.6303 1.7393 -0.2396 0.975 -0.052 0.216 139 117 95 0 0
-0.6091 1.7429 -0.2249 0.370 0.718 0.589 136 115 96 0 0
-0.6283 1.7560 -0.2281 0.295 0.727 0.620 161 141 123 0 0
-0.6070 1.7506 -0.2189 0.837 -0.211 -0.504 165 146 129 0 0
-0.6056 1.7517 -0.2174 0.599 0.738 0.311 168 149 132 0 0
-0.6110 1.7557 -0.2181 0.537 0.781 0.320 170 153 135 0 0
-0.6112 1.7575 -0.2171 0.819 0.512 0.259 171 154 136 0 0
-0.6147 1.7607 -0.2172 0.994 0.013 -0.113 169 152 134 0 0
-0.6158 1.7629 -0.2165 0.742 0.487 0.461 167 148 131 0 0
-0.6201 1.7664 -0.2169 0.905 0.390 -0.166 167 148 131 0 0
-0.6089 1.7633 -0.2122 0.496 0.812 0.309 166 147 129 0 0
-0.6123 1.7699 -0.2101 0.725 -0.169 -0.667 151 129 110 0 0
-0.6191 1.7762 -0.2102 0.683 0.726 -0.076 156 135 116 0 0
-0.6317 1.7835 -0.2132 0.467 0.815 0.342 161 140 121 0 0
-0.3522 0.7458 -0.6888 0.895 0.178 0.410 170 148 128 0 0
-0.3644 0.7652 -0.6840 0.347 0.090 0.934 150 123 102 0 0
-0.3654 0.7670 -0.6835 0.719 -0.136 0.681 155 128 106 0 0
-0.3660 0.7691 -0.6826 0.708 -0.409 0.576 157 131 110 0 0
-0.3681 0.7703 -0.6831 0.739 -0.138 0.660 160 134 115 0 0
-0.3876 0.8220 -0.6628 0.818 0.413 0.399 151 124 105 0 0
-0.3881 0.8265 -0.6604 0.904 -0.017 0.427 168 143 122 0 0
-0.3886 0.8309 -0.6580 0.964 -0.130 0.230 162 136 119 0 0
-0.3867 0.8342 -0.6548 0.933 -0.331 0.140 153 127 109 0 0
-0.3845 0.8375 -0.6515 0.962 -0.240 0.133 143 117 99 0 0
-0.3881 0.8613 -0.6390 0.765 -0.581 -0.278 169 147 127 0 0
-0.4014 0.8811 -0.6347 0.368 -0.788 0.494 170 149 129 0 0
-0.4008 0.8859 -0.6314 0.662 -0.750 -0.001 169 146 128 0 0
-0.3983 0.8892 -0.6278 0.397 -0.012 0.918 174 152 134 0 0
-0.4031 0.9101 -0.6178 0.910 -0.017 0.414 172 152 130 0 0
-0.4021 0.9150 -0.6142 0.758 -0.125 0.640 189 172 154 0 0
-0.4219 0.9284 -0.6178 -0.179 0.612 0.770 165 142 122 0 0
-0.4369 0.9622 -0.6059 0.934 -0.103 -0.342 163 137 117 0 0
-0.4475 1.0635 -0.5498 0.774 0.081 0.628 165 138 121 0 0
-0.4657 1.0925 -0.5427 0.424 0.826 0.372 159 133 114 0 0
-0.4672 1.0945 -0.5425 0.392 0.821 0.416 152 126 107 0 0
-0.4732 1.1301 -0.5241 0.735 -0.676 -0.055 151 126 107 0 0
-0.4722 1.1323 -0.5222 0.837 -0.406 -0.367 149 123 105 0 0
-0.4713 1.1345 -0.5202 0.705 -0.563 -0.431 155 128 112 0 0
-0.4687 1.1370 -0.5172 0.860 -0.340 -0.380 159 134 116 0 0
-0.4665 1.1499 -0.5079 0.838 -0.212 0.504 195 177 161 0 0
-0.4657 1.1521 -0.5061 0.790 0.165 0.590 181 160 142 0 0
-0.4667 1.1540 -0.5055 0.817 0.349 0.460 182 161 142 0 0
-0.4661 1.1604 -0.5013 0.998 -0.053 0.046 212 197 181 0 0
-0.4685 1.1622 -0.5015 0.756 0.595 0.272 192 174 155 0 0
-0.4922 1.2041 -0.4898 0.240 -0.274 0.931 183 162 146 0 0
-0.5042 1.2613 -0.4617 0.976 -0.214 0.024 167 144 127 0 0
-0.5038 1.2634 -0.4602 0.976 -0.214 0.024 172 150 134 0 0
-0.5040 1.2654 -0.4591 0.988 -0.028 0.155 173 151 133 0 0
-0.5063 1.2695 -0.4580 0.780 0.623 0.062 173 151 133 0 0
-0.5042 1.2936 -0.4419 0.904 0.427 0.003 185 166 149 0 0
-0.5072 1.3037 -0.4374 0.782 0.617 0.090 174 156 137 0 0
-0.5193 1.3282 -0.4295 0.376 0.708 0.598 174 153 133 0 0
-0.5278 1.3327 -0.4318 0.196 0.819 0.539 177 155 136 0 0
-0.5503 1.3464 -0.4368 0.610 -0.618 0.496 179 160 143 0 0
-0.5494 1.3504 -0.4338 0.907 -0.364 0.213 151 126 108 0 0
-0.5354 1.3672 -0.4151 0.481 0.201 0.853 192 180 165 0 0
-0.5389 1.3735 -0.4133 0.901 -0.139 0.411 184 165 147 0 0
-0.5393 1.3755 -0.4123 0.831 0.319 0.456 179 161 142 0 0
-0.5403 1.3776 -0.4117 0.843 -0.023 0.538 179 160 141 0 0
-0.5448 1.3859 -0.4092 0.726 0.408 0.554 176 157 140 0 0
-0.5620 1.4118 -0.4035 0.517 0.288 0.806 156 134 115 0 0
-0.5617 1.4137 -0.4021 0.691 -0.276 0.668 162 140 123 0 0
-0.5623 1.4158 -0.4012 0.777 -0.580 0.247 161 139 122 0 0
-0.5606 1.4175 -0.3991 0.576 -0.683 0.449 174 151 134 0 0
-0.5623 1.4236 -0.3964 0.577 -0.319 0.751 182 164 145 0 0
-0.5637 1.4258 -0.3958 0.704 0.002 0.710 185 166 149 0 0
-0.5645 1.4279 -0.3950 0.663 0.741 -0.106 187 169 151 0 0
-0.5515 1.4396 -0.3801 0.906 0.188 0.379 185 167 151 0 0
-0.5525 1.4416 -0.3794 0.896 0.215 0.389 183 165 146 0 0
-0.5537 1.4438 -0.3789 0.964 0.039 0.265 178 158 137 0 0
-0.5571 1.4463 -0.3793 0.785 0.547 0.291 177 155 136 0 0
-0.5578 1.4502 -0.3773 0.695 0.419 0.584 182 162 143 0 0
-0.5583 1.4522 -0.3764 0.578 -0.042 0.815 179 159 139 0 0
-0.5589 1.4543 -0.3755 0.648 -0.156 0.746 169 147 127 0 0
-0.5592 1.4563 -0.3744 0.651 -0.410 0.639 160 137 120 0 0
-0.5586 1.4600 -0.3718 0.782 -0.476 0.401 170 149 131 0 0
-0.5577 1.4959 -0.3491 0.759 0.220 0.613 182 168 155 0 0
-0.5579 1.4979 -0.3481 0.717 0.098 0.690 189 176 164 0 0
-0.5690 1.5228 -0.3393 0.891 -0.180 -0.417 155 130 114 0 0
-0.5737 1.5295 -0.3380 0.747 0.657 0.103 166 143 127 0 0
-0.5717 1.5309 -0.3359 0.908 0.415 -0.057 167 144 127 0 0
-0.5751 1.5336 -0.3363 0.967 0.220 -0.124 164 141 124 0 0
-0.5743 1.5353 -0.3348 0.948 0.096 0.304 156 130 113 0 0
-0.5713 1.5420 -0.3288 0.830 -0.039 0.556 166 143 127 0 0
-0.5675 1.5466 -0.3237 0.849 0.067 0.524 161 139 119 0 0
-0.5731 1.5499 -0.3250 0.626 0.128 0.769 165 142 121 0 0
-0.5721 1.5552 -0.3212 0.575 0.475 0.666 163 141 120 0 0
-0.5738 1.5703 -0.3129 0.542 -0.323 0.776 163 142 125 0 0
-0.5731 1.5720 -0.3115 0.505 -0.222 0.834 150 126 107 0 0
-0.5744 1.5742 -0.3109 0.424 0.451 0.785 147 123 104 0 0
-0.5801 1.5867 -0.3065 0.513 -0.174 0.840 156 132 112 0 0
-0.5941 1.6219 -0.2932 0.529 -0.089 0.844 172 153 131 0 0
-0.6108 1.6418 -0.2909 0.107 0.245 0.964 183 165 146 0 0
-0.6213 1.6489 -0.2928 0.379 0.585 0.717 177 160 138 0 0
-0.6214 1.6508 -0.2917 0.710 0.190 0.678 171 153 133 0 0
-0.6187 1.6517 -0.2895 0.789 -0.399 0.468 169 152 131 0 0
-0.6184 1.6534 -0.2882 0.924 -0.378 0.064 169 149 131 0 0
-0.6243 1.6572 -0.2894 0.619 0.516 0.592 164 143 123 0 0
-0.6252 1.6594 -0.2886 0.670 0.506 0.543 164 143 125 0 0
-0.6159 1.6690 -0.2772 0.536 -0.419 0.733 142 117 100 0 0
-0.6036 1.6807 -0.2626 0.844 0.531 -0.071 161 139 116 0 0
-0.6054 1.6850 -0.2611 0.883 0.177 -0.434 166 146 125 0 0
-0.6067 1.6872 -0.2605 0.751 -0.608 0.256 164 141 118 0 0
-0.6066 1.6889 -0.2594 0.777 -0.491 0.394 160 137 117 0 0
-0.6019 1.6925 -0.2544 0.901 0.332 -0.279 166 145 123 0 0
-0.6049 1.6971 -0.2533 0.996 -0.087 -0.012 177 159 142 0 0
-0.6146 1.7149 -0.2481 0.244 -0.248 0.938 179 162 143 0 0
-0.6136 1.7163 -0.2467 0.385 0.458 0.801 183 167 147 0 0
-0.6173 1.7195 -0.2469 0.732 0.340 0.590 187 172 153 0 0
-0.6146 1.7254 -0.2417 0.672 0.574 0.468 151 129 108 0 0
-0.6186 1.7288 -0.2420 0.585 0.713 0.386 153 129 109 0 0
-0.6238 1.7344 -0.2416 0.654 0.660 0.369 151 129 108 0 0
-0.6281 1.7378 -0.2420 0.606 0.719 0.340 145 124 103 0 0
-0.6200 1.7363 -0.2381 0.748 0.599 -0.287 137 115 95 0 0
-0.6074 1.7434 -0.2264 0.378 0.669 0.640 139 117 96 0 0
-0.6132 1.7475 -0.2273 0.378 0.669 0.640 147 124 107 0 0
-0.6185 1.7514 -0.2280 0.323 0.709 0.627 152 130 112 0 0
-0.6267 1.7566 -0.2297 0.317 0.759 0.568 156 136 117 0 0
-0.6112 1.7570 -0.2203 0.273 0.670 0.690 163 144 125 0 0
-0.6114 1.7588 -0.2193 0.639 -0.171 0.750 165 146 129 0 0
-0.6150 1.7637 -0.2183 0.202 -0.062 0.977 165 145 127 0 0
-0.6136 1.7648 -0.2168 0.693 0.645 0.322 164 144 125 0 0
-0.6204 1.7712 -0.2170 0.624 0.766 -0.155 164 143 124 0 0
-0.6156 1.7708 -0.2143 0.663 -0.128 -0.737 160 138 119 0 0
-0.6169 1.7731 -0.2137 0.639 0.159 -0.752 153 132 111 0 0
-0.6218 1.7786 -0.2132 0.710 0.588 -0.387 157 135 114 0 0
-0.6266 1.7825 -0.2137 0.531 0.838 0.126 160 139 120 0 0
-0.3487 0.7461 -0.6894 0.851 -0.427 0.307 169 147 126 0 0
-0.3522 0.7466 -0.6912 0.942 0.335 -0.012 171 149 128 0 0
-0.3636 0.7688 -0.6843 0.759 0.025 0.650 150 124 102 0 0
-0.3660 0.7722 -0.6837 0.565 -0.477 0.673 160 133 112 0 0
-0.3643 0.7779 -0.6791 0.305 -0.458 0.835 159 133 113 0 0
-0.3871 0.8254 -0.6634 0.823 -0.198 0.533 165 139 119 0 0
-0.3885 0.8295 -0.6618 0.926 -0.224 0.303 165 139 120 0 0
-0.3871 0.8325 -0.6591 0.959 -0.243 0.143 161 134 115 0 0
-0.3859 0.8353 -0.6566 0.904 -0.370 0.213 150 123 103 0 0
-0.3841 0.8385 -0.6536 0.970 0.205 0.131 140 116 97 0 0
-0.3851 0.8403 -0.6531 0.822 -0.229 0.522 136 111 93 0 0
-0.3900 0.8613 -0.6431 0.751 -0.555 -0.357 167 145 125 0 0
-0.3971 0.8882 -0.6307 0.583 -0.811 0.046 173 150 132 0 0
-0.3873 0.9012 -0.6168 0.721 -0.693 -0.007 183 164 149 0 0
-0.3869 0.9036 -0.6151 0.798 -0.300 0.523 178 158 143 0 0
-0.4021 0.9136 -0.6180 0.742 0.009 0.670 182 163 143 0 0
-0.4357 0.9634 -0.6074 0.824 0.554 -0.116 161 136 116 0 0
-0.4552 1.0454 -0.5685 0.532 0.840 0.105 158 132 113 0 0
-0.4731 1.0922 -0.5503 0.464 0.878 -0.120 172 149 130 0 0
-0.4672 1.0954 -0.5448 0.408 0.854 0.323 172 150 131 0 0
-0.4720 1.1312 -0.5256 0.779 -0.559 0.284 156 129 111 0 0
-0.4732 1.1331 -0.5251 0.885 -0.315 -0.343 153 127 109 0 0
-0.4726 1.1353 -0.5235 0.705 -0.563 -0.431 153 128 110 0 0
-0.4696 1.1378 -0.5201 0.875 -0.314 -0.369 151 126 107 0 0
-0.4651 1.1594 -0.5041 0.997 -0.073 -0.020 187 169 149 0 0
-0.4643 1.1615 -0.5024 0.709 0.593 0.382 186 167 148 0 0
-0.4661 1.1634 -0.5023 0.592 0.674 0.442 186 165 146 0 0
-0.4669 1.1696 -0.4990 0.716 -0.432 0.548 188 167 150 0 0
-0.4885 1.2053 -0.4898 -0.003 -0.080 0.997 189 170 154 0 0
-0.4893 1.2320 -0.4739 0.360 -0.361 0.860 178 156 137 0 0
-0.4927 1.2360 -0.4734 0.834 -0.550 0.037 179 156 139 0 0
-0.5019 1.2624 -0.4626 0.781 -0.119 0.613 161 138 121 0 0
-0.5035 1.2644 -0.4623 0.976 -0.214 0.024 167 146 128 0 0
-0.5023 1.2664 -0.4604 0.870 -0.234 0.434 172 150 133 0 0
-0.5033 1.2685 -0.4597 0.845 -0.008 0.534 180 161 145 0 0
-0.5040 1.2947 -0.4440 0.863 0.481 0.157 184 164 147 0 0
-0.5066 1.3047 -0.4393 0.951 0.277 -0.134 173 154 137 0 0
-0.5068 1.3067 -0.4382 0.877 0.463 -0.132 173 154 137 0 0
-0.5079 1.3088 -0.4376 0.969 -0.229 -0.090 167 147 129 0 0
-0.5153 1.3271 -0.4308 0.460 0.621 0.634 183 164 149 0 0
-0.5174 1.3292 -0.4307 0.371 0.537 0.758 177 157 137 0 0
-0.5201 1.3313 -0.4310 0.371 0.537 0.758 175 155 134 0 0
-0.5258 1.3337 -0.4329 0.209 0.789 0.578 176 154 135 0 0
-0.5474 1.3493 -0.4362 0.477 -0.449 0.756 169 147 126 0 0
-0.5326 1.3640 -0.4183 0.982 0.183 0.047 186 173 160 0 0
-0.5318 1.3679 -0.4154 0.750 0.491 0.443 196 184 170 0 0
-0.5330 1.3700 -0.4149 0.842 0.223 0.491 198 185 172 0 0
-0.5361 1.3723 -0.4153 0.728 -0.295 0.619 195 180 165 0 0
-0.5379 1.3744 -0.4151 0.893 0.136 0.429 193 178 161 0 0
-0.5388 1.3765 -0.4143 0.966 0.196 0.171 191 174 155 0 0
-0.5396 1.3786 -0.4135 0.991 -0.129 -0.026 184 166 146 0 0
-0.5391 1.3824 -0.4109 0.985 -0.155 -0.077 175 157 139 0 0
-0.5442 1.3870 -0.4111 0.709 0.103 0.698 168 148 129 0 0
-0.5435 1.3888 -0.4095 0.457 -0.223 0.861 170 150 132 0 0
-0.5487 1.4013 -0.4050 0.819 0.396 0.415 166 143 127 0 0
-0.5596 1.4125 -0.4045 0.346 0.043 0.937 172 150 131 0 0
-0.5509 1.4405 -0.3821 0.878 -0.111 0.465 180 160 142 0 0
-0.5519 1.4446 -0.3802 0.914 -0.298 0.276 177 157 138 0 0
-0.5548 1.4470 -0.3804 0.633 0.225 0.741 177 156 137 0 0
-0.5545 1.4488 -0.3791 0.505 0.479 0.718 178 157 138 0 0
-0.5560 1.4626 -0.3716 0.914 -0.090 0.396 170 149 129 0 0
-0.5566 1.4968 -0.3508 0.759 0.220 0.613 177 160 146 0 0
-0.5562 1.4986 -0.3495 0.826 -0.093 0.556 183 169 156 0 0
-0.5567 1.5006 -0.3485 0.799 0.023 0.601 188 175 162 0 0
-0.5616 1.5148 -0.3427 0.368 0.290 0.883 173 152 136 0 0
-0.5668 1.5178 -0.3439 0.961 -0.141 0.238 173 152 135 0 0
-0.5716 1.5302 -0.3392 0.982 0.190 0.000 163 140 124 0 0
-0.5719 1.5321 -0.3382 0.980 0.184 0.073 165 141 124 0 0
-0.5716 1.5339 -0.3369 0.843 0.122 0.523 163 141 124 0 0
-0.5674 1.5551 -0.3213 0.645 0.118 0.755 169 148 128 0 0
-0.5697 1.5649 -0.3167 0.695 -0.098 0.712 185 169 152 0 0
-0.5706 1.5669 -0.3159 0.715 -0.201 0.670 177 160 141 0 0
-0.5719 1.5691 -0.3154 0.797 -0.169 0.580 171 152 133 0 0
-0.5704 1.5705 -0.3136 0.972 -0.140 0.186 165 143 125 0 0
-0.5679 1.5717 -0.3114 0.818 0.575 0.032 152 129 112 0 0
-0.5749 1.5864 -0.3065 0.628 -0.472 0.619 158 134 115 0 0
-0.5917 1.6059 -0.3045 0.288 0.260 0.922 156 132 111 0 0
-0.5931 1.6081 -0.3040 0.321 0.262 0.910 153 131 111 0 0
-0.5919 1.6096 -0.3024 0.568 0.294 0.768 151 128 107 0 0
-0.5965 1.6147 -0.3020 0.703 0.397 0.590 142 117 97 0 0
-0.5946 1.6159 -0.3001 0.878 -0.268 -0.396 144 119 97 0 0
-0.6084 1.6422 -0.2921 0.119 0.241 0.963 183 165 146 0 0
-0.6176 1.6488 -0.2935 0.236 0.548 0.802 185 167 150 0 0
-0.6186 1.6529 -0.2917 0.930 -0.143 0.338 175 156 137 0 0
-0.6179 1.6544 -0.2902 0.924 -0.378 0.064 176 156 139 0 0
-0.6145 1.6715 -0.2777 0.234 0.417 0.878 137 112 95 0 0
-0.6141 1.6731 -0.2764 0.299 0.299 0.906 138 113 95 0 0
-0.6055 1.6826 -0.2655 0.727 0.673 0.133 156 133 112 0 0
-0.6137 1.6945 -0.2631 0.685 -0.665 0.298 151 128 110 0 0
-0.6070 1.6955 -0.2584 0.789 -0.607 0.098 157 137 113 0 0
-0.6055 1.6968 -0.2568 0.958 -0.043 0.282 166 147 124 0 0
-0.6099 1.7160 -0.2475 0.419 0.708 0.568 184 167 149 0 0
-0.6138 1.7193 -0.2478 0.560 0.615 0.555 189 174 155 0 0
-0.6170 1.7223 -0.2479 0.849 -0.073 -0.523 190 175 155 0 0
-0.6151 1.7268 -0.2439 0.810 0.561 0.170 158 137 116 0 0
-0.6189 1.7301 -0.2442 0.674 0.627 0.392 156 133 113 0 0
-0.6242 1.7357 -0.2439 0.551 0.614 0.566 157 135 114 0 0
-0.6276 1.7388 -0.2440 0.636 0.661 0.399 152 130 110 0 0
-0.6243 1.7393 -0.2418 0.736 0.423 -0.528 140 118 97 0 0
-0.6000 1.7398 -0.2270 0.146 0.216 0.965 143 120 102 0 0
-0.6097 1.7592 -0.2208 0.348 0.045 0.936 158 137 119 0 0
-0.6141 1.7662 -0.2191 0.271 0.036 0.962 157 136 118 0 0
-0.6085 1.7655 -0.2162 0.467 0.781 0.415 160 139 119 0 0
-0.6160 1.7704 -0.2176 0.515 0.801 0.307 161 140 119 0 0
-0.6282 1.7826 -0.2174 0.699 0.566 -0.437 157 134 115 0 0
-0.3472 0.7478 -0.6904 0.859 -0.380 0.344 170 147 127 0 0
-0.3519 0.7475 -0.6933 0.890 0.289 0.354 170 147 129 0 0
-0.3516 0.7619 -0.6844 0.194 -0.467 0.863 170 148 127 0 0
-0.3624 0.7702 -0.6857 0.935 0.143 0.324 175 152 129 0 0
-0.3862 0.8290 -0.6636 0.802 -0.086 0.591 164 138 119 0 0
-0.3876 0.8307 -0.6635 0.926 -0.224 0.303 166 141 122 0 0
-0.3850 0.8342 -0.6597 0.965 0.255 0.063 165 140 119 0 0
-0.3824 0.8378 -0.6559 0.881 -0.342 0.328 149 122 104 0 0
-0.3824 0.8401 -0.6545 0.953 -0.143 0.268 141 115 98 0 0
-0.3823 0.8425 -0.6530 0.754 0.220 0.619 137 112 94 0 0
-0.3829 0.8445 -0.6521 0.506 -0.673 0.540 133 111 92 0 0
-0.3841 0.8463 -0.6517 0.558 0.140 0.818 132 109 89 0 0
-0.3917 0.8935 -0.6271 0.168 -0.132 0.977 178 156 138 0 0
-0.3905 0.8962 -0.6247 0.648 -0.717 0.256 182 162 143 0 0
-0.3856 0.9027 -0.6178 0.969 -0.189 -0.161 185 168 155 0 0
-0.3868 0.9044 -0.6174 0.925 0.373 0.080 186 170 155 0 0
-0.3985 0.9113 -0.6202 0.448 -0.091 0.890 183 165 148 0 0
-0.4436 1.0726 -0.5477 0.147 0.139 0.979 180 159 140 0 0
-0.4447 1.0745 -0.5472 0.526 -0.471 0.709 184 163 144 0 0
-0.4445 1.0767 -0.5457 0.575 -0.649 0.498 184 163 145 0 0
-0.4436 1.0790 -0.5437 0.594 -0.655 0.466 183 164 147 0 0
-0.4396 1.0819 -0.5396 0.977 0.215 -0.012 184 166 149 0 0
-0.4463 1.0849 -0.5417 0.865 0.447 0.229 181 162 145 0 0
-0.4687 1.0961 -0.5483 0.322 0.849 0.418 180 160 142 0 0
-0.4740 1.1340 -0.5281 0.885 -0.315 -0.343 152 126 108 0 0
-0.4740 1.1361 -0.5267 0.705 -0.563 -0.431 149 123 105 0 0
-0.4628 1.1606 -0.5049 0.832 0.463 0.304 179 157 136 0 0
-0.4652 1.1707 -0.5001 0.982 -0.096 0.163 191 171 155 0 0
-0.4891 1.2104 -0.4900 0.307 -0.549 0.777 197 180 167 0 0
-0.4891 1.2145 -0.4874 0.402 -0.425 0.811 180 159 141 0 0
-0.4917 1.2391 -0.4738 0.773 -0.083 0.629 172 150 131 0 0
-0.5056 1.2977 -0.4459 0.807 0.477 0.348 190 173 159 0 0
-0.5078 1.2998 -0.4460 0.965 -0.216 -0.147 199 184 170 0 0
-0.5068 1.3058 -0.4417 0.979 0.206 0.010 174 155 138 0 0
-0.5072 1.3078 -0.4407 0.822 0.528 0.211 176 157 139 0 0
-0.5075 1.3098 -0.4397 0.966 -0.243 0.092 169 148 130 0 0
-0.5028 1.3195 -0.4308 0.972 0.031 0.234 172 154 139 0 0
-0.5449 1.3481 -0.4384 0.420 -0.627 0.656 176 155 134 0 0
-0.5442 1.3501 -0.4368 0.451 -0.484 0.750 172 151 129 0 0
-0.5395 1.3558 -0.4305 0.922 -0.386 0.024 157 135 113 0 0
-0.5327 1.3651 -0.4206 0.932 0.362 -0.019 185 171 159 0 0
-0.5312 1.3689 -0.4174 0.750 0.491 0.443 195 182 169 0 0
-0.5322 1.3710 -0.4167 0.720 0.257 0.645 200 185 174 0 0
-0.5387 1.3776 -0.4166 0.548 0.239 0.802 195 180 162 0 0
-0.5388 1.3795 -0.4154 0.764 -0.172 0.621 190 174 153 0 0
-0.5393 1.3855 -0.4120 0.706 -0.380 0.598 165 141 124 0 0
-0.5450 1.4019 -0.4053 0.396 0.639 0.659 169 146 129 0 0
-0.5575 1.4639 -0.3745 0.553 0.072 0.830 161 135 120 0 0
-0.5528 1.4802 -0.3617 0.724 -0.468 0.507 163 137 122 0 0
-0.5530 1.4821 -0.3606 0.481 -0.131 0.867 164 140 125 0 0
-0.5549 1.4844 -0.3603 0.250 -0.447 0.859 164 142 126 0 0
-0.5542 1.4993 -0.3507 0.875 -0.297 0.381 175 158 144 0 0
-0.5556 1.5015 -0.3502 0.884 0.224 0.410 184 168 154 0 0
-0.5560 1.5034 -0.3493 0.925 0.084 0.370 186 171 160 0 0
-0.5628 1.5180 -0.3443 0.488 0.052 0.871 171 150 133 0 0
-0.5665 1.5633 -0.3186 0.521 0.155 0.839 190 176 161 0 0
-0.5681 1.5656 -0.3181 0.695 -0.098 0.712 186 170 155 0 0
-0.5690 1.5676 -0.3174 0.820 0.247 0.516 175 156 138 0 0
-0.5707 1.5699 -0.3170 0.848 0.263 0.460 160 138 120 0 0
-0.5680 1.5710 -0.3147 0.879 0.472 -0.073 150 128 110 0 0
-0.5691 1.5731 -0.3141 0.811 0.575 -0.107 147 124 106 0 0
-0.5710 1.5755 -0.3137 0.715 0.696 0.068 149 127 107 0 0
-0.5761 1.5824 -0.3126 0.663 -0.112 0.740 168 148 128 0 0
-0.5811 1.5966 -0.3068 0.378 -0.249 0.892 167 144 122 0 0
-0.5891 1.6081 -0.3045 0.800 0.478 0.363 162 139 120 0 0
-0.5900 1.6102 -0.3037 0.662 0.624 0.414 158 136 115 0 0
-0.5916 1.6125 -0.3033 0.585 0.704 0.402 150 126 105 0 0
-0.5957 1.6156 -0.3038 0.733 0.465 0.496 139 114 94 0 0
-0.5947 1.6189 -0.3012 0.946 0.119 -0.301 144 118 100 0 0
-0.5884 1.6242 -0.2941 0.899 -0.424 0.109 171 151 133 0 0
-0.5878 1.6258 -0.2928 0.899 -0.424 0.109 177 158 139 0 0
-0.5885 1.6278 -0.2919 0.691 -0.385 0.612 181 163 144 0 0
-0.6103 1.6458 -0.2939 0.202 0.537 0.819 181 163 146 0 0
-0.6222 1.6534 -0.2964 0.244 0.616 0.749 178 160 140 0 0
-0.6174 1.6536 -0.2934 0.958 -0.189 0.217 181 163 145 0 0
-0.6167 1.6552 -0.2920 0.963 -0.170 -0.210 181 162 145 0 0
-0.6146 1.6563 -0.2900 0.441 0.180 0.879 180 162 144 0 0
-0.6193 1.6725 -0.2828 0.852 0.017 -0.523 146 122 104 0 0
-0.6132 1.6722 -0.2794 0.063 0.569 0.820 140 115 97 0 0
-0.6122 1.6736 -0.2779 0.147 0.384 0.911 133 111 90 0 0
-0.6065 1.6841 -0.2680 0.727 0.673 0.133 147 122 104 0 0
-0.6034 1.7094 -0.2505 0.160 -0.128 0.979 167 147 126 0 0
-0.6069 1.7125 -0.2507 0.444 0.556 0.703 169 151 131 0 0
-0.6080 1.7165 -0.2490 0.477 0.756 0.448 180 163 143 0 0
-0.6136 1.7204 -0.2499 0.535 0.706 0.465 186 169 149 0 0
-0.6160 1.7231 -0.2496 0.949 0.281 0.145 191 176 157 0 0
-0.6169 1.7287 -0.2467 0.875 0.413 0.252 171 152 130 0 0
-0.6188 1.7312 -0.2463 0.674 0.627 0.392 163 142 121 0 0
-0.6191 1.7331 -0.2453 0.550 0.517 0.656 161 139 117 0 0
-0.6220 1.7360 -0.2453 0.584 0.575 0.573 161 139 116 0 0
-0.6275 1.7400 -0.2461 0.636 0.661 0.399 156 134 113 0 0
-0.6284 1.7421 -0.2454 0.733 0.393 -0.556 146 124 103 0 0
-0.6070 1.7592 -0.2220 0.379 0.055 0.924 156 134 117 0 0
-0.3447 0.7500 -0.6904 0.904 -0.400 0.152 166 142 124 0 0
-0.3480 0.7552 -0.6892 0.363 -0.380 0.851 170 147 128 0 0
-0.3472 0.7604 -0.6855 0.511 -0.588 0.627 167 143 126 0 0
-0.3490 0.7617 -0.6857 0.372 -0.644 0.668 175 152 135 0 0
-0.3500 0.7635 -0.6852 0.193 -0.560 0.806 172 150 130 0 0
-0.3593 0.7726 -0.6852 0.355 -0.386 0.852 171 147 125 0 0
-0.3535 0.8084 -0.6596 0.736 0.674 0.054 182 163 146 0 0
-0.3825 0.8292 -0.6643 0.714 -0.082 0.696 158 133 113 0 0
-0.3845 0.8329 -0.6631 0.871 -0.168 0.463 162 139 117 0 0
-0.3835 0.8357 -0.6608 0.910 0.225 0.349 162 137 117 0 0
-0.3810 0.8438 -0.6543 0.877 -0.109 0.468 140 115 96 0 0
-0.3813 0.8460 -0.6532 0.887 0.173 0.428 131 107 86 0 0
-0.3808 0.8485 -0.6513 0.768 0.292 0.570 135 112 92 0 0
-0.3909 0.8878 -0.6331 0.347 -0.822 0.452 164 140 119 0 0
-0.3851 0.9037 -0.6198 0.981 0.130 0.143 184 167 154 0 0
-0.4477 1.0445 -0.5705 0.495 0.787 0.369 137 111 94 0 0
-0.4489 1.0464 -0.5700 0.476 0.655 0.586 148 122 105 0 0
-0.4519 1.0480 -0.5709 0.451 0.786 0.422 152 128 109 0 0
-0.4446 1.0690 -0.5534 0.855 -0.393 0.339 178 156 136 0 0
-0.4450 1.0754 -0.5498 0.614 -0.420 0.668 183 162 143 0 0
-0.4412 1.0804 -0.5444 0.999 -0.035 0.041 189 171 156 0 0
-0.4399 1.0828 -0.5421 0.837 0.522 -0.161 189 172 156 0 0
-0.4465 1.0858 -0.5443 0.884 0.467 0.022 179 160 143 0 0
-0.4713 1.1353 -0.5286 0.982 -0.101 -0.162 156 131 112 0 0
-0.4640 1.1489 -0.5158 0.893 -0.439 -0.097 176 155 137 0 0
-0.4576 1.1703 -0.4987 0.669 -0.742 -0.040 194 176 159 0 0
