ply
format ascii 1.0
element vertex 814
property float x
property float y
property float z
property float nx
property float ny
property float nz
property uchar diffuse_red
property uchar diffuse_green
property uchar diffuse_blue
property uchar class
property uchar detection
end_header
-3.2703 -4.9618 -4.9542 0.011 0.050 0.999 215 208 213 0 0
-3.2488 -5.0266 -4.9339 0.309 -0.325 0.894 218 212 216 0 0
-3.2618 -5.1761 -4.9425 -0.083 0.108 0.991 218 208 210 0 0
-3.2597 -5.1898 -4.9404 -0.091 0.116 0.989 218 209 208 0 0
-3.2579 -5.2182 -4.9382 -0.191 0.456 0.870 213 202 199 0 0
-3.2519 -5.2304 -4.9327 -0.113 0.552 0.826 209 198 197 0 0
-3.2438 -5.2418 -4.9253 -0.145 0.580 0.802 209 199 198 0 0
-3.2410 -5.2552 -4.9226 -0.090 0.462 0.882 212 202 201 0 0
-3.2222 -5.4074 -4.9030 0.449 -0.196 0.872 216 210 216 0 0
-3.2249 -5.4231 -4.9051 0.576 -0.176 0.799 216 211 217 0 0
-3.2334 -5.4413 -4.9123 0.362 -0.200 0.910 217 212 219 0 0
-3.2316 -5.4551 -4.9104 0.445 -0.158 0.881 214 212 219 0 0
-3.2375 -5.4722 -4.9153 0.274 -0.145 0.951 213 211 219 0 0
-3.2306 -5.4838 -4.9089 0.495 -0.128 0.859 212 210 218 0 0
-3.1971 -5.6293 -4.8765 0.149 -0.206 0.967 213 205 203 0 0
-3.2019 -5.6461 -4.8804 0.237 -0.402 0.884 212 204 202 0 0
-3.2111 -5.6651 -4.8882 0.550 -0.358 0.754 211 202 201 0 0
-3.1981 -5.7175 -4.8757 0.077 0.038 0.996 208 198 197 0 0
-3.2076 -5.7367 -4.8837 0.396 -0.178 0.901 211 201 200 0 0
-3.2014 -5.8364 -4.8763 -0.160 0.751 0.641 206 198 200 0 0
-3.1888 -5.8888 -4.8641 0.532 0.113 0.839 215 210 216 0 0
-3.1850 -5.9015 -4.8605 0.602 0.336 0.724 213 208 214 0 0
-3.1846 -5.9160 -4.8599 0.687 0.306 0.659 213 208 214 0 0
-3.1802 -5.9284 -4.8558 0.677 0.404 0.615 213 208 214 0 0
-3.1635 -6.0224 -4.8392 -0.085 0.388 0.918 211 206 210 0 0
-3.1613 -6.0359 -4.8369 0.038 0.380 0.924 212 207 210 0 0
-3.1528 -6.0754 -4.8287 0.356 0.063 0.932 216 210 213 0 0
-3.1549 -6.1059 -4.8300 0.383 0.221 0.897 215 209 211 0 0
-3.1491 -6.1616 -4.8237 0.227 0.233 0.946 211 205 207 0 0
-3.1524 -6.1782 -4.8263 0.335 -0.048 0.941 211 205 207 0 0
-3.1535 -6.1936 -4.8270 0.452 -0.400 0.797 211 205 207 0 0
-3.1514 -6.2071 -4.8249 0.286 -0.109 0.952 211 205 207 0 0
-3.1489 -6.2204 -4.8224 0.242 -0.096 0.966 212 206 208 0 0
-3.1316 -6.3431 -4.8048 0.589 -0.602 0.539 214 208 212 0 0
-3.1376 -6.4504 -4.8080 -0.138 0.045 0.989 211 201 200 0 0
-3.1371 -6.4650 -4.8072 -0.115 -0.049 0.992 207 196 196 0 0
-3.1337 -6.4777 -4.8039 -0.133 0.168 0.977 207 197 198 0 0
-3.0796 -6.8729 -4.7484 0.133 -0.061 0.989 209 203 203 0 0
-3.0944 -7.0484 -4.7582 0.555 -0.081 0.828 210 205 209 0 0
-3.0916 -7.0613 -4.7554 0.569 0.071 0.819 210 206 208 0 0
-3.0896 -7.0749 -4.7534 0.608 0.240 0.757 209 205 206 0 0
-3.0925 -7.0920 -4.7556 0.334 0.661 0.672 209 203 205 0 0
-3.0826 -7.0997 -4.7467 0.365 0.750 0.552 210 203 203 0 0
-3.0690 -7.1045 -4.7346 0.331 0.669 0.666 210 202 200 0 0
-3.0621 -7.1142 -4.7283 0.331 0.669 0.666 210 201 200 0 0
-3.0520 -7.1365 -4.7189 0.118 0.181 0.976 209 200 200 0 0
-3.0436 -7.1750 -4.7108 0.144 0.017 0.989 205 196 196 0 0
-3.0417 -7.2484 -4.7076 0.630 -0.187 0.753 207 197 196 0 0
-3.0411 -7.2629 -4.7068 0.442 -0.251 0.861 207 198 197 0 0
-3.0458 -7.2817 -4.7107 0.523 -0.061 0.850 207 197 199 0 0
-3.0278 -7.4026 -4.6923 0.783 -0.213 0.584 209 200 198 0 0
-3.0441 -7.5065 -4.7047 -0.122 0.293 0.948 206 196 195 0 0
-3.0414 -7.5195 -4.7021 -0.157 0.474 0.867 206 196 195 0 0
-3.0076 -7.5363 -4.6719 0.663 -0.336 0.669 205 195 194 0 0
-3.0192 -7.5612 -4.6816 0.152 -0.348 0.925 206 196 195 0 0
-3.0256 -7.5818 -4.6870 0.384 -0.570 0.726 207 198 197 0 0
-3.0660 -7.6314 -4.7217 0.695 -0.656 0.295 208 200 198 0 0
-2.9946 -7.8578 -4.6542 0.417 -0.322 0.850 206 196 195 0 0
-2.9969 -7.8750 -4.6558 0.333 -0.096 0.938 206 196 195 0 0
-3.0078 -7.9002 -4.6650 0.301 -0.344 0.890 206 196 194 0 0
-3.0172 -7.9240 -4.6728 0.390 -0.334 0.858 206 195 194 0 0
-3.0221 -7.9439 -4.6768 0.350 -0.298 0.888 207 197 195 0 0
-3.0217 -7.9588 -4.6762 0.091 0.157 0.983 208 199 197 0 0
-2.9771 -8.4227 -4.6277 0.058 0.152 0.987 208 201 202 0 0
-2.9714 -8.4324 -4.6226 0.022 0.175 0.984 208 199 200 0 0
-2.9628 -8.4390 -4.6148 0.308 0.009 0.951 205 196 197 0 0
-3.4231 -1.4987 -5.1389 0.099 -0.168 0.981 209 207 217 0 0
-3.4173 -1.5135 -5.1335 0.089 -0.298 0.951 212 211 221 0 0
-3.4202 -1.5259 -5.1358 0.097 -0.468 0.878 215 215 223 0 0
-3.4212 -1.5388 -5.1364 0.052 -0.421 0.905 215 214 222 0 0
-3.4164 -1.5534 -5.1319 0.249 -0.092 0.964 212 211 220 0 0
-3.4207 -1.5654 -5.1355 0.164 -0.203 0.965 212 210 218 0 0
-3.4235 -1.5779 -5.1377 0.164 -0.203 0.965 211 209 217 0 0
-3.4228 -1.5913 -5.1368 0.235 -0.243 0.941 212 209 217 0 0
-3.4312 -1.6289 -5.1435 0.277 -0.090 0.957 215 213 218 0 0
-3.4392 -1.6800 -5.1495 0.147 -0.211 0.966 212 207 210 0 0
-3.4407 -1.6930 -5.1506 0.160 0.059 0.985 212 207 210 0 0
-3.4459 -1.7050 -5.1550 0.141 0.009 0.990 211 206 207 0 0
-3.4501 -1.7173 -5.1584 0.022 -0.130 0.991 211 204 204 0 0
-3.4688 -1.7665 -5.1739 -0.085 -0.172 0.981 207 196 194 0 0
-3.4831 -1.8440 -5.1850 0.274 0.008 0.962 213 210 216 0 0
-3.4856 -1.8840 -5.1864 0.247 -0.132 0.960 213 210 218 0 0
-3.4908 -1.8965 -5.1907 0.281 -0.375 0.883 213 210 217 0 0
-3.4954 -1.9091 -5.1945 0.281 -0.375 0.883 212 209 216 0 0
-3.5016 -1.9349 -5.1995 0.259 -0.441 0.859 214 208 214 0 0
-3.4963 -1.9496 -5.1945 0.122 -0.096 0.988 215 209 213 0 0
-3.4999 -1.9625 -5.1974 0.059 0.113 0.992 216 211 214 0 0
-3.5025 -1.9756 -5.1995 0.068 0.137 0.988 217 212 216 0 0
-3.4911 -2.0730 -5.1875 0.198 -0.267 0.943 217 213 219 0 0
-3.4879 -2.1691 -5.1828 0.176 0.176 0.968 219 214 219 0 0
-3.4952 -2.1816 -5.1890 0.609 0.099 0.787 216 211 216 0 0
-3.4971 -2.1950 -5.1904 0.574 0.009 0.819 215 210 215 0 0
-3.4979 -2.2085 -5.1909 0.513 -0.047 0.857 213 208 211 0 0
-3.5035 -2.3314 -5.1934 0.211 0.365 0.907 212 209 215 0 0
-3.4965 -2.3461 -5.1869 0.247 0.417 0.875 210 208 214 0 0
-3.4536 -2.4750 -5.1465 0.296 0.485 0.823 216 213 219 0 0
-3.4553 -2.5160 -5.1472 0.352 0.673 0.650 214 210 216 0 0
-3.4472 -2.5306 -5.1398 0.568 -0.435 0.699 212 209 216 0 0
-3.4503 -2.5440 -5.1423 0.570 -0.077 0.818 213 209 216 0 0
-3.4690 -2.6250 -5.1572 0.100 0.358 0.928 212 207 212 0 0
-3.4660 -2.6390 -5.1542 0.081 0.448 0.890 214 209 215 0 0
-3.4584 -2.6535 -5.1473 0.100 0.358 0.928 217 212 217 0 0
-3.4532 -2.6677 -5.1424 0.100 0.358 0.928 217 212 217 0 0
-3.4496 -2.6956 -5.1387 0.136 -0.133 0.982 215 210 215 0 0
-3.4672 -2.7082 -5.1539 0.383 -0.535 0.753 215 209 213 0 0
-3.4500 -2.7785 -5.1374 0.165 0.396 0.903 215 209 213 0 0
-3.4254 -2.8351 -5.1146 0.064 0.157 0.985 213 207 211 0 0
-3.4233 -2.8490 -5.1125 0.064 0.157 0.985 212 206 210 0 0
-3.4732 -3.0145 -5.1532 0.659 0.367 0.656 218 212 215 0 0
-3.4691 -3.0286 -5.1494 0.718 0.357 0.598 216 209 213 0 0
-3.4684 -3.0426 -5.1484 0.661 0.421 0.621 214 208 212 0 0
-3.4595 -3.0567 -5.1403 0.477 0.489 0.730 212 206 210 0 0
-3.4506 -3.0708 -5.1322 0.508 0.640 0.577 213 207 211 0 0
-3.4432 -3.1267 -5.1246 0.062 0.611 0.790 215 209 213 0 0
-3.4277 -3.1546 -5.1103 0.121 0.488 0.864 216 210 216 0 0
-3.4240 -3.1965 -5.1063 0.277 -0.083 0.957 217 210 217 0 0
-3.4291 -3.2105 -5.1105 0.425 -0.652 0.628 215 209 216 0 0
-3.4333 -3.2246 -5.1139 0.378 -0.177 0.909 214 206 212 0 0
-3.4415 -3.2388 -5.1209 0.241 -0.026 0.970 215 206 210 0 0
-3.4399 -3.2809 -5.1186 0.343 0.074 0.936 215 205 208 0 0
-3.4391 -3.2950 -5.1176 0.216 -0.034 0.976 216 207 209 0 0
-3.4377 -3.3090 -5.1161 0.316 0.203 0.927 216 207 212 0 0
-3.4379 -3.4782 -5.1130 0.463 0.190 0.866 216 210 215 0 0
-3.4530 -3.6071 -5.1237 0.257 -0.264 0.930 216 209 216 0 0
-3.4575 -3.6218 -5.1274 0.158 -0.271 0.950 216 210 217 0 0
-3.4650 -3.6510 -5.1335 0.229 -0.283 0.931 216 211 216 0 0
-3.4772 -3.7382 -5.1425 0.471 0.472 0.745 215 209 214 0 0
-3.4730 -3.7521 -5.1385 0.790 0.142 0.597 216 209 216 0 0
-3.4718 -3.7664 -5.1372 0.645 0.292 0.707 215 208 213 0 0
-3.4575 -3.7790 -5.1243 0.376 -0.149 0.915 215 209 213 0 0
-3.4596 -3.7936 -5.1259 0.376 -0.149 0.915 216 209 216 0 0
-3.4606 -3.8081 -5.1265 0.408 -0.061 0.911 217 210 216 0 0
-3.4589 -3.8222 -5.1247 0.369 -0.149 0.917 217 211 216 0 0
-3.4675 -3.8377 -5.1320 0.566 -0.159 0.809 218 211 216 0 0
-3.4602 -3.9663 -5.1230 0.460 0.448 0.767 216 211 217 0 0
-3.4618 -3.9810 -5.1242 0.320 0.372 0.871 216 211 218 0 0
-3.4572 -3.9947 -5.1198 0.289 0.443 0.848 215 209 215 0 0
-3.4549 -4.0232 -5.1172 0.217 0.088 0.972 215 209 216 0 0
-3.4532 -4.0374 -5.1155 0.189 0.201 0.961 216 210 217 0 0
-3.4509 -4.0515 -5.1131 0.236 0.285 0.929 217 209 217 0 0
-3.4469 -4.0652 -5.1093 0.094 0.406 0.909 214 208 214 0 0
-3.4238 -4.1333 -5.0876 0.810 0.250 0.530 215 213 224 0 0
-3.4248 -4.1479 -5.0882 0.868 0.352 0.350 216 214 226 0 0
-3.4269 -4.1627 -5.0898 0.985 0.008 0.171 217 215 227 0 0
-3.4056 -4.1732 -5.0709 0.579 0.579 0.573 216 214 226 0 0
-3.4020 -4.1869 -5.0674 0.473 0.710 0.522 216 214 227 0 0
-3.3921 -4.2137 -5.0582 0.531 0.264 0.805 211 207 217 0 0
-3.3641 -4.2798 -5.0321 0.205 0.564 0.800 216 209 216 0 0
-3.3632 -4.2939 -5.0311 0.139 0.300 0.944 217 210 217 0 0
-3.3541 -4.3063 -5.0228 0.067 0.081 0.994 218 210 217 0 0
-3.3224 -4.3994 -4.9931 0.148 0.055 0.987 218 210 217 0 0
-3.3255 -4.4287 -4.9952 0.204 -0.411 0.889 217 208 211 0 0
-3.3296 -4.4440 -4.9985 0.080 -0.242 0.967 217 208 211 0 0
-3.3281 -4.4724 -4.9966 -0.149 0.378 0.914 215 206 208 0 0
-3.2831 -4.7471 -4.9516 0.114 0.134 0.984 216 211 218 0 0
-3.2771 -4.7884 -4.9455 0.523 -0.078 0.849 217 213 220 0 0
-3.2803 -4.8038 -4.9480 0.291 0.100 0.952 217 212 219 0 0
-3.2774 -4.8172 -4.9451 0.207 -0.043 0.977 215 209 216 0 0
-3.2937 -4.8512 -4.9589 0.675 -0.498 0.544 218 211 215 0 0
-3.2845 -4.9638 -4.9485 0.065 0.474 0.878 215 209 213 0 0
-3.2700 -4.9878 -4.9352 0.378 0.190 0.906 216 210 214 0 0
-3.2695 -5.0021 -4.9346 0.336 0.088 0.938 217 211 215 0 0
-3.2770 -5.1351 -4.9386 0.173 -0.392 0.904 212 207 210 0 0
-3.2874 -5.2119 -4.9462 -0.046 0.626 0.778 219 212 215 0 0
-3.2629 -5.2461 -4.9239 -0.117 0.534 0.837 210 200 201 0 0
-3.2596 -5.2594 -4.9208 -0.193 0.488 0.851 211 202 203 0 0
-3.2353 -5.4096 -4.8964 0.662 0.017 0.749 217 211 216 0 0
-3.2357 -5.4389 -4.8962 0.816 -0.049 0.576 217 213 219 0 0
-3.2364 -5.4538 -4.8965 0.816 -0.049 0.576 217 214 220 0 0
-3.2511 -5.5040 -4.9084 0.951 -0.222 0.217 214 210 217 0 0
-3.2313 -5.5391 -4.8903 0.377 0.480 0.792 212 206 208 0 0
-3.2287 -5.5526 -4.8878 0.194 0.265 0.944 210 203 206 0 0
-3.2221 -5.5642 -4.8817 -0.071 0.555 0.829 209 202 204 0 0
-3.2183 -5.5917 -4.8778 0.264 0.289 0.920 211 202 204 0 0
-3.2157 -5.6051 -4.8752 0.235 0.246 0.940 212 203 203 0 0
-3.2090 -5.6166 -4.8691 0.134 0.104 0.986 212 204 203 0 0
-3.2272 -5.6690 -4.8842 0.285 0.042 0.958 211 203 201 0 0
-3.2343 -5.8343 -4.8872 -0.171 0.752 0.637 210 202 206 0 0
-3.2069 -5.8500 -4.8627 -0.151 0.625 0.766 207 202 208 0 0
-3.2006 -5.8909 -4.8563 0.532 0.113 0.839 214 209 215 0 0
-3.1994 -5.9050 -4.8550 0.257 0.408 0.876 215 210 216 0 0
-3.1795 -6.2487 -4.8307 0.721 0.551 0.420 213 208 211 0 0
-3.1790 -6.2632 -4.8299 0.846 0.447 0.291 214 209 213 0 0
-3.1483 -6.3192 -4.8018 0.656 0.113 0.747 213 208 213 0 0
-3.1472 -6.3333 -4.8006 0.656 0.113 0.747 214 209 214 0 0
-3.1444 -6.3464 -4.7978 0.524 -0.624 0.580 215 210 216 0 0
-3.1464 -6.3624 -4.7993 0.526 -0.358 0.772 214 209 214 0 0
-3.1155 -6.5357 -4.7686 0.008 -0.023 1.000 209 203 205 0 0
-3.1112 -6.8304 -4.7590 0.032 0.463 0.886 210 203 205 0 0
-3.1014 -6.8834 -4.7494 0.044 -0.191 0.981 210 205 206 0 0
-3.0914 -6.9360 -4.7395 0.378 0.173 0.910 209 200 202 0 0
-3.0897 -6.9497 -4.7377 0.400 0.304 0.865 210 202 203 0 0
-3.0910 -6.9806 -4.7383 0.412 -0.017 0.911 210 202 203 0 0
-3.1036 -7.0348 -4.7483 0.590 -0.227 0.775 210 205 207 0 0
-3.1163 -7.1196 -4.7578 -0.046 0.615 0.787 208 200 200 0 0
-3.0727 -7.1169 -4.7195 0.669 0.719 0.187 209 199 198 0 0
-3.0540 -7.2076 -4.7012 0.022 0.178 0.984 207 198 198 0 0
-3.0652 -7.2313 -4.7107 0.225 0.232 0.946 208 198 198 0 0
-3.0676 -7.2482 -4.7124 0.194 -0.062 0.979 208 199 197 0 0
-3.0407 -7.4074 -4.6856 0.441 -0.104 0.891 210 200 200 0 0
-3.0452 -7.4714 -4.6882 0.000 0.515 0.857 207 198 197 0 0
-3.0584 -7.4975 -4.6994 -0.112 0.046 0.993 206 197 196 0 0
-3.0193 -7.5403 -4.6641 0.502 -0.221 0.836 207 196 195 0 0
-3.0388 -7.5719 -4.6806 0.179 -0.243 0.953 206 196 195 0 0
-3.0444 -7.5918 -4.6852 0.580 -0.614 0.535 207 198 196 0 0
-3.0696 -7.6285 -4.7067 0.695 -0.656 0.295 209 201 199 0 0
-3.0048 -7.8455 -4.6453 0.019 0.062 0.998 204 194 193 0 0
-3.0183 -7.8730 -4.6567 0.338 -0.066 0.939 205 195 194 0 0
-3.0195 -7.8893 -4.6574 0.338 -0.066 0.939 206 196 194 0 0
-3.0246 -7.9091 -4.6614 0.331 -0.376 0.865 207 197 194 0 0
-3.0245 -7.9244 -4.6611 0.271 -0.190 0.944 207 197 196 0 0
-3.0365 -7.9507 -4.6712 0.230 -0.250 0.940 210 202 200 0 0
-3.0408 -7.9700 -4.6745 0.548 -0.101 0.830 210 203 201 0 0
-3.0428 -7.9871 -4.6759 0.269 0.241 0.933 209 201 200 0 0
-2.9913 -8.2760 -4.6249 0.292 0.188 0.938 206 195 195 0 0
-2.9920 -8.3075 -4.6249 0.355 0.117 0.927 204 195 193 0 0
-2.9780 -8.4475 -4.6098 0.415 0.074 0.907 206 196 195 0 0
-3.4370 -1.4561 -5.1344 0.405 0.123 0.906 210 205 208 0 0
-3.4358 -1.4696 -5.1331 0.405 0.123 0.906 211 206 211 0 0
-3.4394 -1.5215 -5.1352 0.037 -0.349 0.936 213 212 220 0 0
-3.4354 -1.5491 -5.1312 0.257 -0.106 0.961 213 212 219 0 0
-3.4369 -1.5619 -5.1322 0.257 -0.106 0.961 213 210 218 0 0
-3.4374 -1.5750 -5.1324 0.207 -0.103 0.973 212 209 216 0 0
-3.4341 -1.5892 -5.1292 0.161 -0.121 0.979 211 208 216 0 0
-3.4593 -1.6758 -5.1496 0.198 -0.373 0.906 211 207 208 0 0
-3.5016 -1.7190 -5.1859 0.765 -0.596 0.246 209 200 199 0 0
-3.5096 -1.7306 -5.1927 0.711 -0.393 0.583 207 197 196 0 0
-3.5305 -1.7663 -5.2103 0.076 -0.614 0.785 210 201 201 0 0
-3.5194 -1.7824 -5.2002 0.390 -0.336 0.858 212 206 209 0 0
-3.4989 -1.8006 -5.1819 0.253 0.141 0.957 213 209 214 0 0
-3.5145 -2.1650 -5.1883 0.271 0.151 0.951 218 213 217 0 0
-3.5129 -2.1927 -5.1863 0.257 0.200 0.945 214 210 213 0 0
-3.5125 -2.2065 -5.1857 0.332 0.034 0.942 213 208 210 0 0
-3.5176 -2.3296 -5.1877 0.370 0.525 0.766 216 213 220 0 0
-3.4772 -2.5412 -5.1480 0.219 -0.256 0.941 213 208 215 0 0
-3.4928 -2.5812 -5.1609 0.049 -0.390 0.920 213 208 214 0 0
-3.4809 -2.7069 -5.1480 0.313 -0.507 0.803 215 209 213 0 0
-3.4693 -2.7770 -5.1363 0.236 0.555 0.798 216 210 215 0 0
-3.4613 -2.7914 -5.1290 0.293 0.518 0.804 216 210 216 0 0
-3.4605 -2.8608 -5.1269 0.253 0.208 0.945 212 206 210 0 0
-3.4503 -2.9029 -5.1172 0.138 0.093 0.986 213 207 210 0 0
-3.4600 -2.9165 -5.1254 0.077 -0.158 0.984 214 208 211 0 0
-3.4915 -2.9855 -5.1517 0.387 0.160 0.908 217 213 219 0 0
-3.4928 -2.9995 -5.1525 0.588 0.449 0.672 217 214 220 0 0
-3.4755 -3.0278 -5.1368 0.598 0.250 0.761 218 215 221 0 0
-3.4774 -3.0418 -5.1382 0.591 0.430 0.683 216 212 217 0 0
-3.4578 -3.3511 -5.1148 0.661 -0.208 0.721 215 209 213 0 0
-3.4821 -3.7661 -5.1279 0.645 0.292 0.707 214 208 214 0 0
-3.4713 -3.8079 -5.1175 0.266 -0.085 0.960 214 207 214 0 0
-3.4733 -3.8225 -5.1190 0.369 -0.149 0.917 216 208 215 0 0
-3.4814 -3.8379 -5.1258 0.312 0.034 0.949 218 209 217 0 0
-3.4876 -3.8532 -5.1310 0.363 0.115 0.925 218 211 217 0 0
-3.4831 -3.8814 -5.1264 0.719 -0.009 0.695 217 211 215 0 0
-3.4830 -3.8958 -5.1261 0.724 -0.037 0.688 219 212 218 0 0
-3.4849 -3.9105 -5.1274 0.686 0.004 0.727 219 214 220 0 0
-3.4867 -3.9252 -5.1287 0.816 0.448 0.365 218 213 219 0 0
-3.4833 -3.9392 -5.1254 0.770 0.283 0.572 218 213 220 0 0
-3.4828 -3.9536 -5.1247 0.801 -0.069 0.595 216 211 218 0 0
-3.4836 -3.9682 -5.1252 0.769 -0.043 0.638 217 213 220 0 0
-3.4781 -3.9818 -5.1201 0.467 0.442 0.766 217 213 220 0 0
-3.4740 -4.0101 -5.1159 0.654 -0.011 0.757 216 211 217 0 0
-3.4711 -4.0241 -5.1130 0.823 -0.250 0.511 216 210 217 0 0
-3.4726 -4.0388 -5.1141 0.668 0.098 0.738 216 211 218 0 0
-3.4698 -4.0528 -5.1113 0.728 0.129 0.673 217 210 216 0 0
-3.4524 -4.0788 -5.0955 0.207 0.621 0.756 213 206 211 0 0
-3.4186 -4.1593 -5.0643 0.614 0.610 0.501 217 215 226 0 0
-3.4013 -4.2136 -5.0480 0.423 0.218 0.880 214 210 220 0 0
-3.3802 -4.2811 -5.0281 0.134 0.498 0.857 219 214 220 0 0
-3.3428 -4.4163 -4.9926 -0.008 -0.065 0.998 219 210 213 0 0
-3.3430 -4.4307 -4.9924 0.218 -0.358 0.908 218 209 212 0 0
-3.3480 -4.4463 -4.9965 -0.029 -0.110 0.994 217 208 210 0 0
-3.3370 -4.5297 -4.9852 0.138 -0.028 0.990 217 210 217 0 0
-3.3221 -4.5690 -4.9713 0.537 0.286 0.794 214 211 221 0 0
-3.2939 -4.6760 -4.9444 0.156 0.224 0.962 213 206 213 0 0
-3.2893 -4.7034 -4.9398 0.185 -0.133 0.974 213 207 213 0 0
-3.2892 -4.7895 -4.9380 0.519 -0.099 0.849 218 215 222 0 0
-3.2960 -4.8060 -4.9436 0.301 0.009 0.954 218 215 222 0 0
-3.2972 -4.8208 -4.9444 0.400 -0.172 0.900 217 213 220 0 0
-3.2940 -4.8342 -4.9414 0.635 -0.393 0.666 216 211 218 0 0
-3.3023 -4.8512 -4.9483 0.675 -0.498 0.544 217 212 219 0 0
-3.2975 -5.1688 -4.9377 0.279 -0.036 0.960 219 214 219 0 0
-3.2944 -5.2260 -4.9338 0.016 0.515 0.857 218 213 220 0 0
-3.2854 -5.2517 -4.9254 -0.038 0.363 0.931 210 202 203 0 0
-3.2437 -5.4098 -4.8856 0.798 0.346 0.494 217 212 216 0 0
-3.2461 -5.4400 -4.8871 0.954 0.133 0.269 217 211 217 0 0
-3.2562 -5.4589 -4.8956 0.701 0.043 0.712 216 212 217 0 0
-3.2426 -5.5261 -4.8824 0.427 0.324 0.844 215 209 213 0 0
-3.2491 -5.5436 -4.8877 0.323 0.214 0.922 212 206 209 0 0
-3.2224 -5.6485 -4.8622 0.038 -0.140 0.989 211 202 200 0 0
-3.2446 -5.6883 -4.8809 0.027 -0.119 0.992 211 202 200 0 0
-3.2369 -5.7287 -4.8733 0.096 -0.071 0.993 209 199 200 0 0
-3.2113 -5.8779 -4.8479 0.212 0.626 0.750 212 208 214 0 0
-3.2136 -5.9085 -4.8492 0.257 0.408 0.876 214 209 215 0 0
-3.1844 -6.2028 -4.8177 -0.062 0.302 0.951 210 204 206 0 0
-3.1809 -6.2156 -4.8144 -0.074 0.401 0.913 210 204 206 0 0
-3.1817 -6.2753 -4.8139 0.452 0.666 0.593 215 210 216 0 0
-3.1357 -6.5291 -4.7684 0.025 0.021 0.999 211 203 206 0 0
-3.1357 -6.5440 -4.7681 0.025 0.021 0.999 209 202 204 0 0
-3.1334 -6.7511 -4.7620 0.680 0.710 0.185 214 209 213 0 0
-3.1293 -6.8230 -4.7569 -0.110 0.575 0.810 209 202 203 0 0
-3.1172 -6.8296 -4.7461 -0.005 -0.050 0.999 210 204 205 0 0
-3.1055 -6.9260 -4.7340 0.581 0.202 0.789 210 202 203 0 0
-3.1035 -6.9396 -4.7319 0.581 0.202 0.789 211 201 203 0 0
-3.0892 -6.9443 -4.7193 0.494 0.191 0.848 211 203 204 0 0
-3.1038 -6.9698 -4.7316 0.850 0.074 0.522 211 205 205 0 0
-3.1037 -6.9996 -4.7309 0.424 -0.456 0.783 210 204 205 0 0
-3.0789 -7.1162 -4.7068 0.804 0.586 -0.105 208 198 197 0 0
-3.0878 -7.2132 -4.7127 0.551 -0.280 0.786 207 197 198 0 0
-3.0894 -7.2446 -4.7135 0.041 0.851 0.524 209 200 198 0 0
-3.0803 -7.2526 -4.7053 0.113 0.719 0.686 210 201 200 0 0
-3.0646 -7.2704 -4.6912 0.275 -0.024 0.961 209 201 199 0 0
-3.0762 -7.3247 -4.7003 0.222 -0.300 0.928 208 199 200 0 0
-3.0523 -7.3961 -4.6779 0.036 0.658 0.752 211 203 202 0 0
-3.0557 -7.4139 -4.6805 -0.026 0.154 0.988 210 201 199 0 0
-3.0799 -7.5703 -4.6987 0.347 0.560 0.753 207 197 196 0 0
-3.0732 -7.5799 -4.6926 0.550 0.748 0.372 208 198 197 0 0
-3.0628 -7.6015 -4.6829 0.765 -0.457 0.453 208 198 197 0 0
-3.0550 -7.6405 -4.6754 0.379 0.876 0.297 212 204 202 0 0
-3.0522 -7.7445 -4.6708 0.151 0.398 0.905 210 202 200 0 0
-3.0377 -7.8232 -4.6565 0.304 0.443 0.843 208 198 197 0 0
-3.0281 -7.8450 -4.6476 0.143 -0.066 0.987 206 196 195 0 0
-3.0258 -7.8582 -4.6453 0.119 -0.087 0.989 206 196 195 0 0
-3.0296 -7.8769 -4.6484 0.163 -0.246 0.955 206 196 196 0 0
-3.0322 -7.8946 -4.6503 0.078 -0.208 0.975 208 198 196 0 0
-3.0411 -7.9179 -4.6576 0.095 -0.202 0.975 208 198 197 0 0
-3.0460 -7.9377 -4.6615 0.214 -0.280 0.936 207 197 196 0 0
-3.0545 -7.9762 -4.6682 0.199 -0.189 0.961 211 205 205 0 0
-3.0585 -7.9952 -4.6713 0.275 0.251 0.928 212 206 207 0 0
-3.0579 -8.0101 -4.6705 0.232 -0.115 0.966 210 203 204 0 0
-3.0099 -8.3185 -4.6222 0.180 -0.155 0.971 206 196 195 0 0
-2.9857 -8.4484 -4.5984 0.628 -0.041 0.777 204 194 193 0 0
-2.9876 -8.4658 -4.5997 0.506 0.067 0.860 205 195 194 0 0
-3.4456 -1.4018 -5.1255 -0.086 -0.272 0.958 208 202 203 0 0
-3.4546 -1.4520 -5.1324 0.185 0.156 0.970 210 205 209 0 0
-3.4524 -1.4659 -5.1301 0.278 0.082 0.957 211 208 213 0 0
-3.4471 -1.4806 -5.1252 0.354 0.109 0.929 211 208 216 0 0
-3.4515 -1.5058 -5.1285 -0.102 -0.036 0.994 211 210 219 0 0
-3.4510 -1.5457 -5.1273 0.294 -0.016 0.956 213 212 218 0 0
-3.4515 -1.5589 -5.1274 0.294 -0.016 0.956 212 209 217 0 0
-3.4539 -1.5715 -5.1293 0.268 -0.088 0.959 212 209 216 0 0
-3.4551 -1.5844 -5.1301 0.268 -0.088 0.959 212 209 215 0 0
-3.4560 -1.5975 -5.1306 0.307 -0.027 0.951 211 208 215 0 0
-3.4596 -1.6099 -5.1335 0.294 -0.049 0.955 211 208 214 0 0
-3.4609 -1.6228 -5.1344 0.291 -0.112 0.950 214 209 215 0 0
-3.4745 -1.6727 -5.1453 0.093 -0.305 0.948 210 206 207 0 0
-3.4759 -1.6858 -5.1463 0.098 -0.238 0.966 212 206 206 0 0
-3.5165 -1.7027 -5.1815 0.835 -0.074 0.545 211 203 201 0 0
-3.5131 -1.7170 -5.1781 0.863 -0.240 0.444 210 200 199 0 0
-3.5177 -1.7294 -5.1819 0.784 -0.340 0.520 208 199 196 0 0
-3.5281 -1.7404 -5.1908 0.191 -0.431 0.882 207 197 195 0 0
-3.5387 -1.7515 -5.1999 0.148 -0.255 0.955 207 198 198 0 0
-3.5380 -1.7652 -5.1990 0.109 -0.522 0.846 209 204 208 0 0
-3.5180 -1.7969 -5.1808 0.326 -0.040 0.945 213 212 222 0 0
-3.5440 -2.0094 -5.1993 0.624 0.289 0.726 217 217 227 0 0
-3.5413 -2.0236 -5.1966 0.513 0.642 0.570 217 217 226 0 0
-3.5464 -2.0364 -5.2009 0.645 0.561 0.519 217 217 225 0 0
-3.5389 -2.0515 -5.1939 0.645 0.561 0.519 217 216 224 0 0
-3.5392 -2.1337 -5.1926 0.310 0.333 0.890 213 208 214 0 0
-3.5342 -2.1483 -5.1879 0.262 0.352 0.899 215 210 216 0 0
-3.5251 -2.1910 -5.1791 0.254 0.189 0.949 214 210 212 0 0
-3.5218 -2.2053 -5.1759 0.313 -0.098 0.945 213 208 211 0 0
-3.5289 -2.2179 -5.1818 0.231 0.167 0.958 210 206 207 0 0
-3.4890 -2.4847 -5.1415 0.198 0.514 0.835 214 212 218 0 0
-3.4819 -2.4993 -5.1350 0.207 0.560 0.803 215 212 218 0 0
-3.4855 -2.7757 -5.1325 0.237 0.459 0.856 213 208 212 0 0
-3.4776 -2.7901 -5.1253 0.291 0.582 0.760 216 210 216 0 0
-3.4755 -2.8180 -5.1229 0.195 0.033 0.980 216 210 214 0 0
-3.4752 -2.8319 -5.1224 0.210 0.012 0.978 215 209 213 0 0
-3.4749 -2.8458 -5.1218 0.257 0.052 0.965 216 210 213 0 0
-3.4763 -2.8597 -5.1228 0.231 0.219 0.948 213 207 210 0 0
-3.4759 -2.8736 -5.1221 0.229 0.012 0.973 212 206 209 0 0
-3.4661 -2.8879 -5.1133 0.138 0.193 0.971 211 205 207 0 0
-3.4662 -2.9018 -5.1131 0.160 0.171 0.972 212 206 208 0 0
-3.4778 -2.9293 -5.1227 0.295 -0.374 0.879 214 208 211 0 0
-3.4787 -2.9432 -5.1232 0.424 -0.380 0.822 215 209 214 0 0
-3.4910 -2.9709 -5.1334 0.635 -0.264 0.726 216 211 217 0 0
-3.5044 -2.9846 -5.1449 0.806 0.183 0.563 216 214 219 0 0
-3.4918 -3.0129 -5.1333 0.763 0.409 0.501 216 213 220 0 0
-3.4867 -3.0270 -5.1285 0.613 0.309 0.727 219 216 222 0 0
-3.4834 -3.0411 -5.1253 0.613 0.309 0.727 218 214 220 0 0
-3.4608 -3.3502 -5.0993 0.549 -0.540 0.638 216 209 215 0 0
-3.4751 -3.4075 -5.1106 0.175 0.120 0.977 215 209 213 0 0
-3.4757 -3.4217 -5.1109 0.262 0.293 0.920 216 209 216 0 0
-3.4782 -3.6068 -5.1093 0.361 -0.282 0.889 218 215 224 0 0
-3.4927 -3.7371 -5.1194 0.237 0.441 0.866 217 210 217 0 0
-3.4913 -3.7657 -5.1175 0.494 0.102 0.864 214 207 213 0 0
-3.4914 -3.8233 -5.1164 0.125 -0.080 0.989 215 207 214 0 0
-3.5005 -3.8822 -5.1232 0.156 0.050 0.986 217 209 216 0 0
-3.5144 -3.8986 -5.1350 0.315 0.359 0.879 218 211 218 0 0
-3.5096 -3.9124 -5.1306 0.273 0.343 0.898 219 213 219 0 0
-3.5051 -3.9262 -5.1264 0.273 0.348 0.897 218 214 221 0 0
-3.4997 -3.9399 -5.1213 0.252 0.519 0.817 218 213 221 0 0
-3.4891 -4.0108 -5.1107 0.500 0.302 0.811 217 214 222 0 0
-3.4859 -4.0247 -5.1075 0.473 0.097 0.876 218 215 223 0 0
-3.4844 -4.0390 -5.1060 0.519 0.196 0.832 219 216 224 0 0
-3.4804 -4.0528 -5.1021 0.555 0.319 0.769 218 215 224 0 0
-3.4250 -4.1730 -5.0513 0.347 0.278 0.896 217 215 226 0 0
-3.4241 -4.1872 -5.0502 0.309 0.487 0.817 217 215 226 0 0
-3.3954 -4.2967 -5.0228 0.606 0.406 0.684 222 216 223 0 0
-3.3674 -4.4343 -4.9955 0.309 -0.305 0.901 219 210 213 0 0
-3.3614 -4.4904 -4.9892 0.087 0.436 0.896 213 203 207 0 0
-3.3544 -4.5607 -4.9816 0.077 0.017 0.997 217 212 216 0 0
-3.3391 -4.6143 -4.9672 0.033 0.516 0.856 214 207 213 0 0
-3.3311 -4.6265 -4.9599 0.030 0.447 0.894 214 206 213 0 0
-3.3108 -4.6784 -4.9411 0.194 0.274 0.942 213 207 212 0 0
-3.3113 -4.6929 -4.9412 0.174 0.021 0.984 213 207 212 0 0
-3.3184 -4.7525 -4.9463 0.234 0.001 0.972 216 211 218 0 0
-3.3015 -4.7907 -4.9307 0.523 -0.078 0.849 219 215 222 0 0
-3.3088 -4.8073 -4.9367 0.400 -0.172 0.900 219 217 223 0 0
-3.3112 -4.8225 -4.9385 0.400 -0.172 0.900 219 216 223 0 0
-3.3124 -4.8373 -4.9392 0.632 -0.275 0.725 217 214 223 0 0
-3.3109 -4.8513 -4.9376 0.675 -0.498 0.544 214 211 220 0 0
-3.3042 -4.9793 -4.9292 0.017 0.537 0.843 215 209 213 0 0
-3.3018 -5.1237 -4.9242 0.296 -0.581 0.758 217 210 217 0 0
-3.3096 -5.1411 -4.9306 0.268 -0.450 0.851 217 212 218 0 0
-3.3160 -5.1727 -4.9357 0.195 -0.064 0.979 219 215 222 0 0
-3.2510 -5.4387 -4.8733 0.842 0.301 0.449 216 210 213 0 0
-3.2653 -5.4594 -4.8854 0.393 -0.044 0.919 215 209 213 0 0
-3.2588 -5.4713 -4.8795 0.304 -0.351 0.886 213 208 212 0 0
-3.2638 -5.4880 -4.8835 0.260 -0.361 0.896 214 208 213 0 0
-3.2578 -5.5001 -4.8780 0.186 -0.150 0.971 215 209 214 0 0
-3.2643 -5.5469 -4.8828 0.351 0.022 0.936 214 208 210 0 0
-3.2660 -5.5623 -4.8840 0.099 0.086 0.991 213 204 207 0 0
-3.2209 -5.6150 -4.8434 0.037 0.120 0.992 212 202 201 0 0
-3.2655 -5.6797 -4.8812 0.223 -0.136 0.965 211 200 200 0 0
-3.2678 -5.6956 -4.8829 0.223 -0.136 0.965 210 200 199 0 0
-3.2588 -5.7503 -4.8739 0.133 0.005 0.991 211 205 210 0 0
-3.2648 -5.7679 -4.8788 0.133 0.094 0.987 212 209 218 0 0
-3.2331 -5.8999 -4.8484 0.260 -0.057 0.964 214 209 215 0 0
-3.2298 -5.9129 -4.8452 0.208 0.262 0.942 214 208 215 0 0
-3.2129 -6.0517 -4.8276 0.172 0.373 0.912 213 207 209 0 0
-3.2092 -6.1089 -4.8231 0.135 -0.022 0.991 211 205 207 0 0
-3.2089 -6.1235 -4.8226 0.083 0.121 0.989 212 206 208 0 0
-3.2091 -6.1384 -4.8225 0.024 -0.013 1.000 212 206 208 0 0
-3.2102 -6.1539 -4.8232 -0.033 0.053 0.998 212 206 208 0 0
-3.2059 -6.1960 -4.8185 -0.015 0.177 0.984 208 202 204 0 0
-3.2052 -6.2549 -4.8167 0.282 0.370 0.885 211 207 208 0 0
-3.2041 -6.2841 -4.8152 0.387 0.703 0.597 213 208 214 0 0
-3.1902 -6.4844 -4.7989 0.279 0.184 0.943 211 206 208 0 0
-3.1520 -6.5200 -4.7648 -0.051 0.699 0.714 212 206 208 0 0
-3.1528 -6.5353 -4.7651 0.295 -0.119 0.948 212 204 206 0 0
-3.1641 -6.7070 -4.7716 0.521 0.647 0.557 215 209 213 0 0
-3.1428 -6.7675 -4.7517 0.566 0.713 0.414 212 206 208 0 0
-3.1504 -6.8026 -4.7576 0.538 0.508 0.673 211 203 203 0 0
-3.1346 -6.8517 -4.7428 0.048 -0.090 0.995 210 204 204 0 0
-3.1178 -6.9297 -4.7266 0.197 0.497 0.845 211 203 205 0 0
-3.1110 -6.9698 -4.7198 0.850 0.074 0.522 212 207 207 0 0
-3.0800 -7.1117 -4.6897 0.822 0.563 -0.080 206 196 195 0 0
-3.1095 -7.1490 -4.7149 0.310 0.393 0.866 207 197 195 0 0
-3.1064 -7.1618 -4.7119 0.034 0.463 0.885 206 196 196 0 0
-3.0917 -7.1656 -4.6989 0.421 -0.045 0.906 206 196 195 0 0
-3.0925 -7.1813 -4.6993 0.421 -0.045 0.906 205 195 194 0 0
-3.1003 -7.2174 -4.7054 0.551 -0.280 0.786 206 196 196 0 0
-3.1085 -7.2388 -4.7121 0.142 0.413 0.900 208 200 198 0 0
-3.0955 -7.2589 -4.7004 0.185 0.608 0.772 210 202 201 0 0
-3.0806 -7.2774 -4.6870 0.183 -0.170 0.968 210 201 201 0 0
-3.0850 -7.2960 -4.6904 0.241 -0.226 0.944 209 201 200 0 0
-3.0892 -7.3144 -4.6938 0.241 -0.226 0.944 209 201 200 0 0
-3.0905 -7.3305 -4.6946 0.459 -0.312 0.832 209 200 202 0 0
-3.0941 -7.3485 -4.6973 0.436 -0.116 0.892 209 201 200 0 0
-3.0984 -7.3670 -4.7007 0.312 -0.044 0.949 210 201 202 0 0
-3.0842 -7.5072 -4.6854 -0.045 -0.330 0.943 207 198 197 0 0
-3.1020 -7.5524 -4.7001 0.210 -0.217 0.953 207 198 196 0 0
-3.1065 -7.5714 -4.7036 0.273 -0.261 0.926 207 197 196 0 0
-3.1115 -7.5909 -4.7077 0.303 -0.292 0.907 209 199 198 0 0
-3.0892 -7.5874 -4.6882 0.068 0.535 0.842 209 201 199 0 0
-3.0881 -7.6170 -4.6866 0.473 0.319 0.821 209 201 199 0 0
-3.0510 -7.8594 -4.6492 0.012 0.043 0.999 206 196 194 0 0
-3.0461 -7.8703 -4.6448 -0.029 0.073 0.997 206 196 194 0 0
-3.0505 -7.8895 -4.6482 0.100 -0.329 0.939 206 196 195 0 0
-3.0587 -7.9122 -4.6549 0.075 -0.212 0.974 209 199 198 0 0
-3.0612 -7.9298 -4.6567 0.147 -0.289 0.946 211 202 201 0 0
-3.0675 -7.9510 -4.6618 0.095 -0.202 0.975 209 200 199 0 0
-3.0760 -7.9895 -4.6684 0.286 -0.310 0.906 208 201 202 0 0
-3.0693 -7.9987 -4.6624 0.461 0.243 0.853 212 206 208 0 0
-3.0719 -8.0166 -4.6644 0.547 -0.202 0.812 211 205 206 0 0
-3.0739 -8.0339 -4.6658 0.895 -0.269 0.355 209 203 203 0 0
-3.0332 -8.3656 -4.6234 0.274 -0.139 0.952 205 194 191 0 0
-3.0091 -8.4343 -4.6009 0.243 0.936 0.257 203 193 192 0 0
-3.0078 -8.4484 -4.5995 0.604 0.439 0.665 204 194 193 0 0
-3.0083 -8.4644 -4.5996 0.528 -0.313 0.789 204 194 193 0 0
-3.0010 -8.4725 -4.5931 0.628 -0.087 0.773 205 195 193 0 0
-3.0008 -8.5187 -4.5920 -0.023 0.459 0.888 205 195 193 0 0
-2.9882 -8.5366 -4.5806 0.074 0.357 0.931 208 200 198 0 0
-2.9858 -8.5496 -4.5782 0.175 0.306 0.936 208 199 196 0 0
-2.9792 -8.5582 -4.5723 0.011 0.268 0.963 206 197 196 0 0
-3.4671 -1.3568 -5.1277 -0.039 -0.646 0.762 207 199 202 0 0
-3.4791 -1.3664 -5.1379 -0.001 -0.695 0.719 205 197 198 0 0
-3.4764 -1.4202 -5.1345 -0.113 -0.183 0.977 212 207 210 0 0
-3.4726 -1.5673 -5.1282 0.281 -0.166 0.945 213 210 216 0 0
-3.4720 -1.5808 -5.1273 0.239 -0.011 0.971 212 210 216 0 0
-3.4714 -1.5943 -5.1265 0.257 -0.106 0.961 212 210 216 0 0
-3.4743 -1.6068 -5.1288 0.294 -0.049 0.955 212 208 214 0 0
-3.4760 -1.6197 -5.1300 0.234 -0.092 0.968 210 206 211 0 0
-3.4886 -1.6566 -5.1402 0.077 -0.315 0.946 211 205 206 0 0
-3.4904 -1.6696 -5.1415 0.031 -0.261 0.965 210 204 203 0 0
-3.4951 -1.6818 -5.1454 0.104 -0.271 0.957 212 205 204 0 0
-3.5338 -1.7127 -5.1785 0.215 -0.500 0.839 212 203 201 0 0
-3.5473 -1.7230 -5.1900 0.078 -0.185 0.980 211 202 199 0 0
-3.5614 -2.0065 -5.1965 0.655 -0.258 0.710 217 219 231 0 0
-3.5597 -2.0206 -5.1947 0.582 0.437 0.685 215 215 226 0 0
-3.5556 -2.0351 -5.1909 0.645 0.561 0.519 217 216 224 0 0
-3.5481 -2.0502 -5.1840 0.643 0.489 0.589 217 215 222 0 0
-3.5597 -2.0893 -5.1933 0.244 0.032 0.969 215 210 216 0 0
-3.5455 -2.1467 -5.1798 0.332 0.607 0.722 213 208 214 0 0
-3.5476 -2.1601 -5.1813 0.226 0.195 0.954 214 209 214 0 0
-3.5428 -2.1747 -5.1768 0.227 0.305 0.925 214 209 213 0 0
-3.5178 -2.4263 -5.1498 0.264 0.007 0.965 217 214 221 0 0
-3.5060 -2.7463 -5.1330 0.259 0.165 0.952 212 206 210 0 0
-3.5037 -2.7604 -5.1306 0.277 0.344 0.897 210 204 207 0 0
-3.4993 -2.7746 -5.1265 0.181 0.445 0.877 211 205 207 0 0
-3.4929 -2.7888 -5.1207 0.257 0.493 0.831 214 208 212 0 0
-3.4927 -2.8167 -5.1199 0.167 0.008 0.986 217 211 215 0 0
-3.4930 -2.8445 -5.1196 0.156 0.010 0.988 219 213 217 0 0
-3.4909 -2.8586 -5.1175 0.147 0.084 0.986 216 210 214 0 0
-3.4919 -2.8725 -5.1181 0.182 0.103 0.978 212 206 210 0 0
-3.4907 -2.8865 -5.1168 0.182 0.103 0.978 211 205 207 0 0
-3.4947 -2.9003 -5.1200 0.223 0.099 0.970 211 205 207 0 0
-3.5030 -2.9420 -5.1263 0.772 -0.110 0.625 215 209 213 0 0
-3.5043 -2.9560 -5.1272 0.772 -0.110 0.625 216 210 215 0 0
-3.5101 -2.9699 -5.1319 0.870 0.101 0.483 217 212 218 0 0
-3.5124 -2.9839 -5.1337 0.806 0.183 0.563 218 213 219 0 0
-3.5012 -3.0122 -5.1233 0.642 0.406 0.650 216 213 219 0 0
-3.5081 -3.1106 -5.1273 0.623 0.172 0.763 215 208 213 0 0
-3.5064 -3.1247 -5.1256 0.623 0.172 0.763 213 207 211 0 0
-3.5198 -3.2948 -5.1338 0.290 0.231 0.929 214 208 215 0 0
-3.4710 -3.3496 -5.0900 0.549 -0.540 0.638 217 211 217 0 0
-3.4790 -3.3641 -5.0967 0.605 -0.422 0.675 217 210 217 0 0
-3.4904 -3.3788 -5.1063 0.140 0.057 0.988 217 210 217 0 0
-3.4937 -3.3932 -5.1090 0.372 -0.403 0.836 216 209 214 0 0
-3.4915 -3.4215 -5.1065 0.262 0.293 0.920 215 209 213 0 0
-3.4918 -3.4357 -5.1064 0.113 0.430 0.896 216 210 214 0 0
-3.4841 -3.4494 -5.0994 0.202 0.330 0.922 217 211 215 0 0
-3.4937 -3.6069 -5.1046 0.375 -0.361 0.854 219 216 224 0 0
-3.5079 -3.7662 -5.1137 0.331 0.195 0.923 215 208 215 0 0
-3.5183 -3.8830 -5.1203 0.156 0.050 0.986 215 209 213 0 0
-3.5179 -3.8974 -5.1196 0.186 0.033 0.982 215 209 213 0 0
-3.5255 -3.9130 -5.1259 0.242 0.286 0.927 215 209 215 0 0
-3.5206 -3.9413 -5.1211 0.224 0.092 0.970 217 214 221 0 0
-3.4388 -4.1881 -5.0448 0.209 0.393 0.896 220 217 226 0 0
-3.3632 -4.6184 -4.9699 -0.063 0.020 0.998 217 207 208 0 0
-3.3277 -4.6951 -4.9374 0.285 -0.052 0.957 214 207 214 0 0
-3.3208 -4.8084 -4.9291 0.426 -0.167 0.889 218 215 222 0 0
-3.3298 -4.8256 -4.9366 0.185 -0.202 0.962 218 215 222 0 0
-3.3270 -4.8392 -4.9338 0.404 -0.106 0.909 217 213 223 0 0
-3.3203 -4.8516 -4.9277 0.675 -0.437 0.594 216 213 222 0 0
-3.3557 -4.8772 -4.9581 0.182 0.217 0.959 213 210 220 0 0
-3.3347 -4.9577 -4.9381 0.217 0.545 0.810 213 207 211 0 0
-3.3221 -4.9825 -4.9266 0.119 0.499 0.858 214 208 210 0 0
-3.3129 -4.9939 -4.9184 0.056 -0.184 0.981 214 208 212 0 0
-3.3219 -5.0989 -4.9241 0.147 0.026 0.989 217 212 216 0 0
-3.3250 -5.1146 -4.9264 0.171 -0.026 0.985 217 212 218 0 0
-3.3120 -5.1245 -4.9149 0.540 -0.352 0.764 217 210 216 0 0
-3.3171 -5.1409 -4.9190 0.456 -0.235 0.859 217 212 216 0 0
-3.3230 -5.1576 -4.9238 0.564 -0.331 0.756 218 213 218 0 0
-3.3311 -5.1753 -4.9305 0.309 -0.125 0.943 218 214 220 0 0
-3.3336 -5.1909 -4.9324 0.277 0.073 0.958 217 213 219 0 0
-3.3329 -5.2052 -4.9314 0.237 0.213 0.948 215 211 218 0 0
-3.2577 -5.4674 -4.8605 0.212 -0.013 0.977 212 205 207 0 0
-3.2535 -5.4802 -4.8565 0.133 0.080 0.988 212 204 207 0 0
-3.2510 -5.5229 -4.8535 0.046 0.126 0.991 215 209 211 0 0
-3.2683 -5.6627 -4.8658 0.139 -0.197 0.971 213 201 199 0 0
-3.2733 -5.6797 -4.8697 0.215 -0.363 0.907 212 201 198 0 0
-3.2799 -5.6976 -4.8751 0.172 -0.285 0.943 212 201 199 0 0
-3.2818 -5.7724 -4.8752 0.146 0.387 0.911 213 209 217 0 0
-3.2786 -5.7857 -4.8722 0.249 0.389 0.887 214 212 222 0 0
-3.2688 -5.8401 -4.8625 0.235 0.481 0.844 213 210 220 0 0
-3.2612 -5.8659 -4.8554 -0.138 0.729 0.670 209 206 211 0 0
-3.2449 -5.9168 -4.8401 0.253 0.126 0.959 215 210 214 0 0
-3.2455 -5.9467 -4.8400 0.393 -0.091 0.915 214 208 212 0 0
-3.2380 -5.9724 -4.8330 0.355 -0.327 0.876 212 206 210 0 0
-3.2237 -6.1276 -4.8173 0.019 0.206 0.978 212 204 207 0 0
-3.2200 -6.1997 -4.8126 0.204 -0.081 0.976 208 201 204 0 0
-3.2149 -6.2414 -4.8073 0.085 0.258 0.963 210 203 205 0 0
-3.2154 -6.2566 -4.8074 0.425 0.253 0.869 212 208 209 0 0
-3.2129 -6.2700 -4.8049 0.384 0.298 0.874 213 208 212 0 0
-3.2044 -6.2948 -4.7970 0.209 0.316 0.926 211 206 210 0 0
-3.1989 -6.3510 -4.7911 0.535 0.068 0.842 214 209 214 0 0
-3.1921 -6.3767 -4.7846 0.540 -0.377 0.753 214 209 215 0 0
-3.1681 -6.5404 -4.7603 0.344 -0.190 0.920 212 204 206 0 0
-3.1670 -6.5546 -4.7590 0.101 -0.002 0.995 209 201 204 0 0
-3.1614 -6.8353 -4.7484 -0.038 0.331 0.943 208 200 199 0 0
-3.1331 -6.9355 -4.7216 0.043 0.524 0.851 212 206 206 0 0
-3.1214 -6.9421 -4.7113 0.305 0.227 0.925 213 207 207 0 0
-3.1266 -6.9609 -4.7155 0.080 -0.118 0.990 212 206 206 0 0
-3.1339 -6.9812 -4.7214 0.228 -0.185 0.956 213 207 207 0 0
-3.1579 -7.0438 -4.7410 -0.003 -0.234 0.972 211 205 205 0 0
-3.1297 -7.1589 -4.7141 0.046 0.148 0.988 206 196 195 0 0
-3.1141 -7.1622 -4.7004 0.001 0.587 0.809 206 196 195 0 0
-3.1182 -7.1803 -4.7036 0.059 -0.067 0.996 206 196 195 0 0
-3.1068 -7.1867 -4.6935 0.309 -0.001 0.951 206 196 194 0 0
-3.1147 -7.2079 -4.7000 0.124 -0.059 0.990 206 196 195 0 0
-3.1194 -7.2266 -4.7037 0.056 -0.056 0.997 206 196 196 0 0
-3.1089 -7.2639 -4.6938 -0.155 0.488 0.859 210 201 199 0 0
-3.1007 -7.2725 -4.6865 0.075 -0.194 0.978 211 202 201 0 0
-3.1062 -7.3071 -4.6906 0.130 -0.088 0.988 209 201 199 0 0
-3.1080 -7.3236 -4.6918 0.130 -0.088 0.988 208 201 199 0 0
-3.1081 -7.3388 -4.6916 0.370 -0.010 0.929 209 200 201 0 0
-3.1077 -7.3537 -4.6909 0.573 0.046 0.818 210 201 202 0 0
-3.0811 -7.4080 -4.6666 -0.004 0.156 0.988 211 203 201 0 0
-3.0961 -7.4505 -4.6788 0.103 -0.206 0.973 209 200 199 0 0
-3.1003 -7.4691 -4.6821 0.121 -0.230 0.966 211 203 201 0 0
-3.1064 -7.5045 -4.6867 0.046 -0.231 0.972 208 198 197 0 0
-3.1138 -7.5258 -4.6927 -0.050 -0.328 0.943 207 198 196 0 0
-3.1235 -7.5491 -4.7007 -0.001 -0.252 0.968 208 198 197 0 0
-3.1240 -7.5648 -4.7007 0.189 -0.383 0.904 208 198 197 0 0
-3.1275 -7.5831 -4.7035 0.120 -0.276 0.954 209 199 198 0 0
-3.1358 -7.6054 -4.7103 0.127 -0.267 0.955 209 200 199 0 0
-3.0885 -7.6419 -4.6683 0.533 0.548 0.645 211 203 201 0 0
-3.0748 -7.7979 -4.6531 0.163 0.266 0.950 205 195 193 0 0
-3.0912 -7.8431 -4.6664 0.158 -0.283 0.946 206 196 191 0 0
-3.0894 -7.9492 -4.6627 -0.070 -0.082 0.994 210 202 201 0 0
-3.0810 -7.9569 -4.6552 0.113 -0.132 0.985 210 202 200 0 0
-3.0870 -7.9778 -4.6600 0.183 -0.268 0.946 208 200 199 0 0
-3.0946 -8.0002 -4.6662 0.286 -0.310 0.906 207 198 199 0 0
-3.0814 -8.0034 -4.6546 0.461 0.243 0.853 210 202 204 0 0
-3.0834 -8.0208 -4.6560 0.671 -0.015 0.742 210 204 204 0 0
-3.0352 -8.3143 -4.6079 0.132 0.067 0.989 207 198 196 0 0
-3.0359 -8.3459 -4.6078 0.032 0.108 0.994 206 197 194 0 0
-3.0504 -8.3759 -4.6199 0.274 -0.139 0.952 207 195 193 0 0
-3.0523 -8.3933 -4.6212 0.067 -0.227 0.972 205 195 191 0 0
-3.0172 -8.4509 -4.5894 0.604 0.439 0.665 204 194 193 0 0
-3.0220 -8.4714 -4.5932 0.528 -0.313 0.789 205 195 194 0 0
-3.0160 -8.4807 -4.5878 0.590 -0.259 0.765 206 196 194 0 0
-3.4826 -1.3400 -5.1240 0.905 -0.185 0.383 206 200 201 0 0
-3.4895 -1.3643 -5.1294 0.910 -0.408 0.074 206 197 198 0 0
-3.4881 -1.3912 -5.1277 0.948 -0.290 -0.130 209 203 206 0 0
-3.4940 -1.4027 -5.1326 0.934 -0.352 -0.064 211 208 213 0 0
-3.4873 -1.5643 -5.1233 0.157 -0.247 0.956 214 211 218 0 0
-3.4843 -1.5784 -5.1205 0.245 -0.124 0.962 213 210 217 0 0
-3.4866 -1.5911 -5.1222 0.257 -0.106 0.961 213 211 216 0 0
-3.4878 -1.6042 -5.1230 0.273 -0.073 0.959 214 210 216 0 0
-3.4934 -1.6161 -5.1276 0.200 -0.040 0.979 212 207 212 0 0
-3.4948 -1.6291 -5.1285 0.166 -0.209 0.964 209 204 206 0 0
-3.4977 -1.6417 -5.1308 0.166 -0.209 0.964 209 203 204 0 0
-3.5066 -1.6528 -5.1383 0.131 -0.403 0.906 209 201 202 0 0
-3.5063 -1.6664 -5.1377 0.036 -0.380 0.925 210 200 200 0 0
-3.5105 -1.6787 -5.1411 0.017 -0.367 0.930 209 200 198 0 0
-3.5166 -1.6907 -5.1461 0.047 -0.407 0.912 211 202 200 0 0
-3.5221 -1.7028 -5.1507 0.048 -0.347 0.937 213 205 202 0 0
-3.5712 -2.0051 -5.1870 0.655 -0.258 0.710 218 221 232 0 0
-3.5689 -2.0193 -5.1848 0.687 0.367 0.627 217 216 225 0 0
-3.5870 -2.0848 -5.1991 0.054 0.176 0.983 214 209 215 0 0
-3.5869 -2.0987 -5.1987 0.087 0.470 0.878 214 209 213 0 0
-3.5676 -2.1433 -5.1810 0.253 0.584 0.771 214 209 214 0 0
-3.5300 -2.4248 -5.1425 0.353 -0.053 0.934 215 212 219 0 0
-3.5261 -2.7168 -5.1330 0.201 -0.119 0.972 219 214 220 0 0
-3.5208 -2.7590 -5.1275 0.351 0.144 0.925 215 209 215 0 0
-3.5393 -2.9404 -5.1398 0.723 0.376 0.580 214 207 210 0 0
-3.5329 -2.9547 -5.1339 0.728 0.376 0.574 215 209 213 0 0
-3.5342 -2.9687 -5.1347 0.634 0.572 0.520 216 211 217 0 0
-3.5185 -3.1099 -5.1182 0.496 -0.094 0.863 216 210 214 0 0
-3.5179 -3.1240 -5.1173 0.783 -0.086 0.617 214 208 212 0 0
-3.5169 -3.1381 -5.1162 0.719 0.108 0.687 212 206 210 0 0
-3.5285 -3.2942 -5.1230 0.391 -0.006 0.920 215 211 218 0 0
-3.5330 -3.3228 -5.1263 0.448 -0.098 0.889 216 209 217 0 0
-3.5200 -3.3365 -5.1147 0.469 0.401 0.787 218 212 218 0 0
-3.5163 -3.3506 -5.1112 0.500 0.479 0.722 218 213 219 0 0
-3.5085 -3.3787 -5.1039 0.172 0.103 0.980 217 210 217 0 0
-3.5068 -3.3928 -5.1021 0.184 0.071 0.980 216 210 215 0 0
-3.5057 -3.4069 -5.1009 0.183 0.278 0.943 216 210 214 0 0
-3.5004 -3.5776 -5.0927 0.134 -0.009 0.991 217 211 215 0 0
-3.5059 -3.5923 -5.0972 0.261 -0.260 0.930 218 212 218 0 0
-3.5328 -3.8254 -5.1157 0.134 0.062 0.989 213 206 213 0 0
-3.5359 -3.8403 -5.1180 0.072 -0.058 0.996 214 207 213 0 0
-3.5362 -3.8548 -5.1180 0.086 -0.084 0.993 215 209 214 0 0
-3.3710 -4.5748 -4.9595 0.367 -0.250 0.896 219 211 216 0 0
-3.3455 -4.7265 -4.9341 0.140 0.247 0.959 214 208 212 0 0
-3.3492 -4.7421 -4.9370 0.137 0.098 0.986 214 208 213 0 0
-3.3461 -4.7556 -4.9341 0.085 0.315 0.945 215 208 215 0 0
-3.3433 -4.7693 -4.9313 0.269 0.135 0.954 217 210 217 0 0
-3.3558 -4.8020 -4.9415 0.353 -0.397 0.847 218 213 219 0 0
-3.3409 -4.8119 -4.9283 0.349 -0.159 0.923 218 213 220 0 0
-3.3409 -4.8409 -4.9278 0.404 -0.106 0.909 216 211 218 0 0
-3.3536 -4.9321 -4.9369 0.377 0.219 0.900 217 211 217 0 0
-3.3319 -4.9831 -4.9170 0.196 0.506 0.840 216 207 210 0 0
-3.3378 -5.0142 -4.9215 0.249 -0.359 0.899 214 208 211 0 0
-3.3349 -5.1152 -4.9168 0.094 0.283 0.954 216 210 215 0 0
-3.3226 -5.1253 -4.9059 0.325 -0.246 0.913 216 210 214 0 0
-3.3442 -5.1625 -4.9239 0.322 -0.166 0.932 217 212 216 0 0
-3.3413 -5.1760 -4.9211 0.309 -0.123 0.943 216 210 215 0 0
-3.3433 -5.1914 -4.9225 0.407 -0.183 0.895 215 209 213 0 0
-3.3487 -5.2081 -4.9269 0.237 0.213 0.948 215 208 212 0 0
-3.3297 -5.3182 -4.9080 0.150 0.425 0.893 215 206 207 0 0
-3.2764 -5.4428 -4.8592 0.127 0.274 0.953 214 208 210 0 0
-3.2716 -5.4847 -4.8542 0.057 0.042 0.998 211 202 205 0 0
-3.2698 -5.5131 -4.8520 0.030 0.135 0.990 213 207 209 0 0
-3.2694 -5.5276 -4.8513 0.025 0.116 0.993 214 208 209 0 0
-3.2612 -5.6265 -4.8421 -0.068 0.157 0.985 214 204 202 0 0
-3.2972 -5.7021 -4.8718 -0.041 -0.163 0.986 214 203 199 0 0
-3.2967 -5.7907 -4.8695 0.203 0.298 0.933 213 210 219 0 0
-3.2913 -5.8177 -4.8643 0.667 -0.229 0.709 214 210 220 0 0
-3.2708 -5.8669 -4.8455 -0.046 0.853 0.519 211 206 210 0 0
-3.2522 -5.9314 -4.8279 0.192 0.271 0.943 216 210 213 0 0
-3.2692 -5.9550 -4.8423 0.690 0.040 0.723 216 210 213 0 0
-3.2549 -6.0663 -4.8275 0.460 0.231 0.857 212 206 207 0 0
-3.2425 -6.1041 -4.8159 0.290 0.014 0.957 211 205 207 0 0
-3.2499 -6.1230 -4.8220 0.348 -0.240 0.906 211 205 207 0 0
-3.2321 -6.2470 -4.8039 0.181 0.413 0.892 209 205 206 0 0
-3.2298 -6.2606 -4.8017 0.484 0.295 0.824 212 208 209 0 0
-3.2225 -6.2861 -4.7948 0.209 0.457 0.864 215 210 213 0 0
-3.2178 -6.4774 -4.7867 0.608 0.286 0.741 215 210 215 0 0
-3.2145 -6.4903 -4.7835 0.716 -0.040 0.697 213 207 210 0 0
-3.2016 -6.5272 -4.7715 0.368 0.891 0.266 210 204 206 0 0
-3.1891 -6.5343 -4.7606 0.203 0.748 0.632 211 205 207 0 0
-3.1865 -6.5475 -4.7580 0.428 -0.538 0.726 209 203 205 0 0
-3.1911 -6.5654 -4.7616 0.354 -0.142 0.924 209 202 205 0 0
-3.1762 -6.7053 -4.7457 0.840 0.329 0.432 210 204 206 0 0
-3.1753 -6.7198 -4.7447 0.932 0.012 0.363 211 204 205 0 0
-3.1921 -6.7460 -4.7587 0.686 -0.523 0.506 211 203 204 0 0
-3.1809 -6.7535 -4.7488 0.139 0.110 0.984 212 203 202 0 0
-3.1450 -6.9389 -4.7138 -0.034 0.523 0.852 213 207 207 0 0
-3.1546 -7.0211 -4.7204 0.164 -0.086 0.983 213 205 206 0 0
-3.1433 -7.0280 -4.7105 0.208 -0.445 0.871 212 203 205 0 0
-3.1641 -7.1643 -4.7257 -0.035 0.390 0.920 207 197 196 0 0
-3.1410 -7.1620 -4.7056 0.009 0.291 0.957 207 197 196 0 0
-3.1252 -7.1652 -4.6919 0.050 0.406 0.912 207 197 196 0 0
-3.1232 -7.2997 -4.6873 0.069 -0.295 0.953 209 200 200 0 0
-3.1189 -7.3418 -4.6827 -0.049 0.317 0.947 208 199 199 0 0
-3.1156 -7.3543 -4.6795 -0.093 0.382 0.919 209 201 201 0 0
-3.1283 -7.3796 -4.6901 -0.105 0.639 0.762 209 202 202 0 0
-3.1040 -7.4057 -4.6685 0.084 0.077 0.993 210 202 201 0 0
-3.1036 -7.4205 -4.6678 0.048 0.054 0.997 210 202 200 0 0
-3.1211 -7.4803 -4.6817 0.082 -0.094 0.992 208 199 198 0 0
-3.1215 -7.5111 -4.6815 0.160 -0.222 0.962 210 200 199 0 0
-3.1358 -7.5382 -4.6933 0.108 -0.248 0.963 207 197 196 0 0
-3.1415 -7.5582 -4.6978 0.108 -0.248 0.963 208 199 197 0 0
-3.1472 -7.5782 -4.7024 0.108 -0.248 0.963 208 200 199 0 0
-3.1389 -7.5866 -4.6949 0.294 -0.146 0.944 209 201 201 0 0
-3.1368 -7.6002 -4.6929 -0.018 0.124 0.992 210 201 200 0 0
-3.0982 -7.6441 -4.6584 0.533 0.548 0.645 210 201 199 0 0
-3.1063 -7.7275 -4.6637 0.110 0.262 0.959 208 198 197 0 0
-3.0923 -7.7919 -4.6502 0.392 0.023 0.920 206 195 193 0 0
-3.0897 -7.8049 -4.6477 0.220 0.150 0.964 206 195 191 0 0
-3.1042 -7.9871 -4.6565 0.428 -0.320 0.845 208 200 199 0 0
-3.0456 -8.2868 -4.5993 0.142 0.111 0.984 207 198 197 0 0
-3.0505 -8.3536 -4.6022 0.109 -0.104 0.989 208 199 197 0 0
-3.0606 -8.3791 -4.6104 0.210 -0.210 0.955 208 198 197 0 0
-3.0738 -8.4079 -4.6213 0.130 -0.294 0.947 208 198 196 0 0
-3.0447 -8.4875 -4.5944 0.375 -0.266 0.888 207 197 196 0 0
-3.0149 -8.5966 -4.5662 -0.060 0.084 0.995 205 195 193 0 0
-3.4922 -1.3249 -5.1151 0.816 0.221 0.534 208 201 201 0 0
-3.4911 -1.3650 -5.1132 0.910 -0.408 0.074 207 200 200 0 0
-3.5010 -1.4150 -5.1208 0.892 -0.371 0.259 212 212 222 0 0
-3.5032 -1.4277 -5.1224 0.838 -0.296 0.458 215 215 225 0 0
-3.5105 -1.4388 -5.1285 0.700 -0.375 0.608 217 217 227 0 0
-3.4979 -1.5223 -5.1158 0.176 0.011 0.984 213 212 218 0 0
-3.5011 -1.5615 -5.1178 0.176 -0.206 0.963 213 211 217 0 0
-3.4987 -1.5755 -5.1154 0.221 -0.156 0.963 213 211 216 0 0
-3.5018 -1.5880 -5.1178 0.257 -0.106 0.961 212 210 215 0 0
-3.5033 -1.6010 -5.1188 0.257 -0.106 0.961 212 209 215 0 0
-3.5104 -1.6259 -5.1245 0.121 -0.159 0.980 210 204 206 0 0
-3.5448 -1.6305 -5.1541 0.067 -0.542 0.838 209 200 200 0 0
-3.5337 -1.6738 -5.1435 0.591 -0.178 0.787 207 197 195 0 0
-3.5368 -1.6865 -5.1460 0.662 -0.249 0.707 208 198 196 0 0
-3.5557 -1.6954 -5.1622 0.183 0.031 0.983 211 201 199 0 0
-3.5562 -1.7088 -5.1623 0.196 0.161 0.967 212 204 200 0 0
-3.5804 -1.9352 -5.1785 0.533 -0.242 0.811 217 217 228 0 0
-3.5793 -1.9903 -5.1764 0.709 -0.178 0.683 216 218 230 0 0
-3.5875 -2.0024 -5.1832 0.546 -0.399 0.736 216 215 226 0 0
-3.5924 -2.0153 -5.1871 0.390 -0.076 0.918 214 212 219 0 0
-3.6045 -2.0406 -5.1971 0.080 0.140 0.987 213 207 213 0 0
-3.5765 -2.2250 -5.1689 0.449 -0.160 0.879 214 209 212 0 0
-3.5807 -2.2383 -5.1723 0.538 0.036 0.842 213 208 211 0 0
-3.5776 -2.2526 -5.1693 0.491 -0.082 0.868 213 208 213 0 0
-3.5783 -2.2663 -5.1696 0.475 -0.351 0.807 213 208 213 0 0
-3.5469 -2.9255 -5.1285 0.012 -0.016 1.000 214 205 207 0 0
-3.5299 -3.1091 -5.1099 0.623 0.172 0.763 216 210 214 0 0
-3.5263 -3.1232 -5.1065 0.783 -0.086 0.617 216 210 214 0 0
-3.5287 -3.1374 -5.1083 0.536 0.338 0.773 215 208 213 0 0
-3.5297 -3.1515 -5.1088 0.343 0.173 0.923 214 208 212 0 0
-3.5270 -3.1656 -5.1061 0.334 0.058 0.941 214 208 212 0 0
-3.5265 -3.1798 -5.1054 0.334 0.058 0.941 214 208 212 0 0
-3.5340 -3.1940 -5.1117 0.414 -0.330 0.848 216 209 213 0 0
-3.5298 -3.2081 -5.1077 0.261 -0.133 0.956 217 210 216 0 0
-3.5450 -3.2368 -5.1202 0.706 -0.008 0.708 215 210 217 0 0
-3.5478 -3.2654 -5.1221 0.789 -0.227 0.571 218 216 228 0 0
-3.5466 -3.2938 -5.1205 0.519 0.079 0.851 216 213 221 0 0
-3.5470 -3.3224 -5.1202 0.444 -0.048 0.895 217 212 218 0 0
-3.5265 -3.3785 -5.1012 0.229 0.158 0.961 217 209 217 0 0
-3.5246 -3.3926 -5.0993 0.229 0.158 0.961 217 210 216 0 0
-3.5259 -3.4355 -5.0996 0.268 0.393 0.879 216 209 213 0 0
-3.5143 -3.4490 -5.0892 0.203 -0.096 0.974 217 211 214 0 0
-3.5469 -3.6377 -5.1134 0.366 -0.168 0.916 219 215 223 0 0
-3.5372 -3.6944 -5.1038 0.512 -0.018 0.859 217 213 222 0 0
-3.5376 -3.7089 -5.1039 0.512 -0.018 0.859 216 212 219 0 0
-3.5515 -3.8407 -5.1131 0.084 -0.037 0.996 215 208 212 0 0
-3.5566 -3.8559 -5.1172 0.091 -0.100 0.991 215 208 212 0 0
-3.4591 -4.2460 -5.0245 0.243 0.150 0.958 217 214 221 0 0
-3.4549 -4.2741 -5.0203 0.217 0.150 0.965 216 209 216 0 0
-3.4173 -4.4251 -4.9846 0.490 0.457 0.742 219 216 226 0 0
-3.4183 -4.4398 -4.9851 0.439 0.188 0.879 218 217 229 0 0
-3.4003 -4.5367 -4.9675 0.819 0.233 0.524 219 216 226 0 0
-3.3877 -4.5479 -4.9564 0.580 -0.502 0.641 220 217 225 0 0
-3.3993 -4.5654 -4.9660 0.689 -0.230 0.687 219 215 223 0 0
-3.4001 -4.5801 -4.9664 0.713 -0.122 0.690 219 215 221 0 0
-3.3675 -4.7304 -4.9350 0.158 0.161 0.974 216 210 214 0 0
-3.3655 -4.7443 -4.9330 0.158 0.161 0.974 215 209 214 0 0
-3.3601 -4.7717 -4.9277 0.146 0.337 0.930 214 207 214 0 0
-3.3666 -4.8026 -4.9327 0.286 -0.303 0.909 217 211 218 0 0
-3.3714 -4.8186 -4.9365 0.286 -0.303 0.909 218 212 219 0 0
-3.3814 -4.8800 -4.9439 0.209 0.072 0.975 214 207 213 0 0
-3.3821 -4.8948 -4.9442 0.283 0.256 0.924 215 208 214 0 0
-3.3674 -4.9484 -4.9303 0.413 0.194 0.890 217 208 210 0 0
-3.3640 -4.9619 -4.9271 0.250 0.638 0.728 216 208 210 0 0
-3.3480 -5.0002 -4.9124 0.305 -0.083 0.949 216 207 210 0 0
-3.3520 -5.0162 -4.9155 0.347 -0.209 0.914 214 207 209 0 0
-3.3501 -5.0301 -4.9136 0.425 -0.378 0.823 215 208 211 0 0
-3.3519 -5.0453 -4.9148 0.354 -0.229 0.907 215 208 211 0 0
-3.3504 -5.0594 -4.9132 0.168 0.212 0.963 213 207 209 0 0
-3.3392 -5.1284 -4.9021 0.353 -0.420 0.836 216 210 214 0 0
-3.3462 -5.1455 -4.9077 0.353 -0.420 0.836 215 209 213 0 0
-3.3577 -5.1644 -4.9173 0.461 -0.433 0.775 215 209 211 0 0
-3.3479 -5.3223 -4.9055 0.117 0.425 0.898 215 206 207 0 0
