ply
format ascii 1.0
element vertex 821
property float x
property float y
property float z
property float nx
property float ny
property float nz
property uchar diffuse_red
property uchar diffuse_green
property uchar diffuse_blue
property uchar class
property uchar detection
end_header
-0.3689 0.7503 -0.6797 0.466 -0.644 0.606 182 161 147 0 0
-0.3658 0.7510 -0.6786 0.911 -0.265 0.315 182 161 146 0 0
-0.3560 0.7928 -0.6785 0.706 -0.691 -0.156 181 157 140 0 0
-0.3561 0.7957 -0.6788 0.869 -0.490 -0.067 182 159 142 0 0
-0.3222 0.8374 -0.6691 0.766 -0.125 0.630 174 154 137 0 0
-0.3194 0.8436 -0.6685 0.921 -0.350 0.171 168 144 130 0 0
-0.3231 0.8607 -0.6716 0.965 0.093 -0.247 157 134 118 0 0
-0.2883 0.8836 -0.6597 0.661 -0.568 0.489 183 165 150 0 0
-0.2901 0.8881 -0.6609 0.267 -0.948 0.173 184 167 151 0 0
-0.2861 0.8876 -0.6592 0.275 -0.954 -0.121 185 167 151 0 0
-0.2828 0.8876 -0.6579 0.448 -0.413 0.793 183 165 151 0 0
-0.2841 0.9150 -0.6610 -0.016 -0.993 -0.118 182 164 148 0 0
-0.2461 0.9570 -0.6496 0.358 -0.060 0.932 187 170 160 0 0
-0.2442 0.9827 -0.6512 0.832 0.196 0.519 140 118 104 0 0
-0.2340 1.0126 -0.6499 0.089 -0.883 0.460 163 140 125 0 0
-0.2328 1.0177 -0.6499 0.472 -0.210 0.856 156 133 117 0 0
-0.2311 1.0222 -0.6496 0.844 -0.276 0.459 148 123 108 0 0
-0.2293 1.0234 -0.6490 0.847 -0.403 0.346 156 134 116 0 0
-0.2282 1.0254 -0.6488 0.800 -0.489 0.349 166 143 127 0 0
-0.2237 1.0237 -0.6468 0.476 -0.845 0.242 168 148 132 0 0
-0.2172 1.0716 -0.6487 0.848 -0.237 0.475 183 164 148 0 0
-0.2155 1.0796 -0.6487 0.559 -0.771 0.305 172 152 135 0 0
-0.2081 1.0842 -0.6462 0.351 -0.819 0.454 165 145 127 0 0
-0.2057 1.1083 -0.6475 0.687 -0.131 0.715 147 128 113 0 0
-0.2057 1.1117 -0.6478 0.594 0.068 0.801 144 125 110 0 0
-0.2003 1.1223 -0.6466 -0.185 -0.478 0.859 178 162 147 0 0
-0.1692 1.1548 -0.6371 -0.173 -0.874 0.454 157 135 121 0 0
-0.1671 1.1555 -0.6363 -0.230 -0.739 0.634 152 130 116 0 0
-0.1646 1.1556 -0.6353 -0.275 -0.798 0.536 147 127 113 0 0
-0.1527 1.1569 -0.6306 0.285 -0.677 0.679 160 140 125 0 0
-0.1508 1.1613 -0.6303 0.699 -0.083 0.710 157 138 123 0 0
-0.1498 1.1634 -0.6301 0.690 -0.160 0.706 163 143 128 0 0
-0.1498 1.1669 -0.6304 0.630 -0.407 0.661 166 147 132 0 0
-0.1491 1.1696 -0.6304 0.318 -0.908 0.272 168 149 134 0 0
-0.1494 1.1735 -0.6308 0.912 -0.080 0.402 172 153 138 0 0
-0.1488 1.1834 -0.6315 0.595 0.316 0.739 161 142 127 0 0
-0.1312 1.2012 -0.6261 0.756 -0.054 0.653 156 138 124 0 0
-0.1304 1.2036 -0.6260 0.764 -0.112 0.636 156 138 124 0 0
-0.1288 1.2197 -0.6269 0.348 -0.277 0.896 157 139 127 0 0
-0.1226 1.2250 -0.6249 0.672 0.013 0.741 173 157 146 0 0
-0.1223 1.2359 -0.6258 0.768 -0.601 0.222 165 147 134 0 0
-0.1129 1.2512 -0.6234 0.671 -0.735 -0.092 145 126 114 0 0
-0.1124 1.2543 -0.6235 0.698 -0.704 0.132 154 134 124 0 0
-0.1036 1.2630 -0.6208 0.585 -0.596 0.551 180 166 156 0 0
-0.1032 1.2661 -0.6209 0.899 -0.426 0.107 179 169 160 0 0
-0.1017 1.2676 -0.6204 0.698 -0.254 0.670 182 169 162 0 0
-0.0961 1.2893 -0.6202 0.174 -0.418 0.892 166 148 133 0 0
-0.0893 1.3174 -0.6201 -0.196 -0.856 0.478 175 157 143 0 0
-0.0884 1.3198 -0.6200 0.165 -0.828 0.535 164 146 132 0 0
-0.0863 1.3243 -0.6196 0.833 -0.080 0.547 163 145 130 0 0
-0.0859 1.3276 -0.6197 0.920 0.124 0.371 171 154 139 0 0
-0.0657 1.3275 -0.6115 -0.111 -0.710 0.696 186 171 161 0 0
-0.0587 1.3308 -0.6090 0.172 -0.706 0.687 178 162 151 0 0
-0.0581 1.3337 -0.6090 0.406 -0.517 0.754 168 153 140 0 0
-0.6938 0.1446 -0.7564 0.332 -0.167 0.928 161 139 115 0 0
-0.6927 0.1484 -0.7563 0.077 -0.469 0.880 157 133 111 0 0
-0.6905 0.1503 -0.7556 0.081 -0.358 0.930 151 126 105 0 0
-0.6919 0.1599 -0.7571 0.220 0.061 0.974 151 128 107 0 0
-0.6892 0.1676 -0.7567 0.332 -0.093 0.939 156 131 111 0 0
-0.6700 0.2062 -0.7526 0.230 -0.508 0.830 198 183 161 0 0
-0.6840 0.2435 -0.7618 0.718 -0.174 -0.674 175 153 129 0 0
-0.6727 0.2447 -0.7573 0.624 -0.759 0.185 173 150 127 0 0
-0.6718 0.2467 -0.7571 0.668 -0.741 0.069 175 153 129 0 0
-0.6585 0.2477 -0.7518 0.065 -0.795 0.603 175 152 128 0 0
-0.6539 0.2493 -0.7501 0.042 -0.723 0.689 171 150 123 0 0
-0.6292 0.2613 -0.7412 0.144 -0.485 0.863 177 153 130 0 0
-0.6151 0.2965 -0.7388 0.992 -0.127 -0.018 144 118 97 0 0
-0.6168 0.3008 -0.7400 0.912 -0.345 -0.221 149 124 103 0 0
-0.6140 0.3108 -0.7398 0.716 -0.680 -0.156 155 129 110 0 0
-0.6236 0.3312 -0.7456 0.322 -0.946 -0.026 176 152 132 0 0
-0.5882 0.3616 -0.7342 0.113 -0.385 0.916 171 146 126 0 0
-0.5880 0.3637 -0.7343 0.028 -0.578 0.816 179 155 135 0 0
-0.5846 0.3652 -0.7330 0.165 -0.275 0.947 175 149 130 0 0
-0.5700 0.3947 -0.7299 0.884 -0.449 -0.126 160 137 118 0 0
-0.5561 0.4289 -0.7275 0.877 0.078 0.474 175 149 128 0 0
-0.5558 0.4310 -0.7276 0.814 -0.336 0.474 162 135 115 0 0
-0.5577 0.4360 -0.7288 0.495 -0.095 0.864 162 136 115 0 0
-0.5506 0.4364 -0.7260 0.100 -0.814 0.572 159 133 113 0 0
-0.5268 0.4955 -0.7220 0.095 -0.197 0.976 187 171 150 0 0
-0.4955 0.5199 -0.7116 0.576 -0.814 0.075 185 164 143 0 0
-0.4913 0.5231 -0.7102 0.495 -0.868 -0.040 171 148 127 0 0
-0.4720 0.5486 -0.7047 0.598 0.600 0.531 166 140 121 0 0
-0.4578 0.5929 -0.7032 0.299 -0.633 0.714 162 140 121 0 0
-0.4199 0.6096 -0.6894 0.244 -0.635 0.733 185 168 151 0 0
-0.4174 0.6108 -0.6885 0.559 -0.343 0.755 183 165 151 0 0
-0.4253 0.6218 -0.6927 0.537 0.306 0.786 166 144 126 0 0
-0.4237 0.6259 -0.6925 0.737 -0.124 0.664 152 125 109 0 0
-0.4236 0.6332 -0.6932 0.823 0.162 0.544 149 124 106 0 0
-0.4239 0.6383 -0.6938 0.563 -0.693 -0.450 173 152 129 0 0
-0.4193 0.6410 -0.6922 0.563 -0.693 -0.450 173 152 132 0 0
-0.4107 0.6540 -0.6899 0.627 -0.779 -0.009 190 171 154 0 0
-0.4098 0.6560 -0.6897 0.725 -0.687 -0.051 182 162 144 0 0
-0.4084 0.6578 -0.6893 0.723 -0.604 0.335 177 156 138 0 0
-0.4004 0.6635 -0.6866 0.717 -0.694 0.068 173 152 129 0 0
-0.4005 0.6812 -0.6883 0.807 -0.017 0.590 178 156 137 0 0
-0.3998 0.7300 -0.6927 0.542 -0.621 -0.567 173 148 130 0 0
-0.3515 0.7525 -0.6752 -0.154 -0.973 0.172 176 152 133 0 0
-0.3693 0.7887 -0.6859 0.249 -0.837 0.487 173 149 129 0 0
-0.3639 0.7904 -0.6839 0.166 -0.970 0.175 193 173 159 0 0
-0.3426 0.8057 -0.6767 0.087 -0.875 0.476 199 182 165 0 0
-0.3400 0.8066 -0.6757 0.257 -0.839 0.480 201 183 169 0 0
-0.3339 0.8077 -0.6734 -0.029 -0.724 0.689 191 172 158 0 0
-0.3362 0.8149 -0.6750 -0.060 -0.265 0.962 187 166 147 0 0
-0.3198 0.8302 -0.6697 0.942 0.049 0.332 195 178 162 0 0
-0.3189 0.8436 -0.6707 0.877 -0.462 0.134 163 139 123 0 0
-0.2976 0.8633 -0.6639 0.936 -0.303 0.181 172 151 134 0 0
-0.2975 0.8660 -0.6641 0.959 -0.218 -0.182 174 156 139 0 0
-0.2882 0.8840 -0.6620 0.938 -0.309 0.157 179 160 143 0 0
-0.2893 0.8878 -0.6629 0.261 -0.944 -0.201 178 160 144 0 0
-0.2867 0.8884 -0.6618 0.307 -0.925 -0.222 177 157 140 0 0
-0.2834 0.8885 -0.6605 0.946 -0.075 -0.316 176 155 139 0 0
-0.2833 0.9147 -0.6630 -0.023 -0.992 0.121 178 158 142 0 0
-0.2439 0.9705 -0.6523 0.774 0.034 0.632 190 176 166 0 0
-0.2435 0.9731 -0.6524 0.805 -0.061 0.590 168 151 135 0 0
-0.2433 0.9760 -0.6526 0.852 -0.007 0.523 149 128 112 0 0
-0.2453 0.9967 -0.6553 0.839 -0.542 0.040 145 123 109 0 0
-0.2387 1.0150 -0.6544 -0.209 -0.977 -0.040 173 152 137 0 0
-0.2328 1.0119 -0.6517 0.035 -0.915 0.403 175 154 140 0 0
-0.2317 1.0138 -0.6515 0.090 -0.375 0.923 170 148 133 0 0
-0.2308 1.0191 -0.6516 0.304 -0.459 0.835 152 129 115 0 0
-0.2298 1.0213 -0.6514 0.492 -0.688 0.534 150 125 111 0 0
-0.2275 1.0220 -0.6506 0.360 -0.923 -0.139 156 130 115 0 0
-0.2228 1.0232 -0.6488 0.290 -0.957 -0.010 161 138 124 0 0
-0.2215 1.0249 -0.6484 0.510 -0.844 0.168 164 142 128 0 0
-0.2200 1.0265 -0.6479 0.708 -0.622 0.334 169 147 133 0 0
-0.2215 1.0574 -0.6515 -0.014 -0.125 0.992 197 181 166 0 0
-0.2145 1.0756 -0.6504 0.837 -0.278 0.471 185 167 150 0 0
-0.2110 1.0815 -0.6495 0.295 -0.883 0.366 172 153 138 0 0
-0.2038 1.1031 -0.6486 0.612 0.016 0.791 153 135 119 0 0
-0.2040 1.1068 -0.6491 0.507 0.002 0.862 163 145 130 0 0
-0.2033 1.1094 -0.6490 0.437 0.091 0.895 136 119 103 0 0
-0.1991 1.1179 -0.6482 -0.190 -0.404 0.895 157 139 124 0 0
-0.1972 1.1188 -0.6474 -0.178 -0.393 0.902 160 142 127 0 0
-0.1628 1.1055 -0.6322 0.540 -0.306 0.784 164 145 130 0 0
-0.1520 1.1565 -0.6327 0.229 -0.582 0.780 157 137 123 0 0
-0.1516 1.1595 -0.6328 0.475 -0.115 0.872 154 133 119 0 0
-0.1509 1.1619 -0.6327 0.495 -0.062 0.866 156 136 120 0 0
-0.1488 1.1769 -0.6333 0.492 0.190 0.850 165 146 131 0 0
-0.1216 1.2204 -0.6264 0.090 -0.390 0.917 172 154 144 0 0
-0.1195 1.2396 -0.6274 0.922 -0.149 0.356 169 150 137 0 0
-0.1197 1.2438 -0.6279 0.863 -0.499 0.072 177 159 145 0 0
-0.1186 1.2458 -0.6276 0.863 -0.499 0.072 177 159 147 0 0
-0.1172 1.2475 -0.6272 0.842 -0.503 0.196 155 135 123 0 0
-0.1115 1.2535 -0.6255 0.562 -0.827 -0.009 143 124 113 0 0
-0.1105 1.2557 -0.6253 0.660 -0.749 0.053 148 130 116 0 0
-0.1090 1.2571 -0.6248 0.660 -0.749 0.053 153 136 122 0 0
-0.1018 1.2646 -0.6226 0.877 -0.478 0.051 175 161 151 0 0
-0.1006 1.2664 -0.6223 0.781 -0.498 0.377 176 162 155 0 0
-0.0943 1.2870 -0.6217 0.174 -0.418 0.892 162 144 129 0 0
-0.0901 1.2877 -0.6200 0.172 -0.184 0.968 169 150 136 0 0
-0.0840 1.3208 -0.6207 0.653 0.081 0.753 162 143 128 0 0
-0.0825 1.3222 -0.6202 0.695 0.110 0.711 170 151 135 0 0
-0.0643 1.3256 -0.6132 -0.111 -0.710 0.696 177 161 146 0 0
-0.0624 1.3262 -0.6125 0.021 -0.649 0.760 185 171 159 0 0
-0.0611 1.3277 -0.6121 0.414 -0.731 0.543 189 176 163 0 0
-0.0593 1.3285 -0.6114 0.197 -0.812 0.550 192 176 165 0 0
-0.0575 1.3292 -0.6107 0.175 -0.663 0.728 182 167 156 0 0
-0.6881 0.1523 -0.7571 0.085 -0.277 0.957 155 130 108 0 0
-0.6860 0.1677 -0.7577 0.584 -0.008 0.812 160 135 114 0 0
-0.6456 0.2508 -0.7492 0.105 -0.960 0.258 172 149 123 0 0
-0.6401 0.2523 -0.7471 0.086 -0.893 0.442 171 145 120 0 0
-0.6185 0.2645 -0.7395 0.313 -0.942 0.120 172 147 123 0 0
-0.6150 0.2966 -0.7412 0.973 -0.213 -0.089 134 111 88 0 0
-0.6234 0.3313 -0.7480 0.322 -0.946 -0.026 170 149 128 0 0
-0.5691 0.3947 -0.7319 0.685 -0.680 0.262 161 137 117 0 0
-0.5552 0.4289 -0.7295 0.813 0.090 0.575 159 132 111 0 0
-0.5177 0.4701 -0.7182 0.577 0.505 0.642 168 143 126 0 0
-0.5235 0.4993 -0.7234 0.325 -0.128 0.937 139 114 94 0 0
-0.5151 0.5082 -0.7208 0.699 -0.683 0.212 154 129 109 0 0
-0.4786 0.5257 -0.7076 0.147 -0.989 0.008 175 154 131 0 0
-0.4704 0.5459 -0.7062 0.458 0.436 0.774 173 148 128 0 0
-0.4559 0.5923 -0.7047 0.192 -0.617 0.763 160 136 118 0 0
-0.4299 0.6048 -0.6953 -0.017 -0.999 -0.031 177 156 137 0 0
-0.4249 0.6050 -0.6933 0.270 -0.958 0.097 182 161 144 0 0
-0.4240 0.6070 -0.6931 0.110 -0.961 0.255 177 159 140 0 0
-0.4230 0.6234 -0.6943 0.516 -0.026 0.856 160 135 118 0 0
-0.4227 0.6257 -0.6944 0.576 -0.095 0.812 153 127 110 0 0
-0.4221 0.6377 -0.6953 0.753 -0.495 0.433 168 145 125 0 0
-0.4179 0.6405 -0.6939 0.402 -0.907 0.129 172 149 129 0 0
-0.4061 0.6594 -0.6909 0.943 -0.282 -0.177 171 149 129 0 0
-0.3964 0.6767 -0.6886 0.912 0.327 0.246 175 153 133 0 0
-0.3974 0.6798 -0.6893 0.927 0.141 0.346 173 152 131 0 0
-0.4003 0.6839 -0.6909 0.654 0.168 0.737 169 146 128 0 0
-0.3906 0.6989 -0.6884 0.560 -0.654 0.509 184 163 144 0 0
-0.3973 0.7183 -0.6929 0.548 0.471 0.691 164 138 122 0 0
-0.3917 0.7255 -0.6913 -0.051 -0.969 -0.240 179 157 137 0 0
-0.3858 0.7245 -0.6888 -0.051 -0.969 -0.240 172 149 132 0 0
-0.3931 0.7316 -0.6925 0.047 -0.934 -0.355 172 149 131 0 0
-0.3646 0.7403 -0.6817 0.612 -0.715 0.337 176 150 133 0 0
-0.3649 0.7431 -0.6821 0.668 -0.600 0.439 173 146 132 0 0
-0.3536 0.7490 -0.6781 0.826 -0.154 -0.542 172 146 130 0 0
-0.3565 0.7588 -0.6802 0.530 0.644 0.552 167 141 123 0 0
-0.3674 0.7877 -0.6875 0.277 -0.740 0.613 174 149 129 0 0
-0.3629 0.7901 -0.6858 0.172 -0.933 0.315 198 180 165 0 0
-0.3408 0.8048 -0.6782 0.069 -0.814 0.577 203 186 169 0 0
-0.3381 0.8055 -0.6772 0.175 -0.718 0.674 197 180 165 0 0
-0.3315 0.8063 -0.6746 -0.021 -0.760 0.650 190 171 153 0 0
-0.3316 0.8201 -0.6760 0.125 -0.822 0.556 179 158 137 0 0
-0.3275 0.8198 -0.6743 0.276 -0.940 0.199 175 152 133 0 0
-0.3262 0.8216 -0.6739 0.134 -0.979 -0.156 174 152 132 0 0
-0.3188 0.8411 -0.6727 0.913 -0.213 0.348 170 148 131 0 0
-0.3186 0.8437 -0.6729 0.935 -0.234 0.266 162 137 122 0 0
-0.3178 0.8459 -0.6728 0.913 -0.337 0.229 157 134 120 0 0
-0.3193 0.8499 -0.6738 0.766 -0.057 0.641 158 135 119 0 0
-0.3078 0.8578 -0.6699 -0.187 -0.532 0.826 166 143 125 0 0
-0.3017 0.8614 -0.6677 0.226 0.013 0.974 156 133 117 0 0
-0.2806 0.8865 -0.6615 0.963 0.228 0.141 167 143 125 0 0
-0.2906 0.9068 -0.6676 0.991 0.131 0.033 166 142 125 0 0
-0.2823 0.9142 -0.6649 -0.062 -0.932 0.356 169 147 129 0 0
-0.2792 0.9144 -0.6637 -0.073 -0.922 0.379 170 148 130 0 0
-0.2655 0.9196 -0.6586 0.518 -0.046 0.854 158 135 119 0 0
-0.2629 0.9232 -0.6579 0.426 0.201 0.882 170 149 132 0 0
-0.2477 0.9384 -0.6531 -0.089 -0.255 0.963 176 155 138 0 0
-0.2412 0.9651 -0.6530 0.657 0.113 0.746 186 172 162 0 0
-0.2422 0.9784 -0.6547 0.946 0.036 0.324 146 125 111 0 0
-0.2410 0.9895 -0.6553 0.760 -0.427 0.490 146 124 110 0 0
-0.2423 0.9940 -0.6563 0.639 -0.724 0.259 142 120 106 0 0
-0.2377 1.0144 -0.6564 -0.298 -0.953 -0.057 173 153 137 0 0
-0.2322 1.0149 -0.6542 -0.126 -0.711 0.692 171 150 135 0 0
-0.2290 1.0177 -0.6531 0.181 -0.376 0.909 159 136 122 0 0
-0.2283 1.0202 -0.6531 0.302 -0.516 0.802 154 131 117 0 0
-0.2193 1.0262 -0.6500 0.762 -0.636 0.127 158 135 122 0 0
-0.2195 1.0522 -0.6525 0.006 -0.161 0.987 201 187 174 0 0
-0.2176 1.0534 -0.6519 0.044 -0.130 0.991 201 186 172 0 0
-0.2168 1.0557 -0.6518 0.080 -0.080 0.994 197 182 167 0 0
-0.2006 1.1066 -0.6501 0.390 0.068 0.918 143 125 110 0 0
-0.1960 1.1145 -0.6490 -0.171 -0.378 0.910 141 123 109 0 0
-0.1615 1.1009 -0.6336 0.696 -0.718 0.001 163 143 129 0 0
-0.1616 1.1044 -0.6340 0.561 -0.407 0.721 163 144 130 0 0
-0.1591 1.1492 -0.6372 0.090 -0.012 0.996 154 134 121 0 0
-0.1492 1.1567 -0.6339 0.319 -0.590 0.741 153 131 117 0 0
-0.1488 1.1597 -0.6341 0.793 0.137 0.593 158 137 121 0 0
-0.1485 1.1628 -0.6343 0.555 -0.090 0.827 162 141 127 0 0
-0.1465 1.1777 -0.6349 0.342 0.065 0.938 163 144 129 0 0
-0.1195 1.2179 -0.6277 0.090 -0.390 0.917 166 148 137 0 0
-0.1185 1.2200 -0.6275 0.510 -0.125 0.851 167 149 137 0 0
-0.1188 1.2355 -0.6291 0.748 0.130 0.651 163 144 133 0 0
-0.1183 1.2384 -0.6292 0.880 -0.033 0.474 168 149 138 0 0
-0.1180 1.2418 -0.6294 0.905 -0.040 0.423 175 157 146 0 0
-0.1179 1.2454 -0.6297 0.932 -0.170 0.321 178 160 147 0 0
-0.1020 1.2616 -0.6248 0.243 -0.911 -0.334 161 144 128 0 0
-0.1010 1.2639 -0.6246 0.706 -0.693 -0.145 165 148 133 0 0
-0.1000 1.2660 -0.6244 0.629 -0.670 0.395 164 148 134 0 0
-0.0958 1.2824 -0.6243 0.160 -0.719 0.677 153 134 120 0 0
-0.0921 1.2840 -0.6229 -0.154 -0.967 -0.201 156 137 123 0 0
-0.0895 1.2833 -0.6218 -0.113 -0.951 -0.288 161 144 128 0 0
-0.0884 1.2854 -0.6215 0.488 -0.857 -0.164 162 144 128 0 0
-0.0844 1.3142 -0.6227 0.250 -0.082 0.965 160 142 127 0 0
-0.0837 1.3211 -0.6230 0.586 0.052 0.809 160 141 125 0 0
-0.0820 1.3221 -0.6225 0.698 0.016 0.715 163 144 128 0 0
-0.0798 1.3221 -0.6216 0.468 -0.225 0.855 169 150 135 0 0
-0.0671 1.3234 -0.6165 0.087 -0.810 0.580 156 137 122 0 0
-0.0587 1.3281 -0.6135 0.389 -0.810 0.440 185 168 157 0 0
-0.0571 1.3293 -0.6130 0.546 -0.675 0.497 181 166 155 0 0
-0.0562 1.3316 -0.6128 0.655 -0.572 0.493 180 165 151 0 0
-0.7053 0.1314 -0.7644 -0.043 -0.502 0.864 174 152 127 0 0
-0.6847 0.1524 -0.7580 0.136 -0.309 0.941 160 135 113 0 0
-0.6818 0.1658 -0.7581 0.907 -0.343 0.243 172 150 129 0 0
-0.6834 0.1678 -0.7590 0.703 -0.031 0.710 171 146 126 0 0
-0.6691 0.1966 -0.7559 0.271 -0.281 0.921 163 140 115 0 0
-0.6604 0.2119 -0.7539 0.808 0.013 0.589 181 160 139 0 0
-0.6392 0.2504 -0.7489 0.292 -0.753 0.590 171 150 125 0 0
-0.6107 0.2678 -0.7390 0.273 -0.884 0.380 186 167 145 0 0
-0.6065 0.2714 -0.7376 0.399 -0.793 0.461 190 174 154 0 0
-0.5680 0.3946 -0.7338 0.747 -0.581 0.323 165 140 120 0 0
-0.5165 0.4700 -0.7200 0.446 0.279 0.851 167 141 124 0 0
-0.5154 0.4764 -0.7202 0.005 -0.145 0.989 168 146 126 0 0
-0.4397 0.5975 -0.7010 0.401 -0.707 0.582 181 162 142 0 0
-0.4294 0.6049 -0.6975 -0.017 -0.999 -0.031 183 162 144 0 0
-0.4227 0.6066 -0.6949 0.110 -0.961 0.255 173 153 134 0 0
-0.4208 0.6251 -0.6959 0.589 0.018 0.808 153 128 111 0 0
-0.4206 0.6274 -0.6960 0.589 0.018 0.808 146 120 105 0 0
-0.4180 0.6384 -0.6960 0.499 -0.812 0.303 168 146 128 0 0
-0.4150 0.6394 -0.6949 0.303 -0.936 0.176 170 148 128 0 0
-0.4116 0.6525 -0.6948 0.888 -0.455 -0.063 177 156 135 0 0
-0.4101 0.6542 -0.6943 0.726 -0.683 -0.083 188 168 150 0 0
-0.4065 0.6598 -0.6934 0.943 -0.282 -0.177 170 147 126 0 0
-0.4056 0.6619 -0.6932 0.955 -0.294 -0.036 169 142 125 0 0
-0.3973 0.6801 -0.6916 0.642 0.077 0.763 167 144 126 0 0
-0.3983 0.6831 -0.6923 0.331 0.005 0.944 167 142 124 0 0
-0.3895 0.6986 -0.6902 0.597 -0.781 0.185 186 165 146 0 0
-0.3947 0.7171 -0.6941 0.314 0.414 0.854 162 136 120 0 0
-0.3953 0.7333 -0.6960 0.081 -0.905 -0.419 174 149 131 0 0
-0.3636 0.7374 -0.6834 0.805 -0.575 -0.145 175 150 133 0 0
-0.3639 0.7402 -0.6838 0.783 -0.554 0.284 174 147 131 0 0
-0.3638 0.7427 -0.6840 0.763 -0.430 0.482 168 141 125 0 0
-0.3647 0.7459 -0.6847 0.664 -0.279 0.694 164 137 121 0 0
-0.3598 0.7454 -0.6826 0.560 -0.770 0.306 163 135 121 0 0
-0.3643 0.7563 -0.6855 0.455 0.598 0.660 168 143 125 0 0
-0.3527 0.7514 -0.6803 0.813 0.557 0.172 167 141 124 0 0
-0.3662 0.7791 -0.6885 0.182 0.228 0.956 185 163 146 0 0
-0.3657 0.7814 -0.6885 0.343 -0.205 0.916 184 161 144 0 0
-0.3622 0.7872 -0.6876 0.259 -0.429 0.865 193 176 160 0 0
-0.3485 0.7941 -0.6827 0.689 -0.462 0.559 171 144 124 0 0
-0.3384 0.8034 -0.6795 -0.044 -0.707 0.706 198 180 162 0 0
-0.3356 0.8041 -0.6784 0.090 -0.650 0.755 194 174 158 0 0
-0.3278 0.8204 -0.6768 0.331 -0.874 -0.356 176 151 133 0 0
-0.3181 0.8409 -0.6748 0.963 -0.185 0.198 175 154 138 0 0
-0.3183 0.8439 -0.6752 0.948 -0.241 0.206 163 139 123 0 0
-0.3173 0.8459 -0.6750 0.894 -0.447 -0.008 161 139 123 0 0
-0.3153 0.8557 -0.6751 -0.181 -0.366 0.913 156 133 118 0 0
-0.2626 0.9173 -0.6595 0.439 -0.552 0.709 162 139 122 0 0
-0.2621 0.9198 -0.6595 0.758 -0.326 0.566 170 148 132 0 0
-0.2613 0.9220 -0.6594 0.844 -0.339 0.415 173 152 133 0 0
-0.2558 0.9199 -0.6570 -0.045 -0.807 0.589 171 150 133 0 0
-0.2496 0.9229 -0.6547 -0.004 -0.876 0.482 171 148 131 0 0
-0.2466 0.9230 -0.6535 -0.136 -0.916 0.377 169 147 131 0 0
-0.2422 0.9277 -0.6522 -0.112 -0.546 0.831 178 158 141 0 0
-0.2418 0.9302 -0.6522 -0.077 -0.513 0.855 181 162 146 0 0
-0.2419 0.9725 -0.6564 0.955 -0.166 0.244 176 159 146 0 0
-0.2428 0.9919 -0.6586 0.864 0.009 -0.503 151 130 114 0 0
-0.2416 0.9969 -0.6586 0.997 0.074 -0.006 149 127 112 0 0
-0.2274 1.0197 -0.6551 0.199 -0.454 0.868 154 131 117 0 0
-0.2203 1.0246 -0.6526 0.594 -0.744 0.305 148 124 112 0 0
-0.2185 1.0258 -0.6520 0.710 -0.609 0.354 153 130 117 0 0
-0.2165 1.0494 -0.6535 -0.038 -0.228 0.973 199 185 170 0 0
-0.2144 1.0502 -0.6527 0.047 -0.160 0.986 199 185 172 0 0
-0.2130 1.0518 -0.6522 0.107 -0.061 0.992 199 185 171 0 0
-0.2128 1.0549 -0.6525 0.100 -0.063 0.993 200 186 172 0 0
-0.2128 1.0615 -0.6531 0.161 -0.097 0.982 185 168 153 0 0
-0.2099 1.0712 -0.6529 -0.060 -0.235 0.970 177 157 139 0 0
-0.2010 1.1008 -0.6521 0.186 -0.149 0.971 171 153 137 0 0
-0.1609 1.1040 -0.6360 0.812 -0.376 0.446 162 142 128 0 0
-0.1578 1.1068 -0.6350 0.843 -0.526 0.115 167 148 134 0 0
-0.1565 1.1084 -0.6346 0.999 0.047 -0.024 166 148 133 0 0
-0.1615 1.1426 -0.6400 -0.382 -0.669 0.638 161 141 125 0 0
-0.1569 1.1433 -0.6382 -0.038 -0.253 0.967 157 137 124 0 0
-0.1498 1.1476 -0.6357 0.790 -0.213 0.575 172 155 142 0 0
-0.1481 1.1557 -0.6358 0.394 -0.600 0.696 157 135 118 0 0
-0.1469 1.1575 -0.6354 0.791 -0.160 0.591 158 138 122 0 0
-0.1459 1.1597 -0.6352 0.682 -0.303 0.666 160 139 124 0 0
-0.1443 1.1610 -0.6347 0.592 -0.518 0.618 160 140 125 0 0
-0.1205 1.2126 -0.6300 0.015 -0.432 0.902 164 146 135 0 0
-0.1189 1.2139 -0.6295 0.028 -0.449 0.893 165 147 134 0 0
-0.1180 1.2161 -0.6293 0.325 -0.203 0.924 164 146 134 0 0
-0.1169 1.2182 -0.6291 0.516 -0.101 0.850 162 144 133 0 0
-0.1163 1.2210 -0.6291 0.750 0.021 0.661 157 139 127 0 0
-0.1170 1.2371 -0.6310 0.864 0.022 0.503 163 146 134 0 0
-0.1169 1.2407 -0.6313 0.864 0.022 0.503 173 156 144 0 0
-0.1158 1.2427 -0.6310 0.834 -0.111 0.540 171 153 139 0 0
-0.1153 1.2458 -0.6311 0.834 -0.111 0.540 160 141 127 0 0
-0.1119 1.2555 -0.6306 0.768 -0.537 -0.349 124 107 93 0 0
-0.0882 1.2858 -0.6239 0.404 -0.901 -0.156 162 143 128 0 0
-0.0863 1.2943 -0.6239 0.694 -0.125 0.709 158 139 126 0 0
-0.0789 1.3213 -0.6235 0.417 -0.290 0.861 162 142 128 0 0
-0.0776 1.3229 -0.6231 0.239 -0.379 0.894 160 139 125 0 0
-0.0686 1.3228 -0.6194 -0.128 -0.984 0.122 160 140 124 0 0
-0.0605 1.3242 -0.6163 0.535 -0.688 0.490 171 153 139 0 0
-0.0591 1.3256 -0.6158 0.535 -0.688 0.490 173 157 142 0 0
-0.0565 1.3288 -0.6151 0.704 -0.599 0.381 177 160 147 0 0
-0.0552 1.3305 -0.6147 0.704 -0.599 0.381 177 161 148 0 0
-0.7001 0.1315 -0.7646 0.004 -0.527 0.850 172 150 126 0 0
-0.6811 0.1506 -0.7587 0.211 -0.449 0.868 170 146 124 0 0
-0.6794 0.1525 -0.7582 0.125 -0.320 0.939 163 138 116 0 0
-0.6580 0.2119 -0.7552 0.687 -0.157 0.710 175 154 132 0 0
-0.6142 0.2663 -0.7425 0.430 -0.746 0.509 179 157 134 0 0
-0.6092 0.2678 -0.7406 0.515 -0.733 0.444 183 164 141 0 0
-0.6071 0.2696 -0.7399 0.433 -0.568 0.700 186 168 146 0 0
-0.6051 0.2714 -0.7393 0.348 -0.643 0.682 187 169 148 0 0
-0.6046 0.2733 -0.7393 0.468 -0.587 0.660 188 170 149 0 0
-0.6035 0.2752 -0.7390 0.571 -0.481 0.666 181 163 139 0 0
-0.5644 0.3854 -0.7337 0.610 -0.789 -0.078 161 136 116 0 0
-0.5339 0.4371 -0.7263 0.706 -0.379 0.598 174 150 128 0 0
-0.5340 0.4394 -0.7265 0.555 -0.808 0.197 184 162 140 0 0
-0.5176 0.4549 -0.7213 0.676 -0.475 0.563 185 166 148 0 0
-0.5166 0.4568 -0.7211 0.714 -0.432 0.551 192 175 157 0 0
-0.4830 0.5231 -0.7138 0.402 -0.916 -0.012 172 150 127 0 0
-0.4728 0.5544 -0.7127 0.878 -0.460 0.133 174 149 129 0 0
-0.4681 0.5572 -0.7110 0.620 -0.778 -0.100 188 165 147 0 0
-0.4670 0.5615 -0.7110 0.819 -0.569 0.068 190 168 150 0 0
-0.4647 0.5630 -0.7102 0.956 -0.214 0.198 184 163 143 0 0
-0.4688 0.5862 -0.7142 0.048 -0.984 0.172 167 143 126 0 0
-0.4179 0.6240 -0.6969 0.489 0.360 0.794 157 135 116 0 0
-0.4183 0.6266 -0.6973 0.622 0.096 0.777 147 121 106 0 0
-0.4120 0.6431 -0.6964 0.864 -0.479 -0.155 168 145 124 0 0
-0.4117 0.6528 -0.6972 0.922 -0.380 -0.076 165 142 121 0 0
-0.4112 0.6551 -0.6972 0.600 -0.797 -0.067 180 158 140 0 0
-0.3953 0.6792 -0.6930 0.589 0.104 0.801 168 145 127 0 0
-0.3962 0.6823 -0.6937 0.343 -0.000 0.939 169 147 128 0 0
-0.3956 0.6921 -0.6944 0.357 0.363 0.861 185 164 144 0 0
-0.3858 0.6942 -0.6906 0.991 0.133 0.010 187 167 148 0 0
-0.3889 0.6985 -0.6923 0.597 -0.781 0.185 182 162 143 0 0
-0.3891 0.7012 -0.6926 0.870 -0.484 -0.089 176 154 137 0 0
-0.3947 0.7070 -0.6955 0.888 -0.432 -0.158 169 145 127 0 0
-0.4004 0.7261 -0.6998 0.527 0.454 0.718 163 139 122 0 0
-0.3963 0.7262 -0.6981 0.027 -0.999 -0.017 164 139 121 0 0
-0.3961 0.7340 -0.6987 0.051 -0.959 -0.280 174 149 130 0 0
-0.3672 0.7269 -0.6862 0.531 -0.826 0.189 179 154 134 0 0
-0.3675 0.7323 -0.6868 0.939 -0.335 -0.082 183 159 142 0 0
-0.3667 0.7344 -0.6867 0.986 -0.168 0.020 176 151 134 0 0
-0.3548 0.7610 -0.6844 0.716 0.408 0.567 178 155 138 0 0
-0.3579 0.7658 -0.6862 0.391 0.336 0.857 179 156 137 0 0
-0.3571 0.7896 -0.6882 0.172 -0.580 0.797 192 175 156 0 0
-0.3297 0.8029 -0.6782 0.683 -0.586 0.435 186 164 146 0 0
-0.3293 0.8054 -0.6783 0.875 -0.430 -0.223 184 161 142 0 0
-0.3282 0.8073 -0.6780 0.858 -0.461 -0.225 179 157 138 0 0
-0.3308 0.8202 -0.6804 0.485 -0.733 -0.477 177 152 134 0 0
-0.3283 0.8211 -0.6794 0.484 -0.675 -0.558 178 152 135 0 0
-0.3209 0.8267 -0.6769 0.800 -0.551 -0.239 177 158 140 0 0
-0.3174 0.8407 -0.6769 0.928 -0.160 0.337 176 154 138 0 0
-0.3170 0.8432 -0.6769 0.928 -0.160 0.337 164 140 124 0 0
-0.3162 0.8511 -0.6774 0.515 0.004 0.857 158 136 120 0 0
-0.2603 0.9156 -0.6607 0.272 -0.651 0.709 168 143 129 0 0
-0.2597 0.9181 -0.6607 0.597 -0.504 0.624 173 151 134 0 0
-0.2578 0.9192 -0.6600 0.609 -0.269 0.747 174 153 136 0 0
-0.2552 0.9198 -0.6590 -0.051 -0.968 0.246 174 153 134 0 0
-0.2490 0.9198 -0.6565 0.232 -0.822 0.520 170 149 130 0 0
-0.2446 0.9215 -0.6548 -0.099 -0.914 0.394 169 148 131 0 0
-0.2391 0.9222 -0.6526 -0.166 -0.965 0.204 174 154 137 0 0
-0.2250 1.0176 -0.6562 0.219 -0.186 0.958 163 138 124 0 0
-0.2241 1.0198 -0.6561 0.046 -0.502 0.864 154 131 117 0 0
-0.2171 1.0247 -0.6536 0.801 -0.590 0.100 141 118 105 0 0
-0.2131 1.0460 -0.6541 -0.003 -0.200 0.980 191 176 163 0 0
-0.2107 1.0465 -0.6532 0.104 -0.071 0.992 195 181 167 0 0
-0.2097 1.0486 -0.6530 0.241 0.010 0.970 196 181 166 0 0
-0.2097 1.0518 -0.6533 0.229 -0.009 0.973 199 186 172 0 0
-0.2099 1.0553 -0.6537 0.193 -0.033 0.981 196 182 169 0 0
-0.2097 1.0584 -0.6539 0.161 -0.097 0.982 186 170 155 0 0
-0.2090 1.0608 -0.6539 0.187 -0.034 0.982 177 158 142 0 0
-0.2093 1.0644 -0.6544 0.550 0.278 0.787 175 156 137 0 0
-0.2100 1.0686 -0.6551 0.485 0.234 0.842 175 154 137 0 0
-0.1602 1.1037 -0.6380 0.249 -0.871 0.423 159 138 125 0 0
-0.1574 1.1068 -0.6372 0.820 -0.563 -0.107 163 144 129 0 0
-0.1498 1.1412 -0.6374 0.743 -0.286 0.606 186 172 163 0 0
-0.1470 1.1513 -0.6373 0.813 -0.257 0.522 165 146 131 0 0
-0.1464 1.1540 -0.6373 0.337 -0.913 0.228 159 137 119 0 0
-0.1456 1.1563 -0.6372 0.829 -0.029 0.558 158 138 122 0 0
-0.1446 1.1585 -0.6370 0.824 -0.314 0.472 156 135 118 0 0
-0.1432 1.1600 -0.6365 0.605 -0.499 0.621 158 136 122 0 0
-0.1327 1.1806 -0.6343 0.577 -0.663 0.477 166 148 132 0 0
-0.1293 1.1828 -0.6331 0.809 -0.397 0.433 165 147 132 0 0
-0.1284 1.1850 -0.6329 0.809 -0.397 0.433 164 147 132 0 0
-0.1232 1.2027 -0.6325 0.989 -0.131 0.069 167 150 138 0 0
-0.1220 1.2046 -0.6322 0.837 -0.066 0.543 164 145 131 0 0
-0.1218 1.2079 -0.6324 0.536 -0.421 0.732 158 140 125 0 0
-0.1171 1.2118 -0.6309 0.087 -0.576 0.813 173 156 145 0 0
-0.1157 1.2133 -0.6305 0.395 -0.283 0.874 171 153 140 0 0
-0.1149 1.2157 -0.6304 0.491 -0.183 0.852 164 147 134 0 0
-0.1160 1.2361 -0.6328 0.607 -0.040 0.794 164 146 133 0 0
-0.1156 1.2393 -0.6330 0.740 -0.034 0.671 169 150 137 0 0
-0.1140 1.2405 -0.6324 0.565 -0.163 0.809 165 146 133 0 0
-0.1132 1.2431 -0.6324 0.565 -0.163 0.809 157 138 125 0 0
-0.1118 1.2446 -0.6320 0.717 0.036 0.697 146 127 114 0 0
-0.1119 1.2523 -0.6327 0.353 -0.927 0.129 125 107 94 0 0
-0.1119 1.2563 -0.6332 0.946 -0.317 -0.070 126 108 96 0 0
-0.1041 1.2626 -0.6305 -0.057 -0.756 -0.652 145 126 115 0 0
-0.0879 1.2820 -0.6258 0.092 -0.612 0.786 161 143 127 0 0
-0.0875 1.2852 -0.6259 0.697 -0.424 0.579 161 142 128 0 0
-0.0768 1.3183 -0.6248 0.552 -0.289 0.782 161 141 124 0 0
-0.0744 1.3179 -0.6238 0.787 -0.181 0.589 155 134 118 0 0
-0.0732 1.3199 -0.6235 0.343 -0.539 0.769 150 129 113 0 0
-0.0720 1.3216 -0.6231 0.117 -0.901 0.417 151 132 116 0 0
-0.0698 1.3217 -0.6222 -0.049 -0.979 0.200 157 137 122 0 0
-0.0676 1.3218 -0.6213 -0.016 -0.997 0.080 162 143 127 0 0
-0.0611 1.3219 -0.6187 0.531 -0.576 0.622 165 148 132 0 0
-0.0598 1.3235 -0.6183 0.531 -0.576 0.622 171 153 138 0 0
-0.0584 1.3251 -0.6179 0.531 -0.576 0.622 171 154 140 0 0
-0.0571 1.3267 -0.6175 0.531 -0.576 0.622 171 153 141 0 0
-0.0556 1.3279 -0.6170 0.719 -0.500 0.482 167 151 138 0 0
-0.6312 0.2480 -0.7500 0.139 -0.574 0.807 170 146 123 0 0
-0.6286 0.2498 -0.7491 0.143 -0.638 0.757 169 145 122 0 0
-0.6277 0.2517 -0.7489 -0.008 -0.830 0.558 169 144 121 0 0
-0.6215 0.2531 -0.7465 -0.016 -0.840 0.542 168 144 119 0 0
-0.6028 0.2753 -0.7410 0.571 -0.282 0.771 174 154 132 0 0
-0.6159 0.3180 -0.7507 0.147 -0.406 0.902 140 116 98 0 0
-0.6146 0.3199 -0.7503 0.157 -0.375 0.914 130 108 87 0 0
-0.5842 0.3446 -0.7402 0.163 -0.973 0.161 170 147 127 0 0
-0.5808 0.3461 -0.7390 0.509 -0.432 0.745 170 145 124 0 0
-0.5321 0.4391 -0.7281 0.766 -0.598 0.235 185 163 141 0 0
-0.5204 0.4382 -0.7231 0.263 -0.824 0.502 173 151 129 0 0
-0.5205 0.4470 -0.7240 0.557 -0.831 0.009 163 138 117 0 0
-0.5194 0.4489 -0.7238 0.641 -0.705 0.304 159 136 115 0 0
-0.5171 0.4549 -0.7235 0.790 -0.435 0.432 187 170 152 0 0
-0.4828 0.5233 -0.7160 0.402 -0.916 -0.012 173 152 130 0 0
-0.4703 0.5560 -0.7141 0.642 -0.748 0.168 184 158 141 0 0
-0.4684 0.5576 -0.7135 0.849 -0.518 0.106 184 161 143 0 0
-0.4654 0.5611 -0.7126 0.542 -0.815 -0.207 185 164 144 0 0
-0.4370 0.5968 -0.7044 0.426 -0.891 0.158 177 154 134 0 0
-0.4164 0.6259 -0.6988 0.609 0.146 0.780 154 129 112 0 0
-0.4165 0.6333 -0.6996 0.675 0.071 0.734 134 111 94 0 0
-0.4164 0.6357 -0.6998 0.537 -0.085 0.839 137 113 98 0 0
-0.4155 0.6377 -0.6996 0.356 0.038 0.934 144 119 102 0 0
-0.4130 0.6390 -0.6987 0.265 -0.761 0.592 154 129 109 0 0
-0.4114 0.6406 -0.6982 0.286 -0.746 0.601 160 134 115 0 0
-0.3930 0.6783 -0.6943 0.635 0.079 0.768 172 150 129 0 0
-0.3932 0.6809 -0.6947 0.433 -0.070 0.898 175 154 136 0 0
-0.3915 0.6850 -0.6944 0.245 -0.500 0.830 175 153 135 0 0
-0.3889 0.6988 -0.6947 0.820 -0.429 -0.379 177 156 135 0 0
-0.3934 0.7066 -0.6973 0.956 -0.016 -0.293 168 144 127 0 0
-0.4034 0.7308 -0.7038 0.530 0.562 0.635 161 135 116 0 0
-0.3906 0.7258 -0.6981 0.041 -0.972 0.231 162 136 120 0 0
-0.3888 0.7273 -0.6974 0.101 -0.987 0.125 167 143 126 0 0
-0.3661 0.7344 -0.6888 0.861 -0.309 -0.405 172 145 130 0 0
-0.3651 0.7363 -0.6886 0.846 -0.368 -0.386 171 145 129 0 0
-0.3644 0.7385 -0.6885 0.758 -0.589 -0.279 173 147 132 0 0
-0.3627 0.7400 -0.6879 0.563 -0.763 0.318 176 151 136 0 0
-0.3545 0.7611 -0.6866 0.376 0.260 0.889 184 161 143 0 0
-0.3330 0.7866 -0.6803 0.347 0.406 0.846 190 173 157 0 0
-0.3346 0.7986 -0.6821 -0.074 -0.566 0.821 185 162 146 0 0
-0.3264 0.8036 -0.6792 0.683 -0.671 0.290 174 150 130 0 0
-0.3318 0.8214 -0.6833 0.632 -0.638 -0.441 173 146 129 0 0
-0.2900 0.8785 -0.6716 -0.065 -0.533 0.844 166 145 127 0 0
-0.2539 0.9161 -0.6605 0.101 -0.163 0.981 172 150 134 0 0
-0.2529 0.9180 -0.6602 0.083 -0.401 0.912 174 152 136 0 0
-0.2493 0.9176 -0.6587 -0.231 -0.921 0.314 175 154 137 0 0
-0.2462 0.9176 -0.6574 0.411 -0.738 0.536 174 153 136 0 0
-0.2427 0.9172 -0.6559 0.248 -0.605 0.756 171 150 133 0 0
-0.2352 0.9424 -0.6553 0.852 0.146 0.503 205 196 189 0 0
-0.2357 0.9459 -0.6559 0.889 0.043 0.455 208 199 192 0 0
-0.2423 0.9799 -0.6620 0.967 0.251 0.035 164 145 129 0 0
-0.2433 0.9840 -0.6628 0.967 0.251 0.035 155 135 119 0 0
-0.2219 1.0115 -0.6567 0.230 -0.116 0.966 174 156 141 0 0
-0.2228 1.0157 -0.6575 0.102 -0.271 0.957 170 149 135 0 0
-0.2215 1.0173 -0.6571 -0.005 -0.431 0.902 166 143 130 0 0
-0.2202 1.0223 -0.6571 0.199 -0.931 0.306 142 120 107 0 0
-0.2184 1.0235 -0.6564 0.589 -0.807 0.045 134 112 99 0 0
-0.2164 1.0244 -0.6557 0.638 -0.765 -0.087 133 111 98 0 0
-0.2098 1.0234 -0.6529 -0.031 -0.979 0.203 150 130 116 0 0
-0.2085 1.0251 -0.6525 -0.217 -0.917 0.334 166 148 132 0 0
-0.2078 1.0275 -0.6524 -0.241 -0.824 0.513 170 151 136 0 0
-0.2106 1.0339 -0.6543 0.008 -0.247 0.969 174 156 140 0 0
-0.2095 1.0359 -0.6540 0.075 -0.099 0.992 179 161 145 0 0
-0.2092 1.0387 -0.6541 0.120 -0.057 0.991 184 166 152 0 0
-0.2097 1.0426 -0.6547 0.053 -0.146 0.988 187 170 157 0 0
-0.2075 1.0433 -0.6539 0.201 0.002 0.980 194 178 165 0 0
-0.2062 1.0450 -0.6535 0.319 0.096 0.943 194 178 163 0 0
-0.2065 1.0487 -0.6540 0.335 0.061 0.940 196 182 167 0 0
-0.2065 1.0519 -0.6544 0.287 0.004 0.958 195 180 166 0 0
-0.2058 1.0543 -0.6543 0.054 -0.251 0.966 188 170 156 0 0
-0.2048 1.0564 -0.6541 0.177 -0.097 0.979 183 165 151 0 0
-0.2061 1.0612 -0.6551 0.511 0.275 0.815 179 162 146 0 0
-0.2070 1.0656 -0.6559 0.520 0.270 0.810 180 161 146 0 0
-0.1592 1.1030 -0.6399 0.230 -0.812 0.537 161 141 127 0 0
-0.1580 1.1082 -0.6399 0.886 -0.408 -0.220 160 141 126 0 0
-0.1583 1.1154 -0.6407 0.907 0.031 -0.420 154 133 119 0 0
-0.1485 1.1400 -0.6391 0.697 -0.649 0.304 188 175 167 0 0
-0.1419 1.1588 -0.6383 0.774 -0.523 0.356 157 135 121 0 0
-0.1357 1.1748 -0.6373 0.686 -0.724 -0.066 158 138 123 0 0
-0.1343 1.1763 -0.6369 0.601 -0.795 -0.080 158 140 125 0 0
-0.1285 1.1751 -0.6344 0.910 -0.221 -0.352 161 143 128 0 0
-0.1273 1.1805 -0.6344 0.458 -0.815 -0.354 161 144 128 0 0
-0.1230 1.2030 -0.6348 0.989 -0.131 0.069 171 154 142 0 0
-0.1208 1.2033 -0.6340 0.976 -0.028 0.218 164 145 132 0 0
-0.1210 1.2074 -0.6345 0.618 -0.786 0.035 162 143 130 0 0
-0.1193 1.2085 -0.6339 0.521 -0.787 0.330 166 147 134 0 0
-0.1177 1.2097 -0.6333 0.296 -0.920 0.258 171 154 144 0 0
-0.1159 1.2105 -0.6326 0.183 -0.944 0.276 178 164 153 0 0
-0.1143 1.2118 -0.6321 0.527 -0.665 0.529 178 163 150 0 0
-0.1134 1.2364 -0.6342 0.621 0.032 0.783 167 148 135 0 0
-0.1104 1.2469 -0.6340 0.562 -0.028 0.826 139 119 107 0 0
-0.1115 1.2525 -0.6350 0.460 -0.811 0.363 129 111 99 0 0
-0.1116 1.2564 -0.6354 0.967 -0.242 0.084 131 113 100 0 0
-0.0857 1.2829 -0.6274 0.599 0.033 0.800 160 142 129 0 0
-0.0854 1.2862 -0.6276 0.663 -0.035 0.748 156 138 124 0 0
-0.0821 1.2964 -0.6272 -0.012 -0.816 0.578 183 166 151 0 0
-0.0727 1.3157 -0.6253 0.791 -0.061 0.608 154 135 120 0 0
-0.0712 1.3210 -0.6252 0.210 -0.966 0.150 142 124 110 0 0
-0.0671 1.3215 -0.6235 0.144 -0.989 0.023 152 133 118 0 0
-0.0605 1.3215 -0.6208 0.415 -0.723 0.553 165 146 131 0 0
-0.0548 1.3272 -0.6190 0.701 -0.453 0.551 161 145 132 0 0
-0.6728 0.1508 -0.7599 0.332 -0.722 0.607 170 144 121 0 0
-0.6537 0.1867 -0.7555 0.148 0.093 0.985 186 165 141 0 0
-0.6130 0.2605 -0.7460 0.622 -0.136 0.771 156 129 108 0 0
-0.6150 0.3034 -0.7512 0.955 -0.148 0.256 155 129 110 0 0
-0.6143 0.3054 -0.7511 0.945 -0.262 0.197 157 132 113 0 0
-0.5690 0.3380 -0.7356 0.435 -0.045 0.899 173 151 131 0 0
-0.5710 0.3404 -0.7366 0.209 -0.141 0.968 172 150 128 0 0
-0.5578 0.3865 -0.7358 0.191 -0.877 0.440 161 136 116 0 0
-0.5405 0.4085 -0.7308 0.534 -0.639 0.554 189 168 150 0 0
-0.5409 0.4108 -0.7312 0.789 -0.502 0.355 186 165 146 0 0
-0.5248 0.4417 -0.7276 0.281 -0.948 0.147 169 144 122 0 0
-0.5229 0.4456 -0.7272 0.612 -0.775 0.158 164 139 118 0 0
-0.5179 0.4465 -0.7252 0.828 -0.532 -0.179 155 132 111 0 0
-0.5151 0.4568 -0.7251 0.767 -0.623 0.153 186 168 151 0 0
-0.5012 0.5160 -0.7253 0.265 -0.924 -0.275 129 106 88 0 0
-0.4943 0.5183 -0.7226 0.159 -0.962 -0.220 122 100 83 0 0
-0.4925 0.5200 -0.7221 0.190 -0.978 -0.085 126 103 86 0 0
-0.4670 0.5270 -0.7122 0.521 -0.835 -0.178 178 157 136 0 0
-0.4707 0.5563 -0.7167 0.815 -0.579 -0.032 181 158 139 0 0
-0.4377 0.5950 -0.7069 0.295 -0.942 0.158 183 161 142 0 0
-0.4367 0.5969 -0.7066 0.544 -0.839 0.030 174 153 132 0 0
-0.4357 0.6037 -0.7069 0.609 -0.072 0.790 180 158 138 0 0
-0.4159 0.6357 -0.7019 0.876 0.020 0.481 137 114 97 0 0
-0.4158 0.6381 -0.7021 0.872 -0.376 0.314 138 115 97 0 0
-0.4141 0.6398 -0.7016 0.372 -0.779 -0.504 142 117 98 0 0
-0.4072 0.6536 -0.7001 0.399 -0.599 0.695 155 129 113 0 0
-0.4079 0.6564 -0.7006 0.165 -0.977 0.138 168 142 125 0 0
-0.4034 0.6591 -0.6991 0.661 -0.478 0.578 168 144 128 0 0
-0.4033 0.6615 -0.6992 0.693 -0.037 0.720 166 142 124 0 0
-0.3859 0.6948 -0.6954 0.991 0.133 0.010 173 149 131 0 0
-0.3893 0.6994 -0.6972 0.847 -0.128 -0.516 169 145 126 0 0
-0.3923 0.7063 -0.6992 0.851 -0.288 -0.439 155 132 114 0 0
-0.3933 0.7120 -0.7001 0.989 -0.035 -0.143 150 124 107 0 0
-0.3908 0.7131 -0.6992 0.810 -0.560 0.174 146 122 105 0 0
-0.3758 0.7276 -0.6944 0.258 -0.920 -0.295 176 153 133 0 0
-0.3656 0.7291 -0.6904 0.729 -0.681 0.069 172 147 128 0 0
-0.3652 0.7315 -0.6904 0.935 -0.305 0.183 170 145 127 0 0
-0.3639 0.7359 -0.6903 0.931 -0.312 -0.189 168 140 122 0 0
-0.3617 0.7397 -0.6898 0.713 -0.699 -0.055 173 147 131 0 0
-0.3538 0.7583 -0.6884 0.311 0.412 0.856 183 162 143 0 0
-0.3266 0.8041 -0.6817 0.619 -0.505 0.602 166 139 121 0 0
-0.3254 0.8197 -0.6828 0.579 -0.813 -0.058 171 148 127 0 0
-0.2893 0.8528 -0.6711 0.593 0.226 0.773 169 147 132 0 0
-0.2720 0.9096 -0.6696 -0.107 -0.878 0.467 174 153 134 0 0
-0.2522 0.9119 -0.6617 -0.006 -0.334 0.943 171 148 131 0 0
-0.2499 0.9186 -0.6614 0.875 -0.312 0.370 175 154 136 0 0
-0.2390 0.9200 -0.6570 0.032 -0.495 0.868 171 150 135 0 0
-0.2343 0.9420 -0.6572 0.882 0.221 0.416 201 191 185 0 0
-0.2345 0.9452 -0.6577 0.880 0.153 0.450 205 195 188 0 0
-0.2229 1.0036 -0.6587 0.176 0.077 0.981 176 158 144 0 0
-0.2167 1.0064 -0.6564 0.242 0.051 0.969 178 160 147 0 0
-0.2158 1.0243 -0.6578 0.269 -0.751 0.603 128 106 92 0 0
-0.2132 1.0246 -0.6568 -0.023 -0.930 0.366 133 111 98 0 0
-0.2104 1.0246 -0.6556 -0.165 -0.919 0.359 154 134 120 0 0
-0.2041 1.0239 -0.6529 -0.326 -0.925 0.193 160 139 122 0 0
-0.2022 1.0281 -0.6525 0.109 -0.498 0.861 173 155 140 0 0
-0.2048 1.0342 -0.6542 0.281 -0.148 0.948 183 165 151 0 0
-0.2047 1.0374 -0.6545 0.344 -0.071 0.936 187 170 156 0 0
-0.2024 1.0379 -0.6536 0.488 0.212 0.847 192 176 163 0 0
-0.2031 1.0420 -0.6543 0.570 0.218 0.792 192 176 162 0 0
-0.2037 1.0459 -0.6550 0.570 0.218 0.792 192 176 163 0 0
-0.2043 1.0498 -0.6556 0.515 0.171 0.840 190 174 161 0 0
-0.2027 1.0513 -0.6551 0.054 -0.222 0.974 187 170 158 0 0
-0.1999 1.0512 -0.6539 -0.044 -0.202 0.978 187 170 156 0 0
-0.1986 1.0562 -0.6539 0.145 0.143 0.979 184 166 152 0 0
-0.1592 1.1001 -0.6419 0.278 -0.622 0.732 178 160 147 0 0
-0.1582 1.1124 -0.6427 0.981 0.180 -0.066 159 138 124 0 0
-0.1498 1.1388 -0.6419 0.742 -0.661 0.111 181 167 157 0 0
-0.1484 1.1404 -0.6415 0.746 -0.660 0.093 183 170 161 0 0
-0.1468 1.1418 -0.6410 0.773 -0.635 0.012 182 168 159 0 0
-0.1455 1.1434 -0.6406 0.704 -0.544 0.457 180 165 155 0 0
-0.1406 1.1575 -0.6400 0.209 -0.933 0.294 154 133 117 0 0
-0.1321 1.1703 -0.6377 0.918 -0.259 -0.300 163 144 130 0 0
-0.1312 1.1725 -0.6376 0.935 -0.282 -0.216 167 149 133 0 0
-0.1292 1.1767 -0.6372 0.910 -0.221 -0.352 163 146 131 0 0
-0.1276 1.1815 -0.6370 0.458 -0.815 -0.354 159 142 127 0 0
-0.1218 1.1837 -0.6348 0.852 0.005 0.523 166 148 135 0 0
-0.1235 1.1971 -0.6368 0.847 -0.228 0.480 173 158 146 0 0
-0.1228 1.1997 -0.6368 0.864 -0.179 0.471 171 154 144 0 0
-0.1222 1.2025 -0.6369 0.848 -0.371 0.379 165 148 134 0 0
-0.1212 1.2046 -0.6366 0.967 -0.255 0.030 159 141 127 0 0
-0.1070 1.2458 -0.6349 0.237 -0.153 0.959 134 116 104 0 0
-0.0781 1.2980 -0.6281 0.276 -0.600 0.751 186 172 162 0 0
-0.0738 1.3184 -0.6284 0.766 0.065 0.640 153 133 119 0 0
-0.0722 1.3196 -0.6279 0.539 -0.534 0.651 144 125 110 0 0
-0.0660 1.3203 -0.6253 -0.088 -0.964 -0.250 138 119 104 0 0
-0.0641 1.3209 -0.6246 -0.157 -0.986 -0.051 145 127 110 0 0
-0.6809 0.1339 -0.7638 0.109 -0.960 0.258 169 145 121 0 0
-0.6799 0.1433 -0.7644 0.192 -0.693 0.695 174 151 126 0 0
-0.6775 0.1452 -0.7635 0.273 -0.508 0.817 174 151 127 0 0
-0.6111 0.3072 -0.7523 0.972 -0.016 0.234 158 133 114 0 0
-0.5685 0.3675 -0.7406 0.924 -0.172 0.342 159 133 114 0 0
-0.5603 0.3851 -0.7390 0.195 -0.941 0.277 162 138 115 0 0
-0.5559 0.3863 -0.7373 0.067 -0.885 0.460 163 136 115 0 0
-0.5436 0.3922 -0.7328 0.635 -0.475 0.609 169 144 124 0 0
-0.5424 0.3941 -0.7325 0.735 -0.570 0.368 166 142 119 0 0
-0.5415 0.3960 -0.7323 0.730 -0.163 0.664 168 145 123 0 0
-0.5411 0.4045 -0.7330 0.767 0.018 0.641 179 157 134 0 0
-0.5400 0.4107 -0.7331 0.824 -0.442 0.355 179 157 136 0 0
-0.5390 0.4127 -0.7329 0.824 -0.442 0.355 177 154 132 0 0
-0.5326 0.4133 -0.7303 0.540 -0.840 0.044 164 138 117 0 0
-0.5317 0.4240 -0.7310 0.034 -0.949 0.314 169 145 123 0 0
-0.5265 0.4248 -0.7289 0.009 -0.934 0.357 176 151 128 0 0
-0.5243 0.4418 -0.7297 0.260 -0.935 0.241 168 145 122 0 0
-0.5105 0.4623 -0.7261 0.870 -0.486 -0.081 158 133 113 0 0
-0.5062 0.5087 -0.7290 0.041 0.092 0.995 145 121 98 0 0
-0.4982 0.5198 -0.7268 0.146 -0.987 -0.065 118 97 79 0 0
-0.4932 0.5204 -0.7248 0.146 -0.987 -0.065 121 98 82 0 0
-0.4894 0.5214 -0.7233 0.228 -0.963 -0.145 138 114 98 0 0
-0.4548 0.5691 -0.7137 0.519 -0.449 0.727 163 138 118 0 0
-0.4599 0.5760 -0.7165 0.624 -0.754 0.207 169 146 126 0 0
-0.4587 0.5779 -0.7162 0.897 -0.223 0.382 171 147 130 0 0
-0.4580 0.5800 -0.7161 0.966 -0.158 0.203 169 146 128 0 0
-0.4581 0.5825 -0.7164 0.948 0.070 0.311 161 136 117 0 0
-0.4582 0.5849 -0.7167 0.948 0.070 0.311 168 145 127 0 0
-0.4548 0.5859 -0.7154 0.538 -0.772 0.339 178 157 139 0 0
-0.4427 0.5926 -0.7110 0.411 -0.857 0.309 175 151 131 0 0
-0.4391 0.5934 -0.7096 0.456 -0.739 0.496 176 153 134 0 0
-0.4378 0.5953 -0.7092 0.423 -0.787 0.449 176 153 134 0 0
-0.4117 0.6389 -0.7028 0.638 -0.705 0.310 151 125 108 0 0
-0.4106 0.6408 -0.7025 0.567 -0.823 -0.042 150 124 107 0 0
-0.4103 0.6455 -0.7029 0.790 -0.494 0.364 154 128 113 0 0
-0.4048 0.6502 -0.7011 0.604 0.004 0.797 155 129 112 0 0
-0.4047 0.6551 -0.7015 0.316 -0.457 0.832 165 139 122 0 0
-0.4036 0.6570 -0.7013 0.177 -0.929 0.325 166 141 123 0 0
-0.4031 0.6592 -0.7012 0.667 -0.669 0.329 167 142 124 0 0
-0.3861 0.6851 -0.6968 0.180 -0.279 0.943 173 148 127 0 0
-0.3930 0.7069 -0.7019 0.641 -0.665 -0.383 146 124 107 0 0
-0.3868 0.7137 -0.7000 0.606 -0.682 0.409 145 121 105 0 0
-0.3779 0.7188 -0.6968 0.428 -0.904 -0.024 164 138 120 0 0
-0.3785 0.7217 -0.6974 0.926 -0.251 0.282 165 142 122 0 0
-0.3787 0.7245 -0.6977 0.936 -0.138 0.323 177 153 133 0 0
-0.3755 0.7278 -0.6967 0.432 -0.882 -0.188 180 157 139 0 0
-0.3597 0.7388 -0.6913 0.984 -0.116 0.137 162 134 118 0 0
-0.3445 0.7711 -0.6882 -0.060 -0.103 0.993 205 191 176 0 0
-0.3428 0.7780 -0.6882 0.068 0.148 0.987 200 184 169 0 0
-0.3254 0.7820 -0.6813 0.391 0.421 0.819 192 175 160 0 0
-0.3262 0.8014 -0.6836 0.584 -0.288 0.759 165 139 122 0 0
-0.3257 0.8038 -0.6837 0.676 -0.326 0.661 160 132 117 0 0
-0.3166 0.8356 -0.6831 0.781 -0.619 0.082 178 157 139 0 0
-0.3129 0.8383 -0.6818 0.328 -0.291 0.899 169 147 130 0 0
-0.2783 0.8750 -0.6711 0.027 -0.555 0.831 176 158 143 0 0
-0.2767 0.8765 -0.6706 0.737 -0.226 0.638 170 151 135 0 0
-0.2771 0.8798 -0.6711 0.893 -0.117 0.435 168 146 130 0 0
-0.2696 0.9079 -0.6708 -0.120 -0.858 0.499 177 156 137 0 0
-0.2514 0.9087 -0.6633 -0.151 -0.844 0.515 167 144 128 0 0
-0.2498 0.9102 -0.6628 0.005 -0.676 0.737 167 144 128 0 0
-0.2486 0.9148 -0.6627 0.507 -0.260 0.822 173 151 135 0 0
-0.2427 0.9123 -0.6601 0.825 0.216 0.523 172 150 132 0 0
-0.2351 0.9138 -0.6570 0.338 -0.103 0.935 170 148 131 0 0
-0.2335 0.9151 -0.6565 0.348 -0.219 0.912 170 149 132 0 0
-0.2333 0.9415 -0.6591 0.882 0.221 0.416 194 184 177 0 0
-0.2192 1.0001 -0.6592 0.275 0.238 0.932 180 162 152 0 0
-0.2177 1.0016 -0.6587 0.012 -0.124 0.992 179 163 150 0 0
-0.2140 1.0070 -0.6577 0.118 -0.171 0.978 174 154 142 0 0
-0.2125 1.0243 -0.6588 -0.145 -0.732 0.665 133 111 98 0 0
-0.2105 1.0252 -0.6581 -0.183 -0.829 0.529 148 127 114 0 0
-0.2079 1.0255 -0.6570 -0.179 -0.850 0.496 150 131 116 0 0
-0.1998 1.0258 -0.6536 0.168 -0.504 0.847 170 151 138 0 0
-0.1973 1.0262 -0.6527 0.295 -0.458 0.838 179 163 149 0 0
-0.1972 1.0293 -0.6529 0.402 -0.241 0.883 183 167 153 0 0
-0.1992 1.0379 -0.6546 0.491 0.260 0.832 189 173 159 0 0
-0.1999 1.0420 -0.6554 0.528 0.309 0.791 185 169 156 0 0
-0.2011 1.0467 -0.6563 0.528 0.309 0.791 188 170 158 0 0
-0.1958 1.0502 -0.6545 0.055 -0.021 0.998 186 168 155 0 0
-0.1901 1.0532 -0.6524 -0.202 -0.429 0.880 190 173 163 0 0
-0.1842 1.0756 -0.6522 0.089 0.090 0.992 180 164 151 0 0
-0.1579 1.0957 -0.6433 0.797 -0.130 0.590 182 165 153 0 0
-0.1575 1.0984 -0.6434 0.673 -0.243 0.698 172 154 141 0 0
-0.1573 1.1016 -0.6436 0.360 -0.757 0.545 165 147 131 0 0
-0.1564 1.1038 -0.6435 0.583 -0.709 0.397 165 144 125 0 0
-0.1573 1.1084 -0.6443 0.817 -0.495 0.295 161 142 126 0 0
-0.1586 1.1134 -0.6454 0.898 0.385 0.215 160 139 123 0 0
-0.1563 1.1344 -0.6466 -0.390 -0.920 -0.028 151 129 116 0 0
-0.1479 1.1403 -0.6436 0.771 -0.633 0.068 178 164 154 0 0
-0.1466 1.1420 -0.6433 0.773 -0.635 0.012 180 164 156 0 0
-0.1447 1.1429 -0.6426 0.704 -0.544 0.457 177 161 152 0 0
-0.1319 1.1670 -0.6397 0.397 -0.678 0.618 164 146 131 0 0
-0.1307 1.1687 -0.6393 0.933 0.076 0.352 164 146 132 0 0
-0.1310 1.1763 -0.6402 0.965 -0.216 0.150 175 157 142 0 0
-0.1304 1.1790 -0.6403 0.965 -0.216 0.150 172 154 140 0 0
-0.1280 1.1828 -0.6397 0.508 -0.846 -0.163 160 143 127 0 0
-0.1262 1.1837 -0.6390 0.508 -0.846 -0.163 166 148 132 0 0
-0.1227 1.1966 -0.6389 0.862 -0.234 0.450 167 149 135 0 0
-0.1219 1.1990 -0.6387 0.847 -0.228 0.480 162 143 129 0 0
-0.1209 1.2011 -0.6385 0.783 -0.290 0.550 155 136 122 0 0
-0.1210 1.2050 -0.6390 0.967 -0.255 0.030 152 134 120 0 0
-0.1194 1.2061 -0.6384 0.941 -0.337 0.036 154 135 121 0 0
-0.1065 1.2496 -0.6375 0.473 0.241 0.847 148 128 116 0 0
-0.0768 1.2964 -0.6298 0.260 -0.505 0.823 190 177 167 0 0
-0.0752 1.2975 -0.6293 0.304 -0.620 0.723 190 177 167 0 0
-0.6767 0.1322 -0.7642 -0.060 -0.624 0.779 172 148 124 0 0
-0.6776 0.1341 -0.7647 0.109 -0.960 0.258 169 145 122 0 0
-0.6665 0.1361 -0.7603 0.610 0.479 0.631 167 144 120 0 0
-0.6684 0.1379 -0.7613 0.699 0.636 0.328 168 144 120 0 0
-0.6659 0.1566 -0.7622 0.660 0.606 0.443 172 147 125 0 0
-0.6659 0.1585 -0.7623 0.338 0.140 0.930 170 144 123 0 0
-0.6164 0.2276 -0.7487 0.620 -0.776 0.117 164 139 120 0 0
-0.6158 0.2491 -0.7506 0.270 -0.849 0.454 166 141 118 0 0
-0.6035 0.2638 -0.7470 0.926 -0.343 -0.157 166 141 120 0 0
-0.6001 0.2654 -0.7457 0.683 -0.728 -0.058 166 144 123 0 0
-0.5981 0.2672 -0.7451 0.696 -0.708 0.116 168 146 125 0 0
-0.5663 0.3358 -0.7388 0.637 -0.257 0.727 177 156 135 0 0
-0.5691 0.3763 -0.7441 0.962 0.191 0.193 175 153 129 0 0
-0.5634 0.3773 -0.7419 0.486 -0.846 0.221 173 149 126 0 0
-0.5613 0.3790 -0.7411 0.286 -0.946 0.150 171 147 124 0 0
-0.5570 0.3803 -0.7395 0.168 -0.942 0.292 170 145 123 0 0
-0.5410 0.3939 -0.7342 0.758 -0.434 0.487 176 153 130 0 0
-0.5401 0.4002 -0.7344 0.878 0.298 0.375 161 133 113 0 0
-0.5379 0.4061 -0.7341 0.732 -0.116 0.671 176 152 131 0 0
-0.5376 0.4082 -0.7342 0.732 -0.116 0.671 174 148 128 0 0
-0.5386 0.4106 -0.7349 0.730 0.097 0.676 169 143 123 0 0
-0.5384 0.4127 -0.7350 0.624 0.066 0.778 164 138 116 0 0
-0.5347 0.4140 -0.7336 0.509 -0.360 0.782 154 128 105 0 0
-0.5334 0.4159 -0.7332 0.546 -0.692 0.473 152 125 103 0 0
-0.5242 0.4245 -0.7303 -0.040 -0.918 0.394 177 152 129 0 0
-0.5189 0.4253 -0.7281 -0.044 -0.927 0.374 179 154 132 0 0
-0.5111 0.4605 -0.7285 0.968 -0.252 0.014 156 132 111 0 0
-0.5105 0.4625 -0.7284 0.891 -0.449 -0.066 150 126 108 0 0
-0.5053 0.4699 -0.7270 0.482 -0.820 0.309 145 122 104 0 0
-0.4940 0.5210 -0.7275 0.228 -0.963 -0.145 114 91 76 0 0
-0.4591 0.5759 -0.7185 0.629 -0.652 -0.424 158 132 114 0 0
-0.4579 0.5778 -0.7182 0.892 -0.317 -0.322 162 136 119 0 0
-0.4567 0.5845 -0.7184 0.922 0.008 -0.387 162 139 121 0 0
-0.4360 0.5947 -0.7107 0.452 -0.608 0.653 170 148 129 0 0
-0.4036 0.6498 -0.7028 0.254 -0.594 0.763 154 129 111 0 0
-0.3842 0.6869 -0.6985 0.199 0.036 0.979 171 148 129 0 0
-0.3838 0.6892 -0.6986 0.481 0.355 0.801 168 144 123 0 0
-0.3850 0.7155 -0.7018 0.147 -0.943 0.297 148 123 106 0 0
-0.3801 0.7178 -0.7000 0.518 -0.819 0.248 159 134 116 0 0
-0.3774 0.7214 -0.6992 0.840 -0.219 0.496 164 141 121 0 0
-0.3771 0.7238 -0.6993 0.769 0.049 0.638 176 154 133 0 0
-0.3770 0.7263 -0.6995 0.852 0.048 0.522 181 159 139 0 0
-0.3599 0.7366 -0.6934 0.413 -0.169 0.895 152 124 109 0 0
-0.3521 0.7421 -0.6907 0.930 -0.364 -0.046 158 132 117 0 0
-0.3513 0.7442 -0.6906 0.930 -0.364 -0.046 163 136 120 0 0
-0.3386 0.7648 -0.6874 0.152 -0.821 0.551 204 189 174 0 0
-0.3380 0.7697 -0.6877 0.158 -0.155 0.975 208 196 183 0 0
-0.3374 0.7720 -0.6876 0.241 0.137 0.961 206 193 180 0 0
-0.3252 0.8010 -0.6855 0.878 -0.046 0.477 159 131 117 0 0
-0.3242 0.8058 -0.6856 0.894 0.242 0.378 156 129 111 0 0
-0.3243 0.8086 -0.6859 0.908 0.257 0.331 155 127 109 0 0
-0.3260 0.8154 -0.6873 0.698 0.277 0.660 161 134 116 0 0
-0.3220 0.8290 -0.6870 0.647 -0.747 0.152 150 123 106 0 0
-0.2842 0.8549 -0.6739 0.513 -0.049 0.857 192 177 164 0 0
-0.2840 0.8660 -0.6749 0.371 0.118 0.921 187 170 156 0 0
-0.2767 0.8741 -0.6727 0.086 -0.785 0.614 184 166 154 0 0
-0.2757 0.8760 -0.6724 0.806 -0.365 0.467 179 160 145 0 0
-0.2604 0.9029 -0.6688 0.938 -0.021 0.345 173 150 132 0 0
-0.2603 0.9056 -0.6690 0.938 -0.021 0.345 168 145 128 0 0
-0.2595 0.9079 -0.6689 0.431 -0.894 0.123 164 141 124 0 0
-0.2317 0.9463 -0.6612 0.814 0.166 0.557 177 163 153 0 0
-0.2307 0.9482 -0.6610 0.603 0.209 0.770 170 154 141 0 0
-0.2154 0.9965 -0.6596 0.245 0.183 0.952 180 163 151 0 0
-0.2141 0.9982 -0.6591 0.068 -0.084 0.994 179 161 148 0 0
-0.2129 1.0000 -0.6588 0.009 -0.193 0.981 177 159 148 0 0
-0.2116 1.0017 -0.6585 0.062 -0.179 0.982 175 156 145 0 0
-0.2021 1.0227 -0.6567 -0.106 -0.345 0.933 148 127 112 0 0
-0.1870 1.0500 -0.6531 -0.181 -0.404 0.897 188 172 162 0 0
-0.1789 1.0861 -0.6534 -0.163 -0.816 0.554 189 173 159 0 0
-0.1584 1.1070 -0.6470 0.633 0.125 0.764 163 143 127 0 0
