ply
format ascii 1.0
element vertex 816
property float x
property float y
property float z
property float nx
property float ny
property float nz
property uchar diffuse_red
property uchar diffuse_green
property uchar diffuse_blue
property uchar class
property uchar detection
end_header
-4.1826 -3.5694 -5.0245 0.644 0.702 0.305 218 203 208 0 0
-4.1635 -3.5871 -5.0067 0.501 0.792 0.349 215 199 206 0 0
-4.1531 -3.6037 -4.9962 0.639 0.684 0.351 214 199 208 0 0
-4.1476 -3.6195 -4.9897 0.597 0.734 0.322 218 203 210 0 0
-4.1838 -3.8891 -4.9883 0.089 0.297 0.951 221 206 208 0 0
-4.1899 -3.9039 -4.9916 0.286 0.599 0.748 215 200 205 0 0
-4.1803 -3.9198 -4.9818 0.280 0.587 0.760 219 209 219 0 0
-4.1768 -3.9353 -4.9771 0.429 0.354 0.831 221 215 226 0 0
-4.1697 -3.9661 -4.9676 0.429 0.354 0.831 220 212 224 0 0
-4.1690 -3.9965 -4.9635 0.340 0.241 0.909 221 214 224 0 0
-4.1629 -4.0272 -4.9548 0.320 0.403 0.858 218 210 221 0 0
-4.1538 -4.0428 -4.9455 0.302 0.347 0.888 219 211 220 0 0
-4.1500 -4.0582 -4.9406 0.313 0.430 0.847 219 210 219 0 0
-4.1476 -4.0734 -4.9368 0.236 0.381 0.894 219 208 217 0 0
-4.1844 -4.2081 -4.9515 0.401 0.513 0.759 214 199 207 0 0
-4.1703 -4.2388 -4.9363 0.350 0.538 0.767 215 199 209 0 0
-4.1652 -4.2540 -4.9303 0.363 0.609 0.705 216 203 212 0 0
-4.1475 -4.2996 -4.9103 0.319 0.143 0.937 217 204 212 0 0
-4.1481 -4.3147 -4.9091 0.309 0.144 0.940 215 199 209 0 0
-4.1430 -4.4201 -4.8925 0.471 -0.188 0.862 218 203 212 0 0
-4.1411 -4.7053 -4.8577 0.188 -0.105 0.977 206 185 191 0 0
-4.1444 -4.7205 -4.8586 0.147 -0.236 0.960 202 183 196 0 0
-4.1570 -4.7813 -4.8620 0.254 0.331 0.909 211 209 229 0 0
-4.1555 -4.9163 -4.8450 0.601 0.270 0.752 217 199 209 0 0
-4.1533 -4.9311 -4.8415 0.601 0.270 0.752 217 200 208 0 0
-4.1462 -4.9454 -4.8339 0.330 0.208 0.921 215 196 203 0 0
-4.1458 -4.9604 -4.8318 0.436 0.163 0.885 214 192 197 0 0
-4.1456 -4.9753 -4.8299 0.333 0.097 0.938 212 190 192 0 0
-4.1557 -5.3355 -4.7963 0.264 0.145 0.954 219 209 214 0 0
-4.1587 -5.3659 -4.7952 0.600 0.460 0.655 220 210 215 0 0
-4.1569 -5.3805 -4.7920 0.747 -0.302 0.592 218 208 213 0 0
-4.1618 -5.3963 -4.7942 0.635 -0.589 0.500 216 205 209 0 0
-4.1720 -5.5027 -4.7903 0.815 0.077 0.574 216 211 222 0 0
-4.1767 -5.5185 -4.7923 0.595 0.243 0.766 214 207 215 0 0
-4.1756 -5.5333 -4.7897 0.408 0.407 0.817 215 208 213 0 0
-4.1632 -5.5609 -4.7762 0.170 -0.052 0.984 216 208 212 0 0
-4.1540 -5.7825 -4.7427 0.528 0.077 0.846 206 199 207 0 0
-4.1346 -5.8375 -4.7202 0.350 0.435 0.830 210 200 204 0 0
-4.1434 -6.0620 -4.7013 0.441 -0.516 0.735 217 209 208 0 0
-4.1410 -6.0762 -4.6976 0.402 -0.333 0.853 219 210 210 0 0
-4.1504 -6.0936 -4.7034 0.350 -0.248 0.903 218 208 208 0 0
-4.1428 -6.1507 -4.6905 0.133 0.096 0.986 209 199 200 0 0
-4.1195 -6.2030 -4.6651 0.064 0.500 0.864 213 203 201 0 0
-4.0879 -6.4865 -4.6058 0.166 0.150 0.975 215 205 205 0 0
-4.0930 -7.1884 -4.5282 0.240 0.291 0.926 212 203 204 0 0
-4.0898 -7.2014 -4.5240 0.416 0.187 0.890 213 204 205 0 0
-4.0861 -7.2143 -4.5194 0.409 -0.233 0.882 214 205 206 0 0
-4.0945 -7.2327 -4.5243 0.319 0.099 0.942 215 207 209 0 0
-4.0622 -7.5064 -4.4655 0.254 -0.069 0.965 212 206 206 0 0
-4.0667 -7.5376 -4.4656 0.410 0.044 0.911 210 203 202 0 0
-4.0569 -7.6045 -4.4497 0.357 0.320 0.878 213 207 208 0 0
-4.0658 -7.6957 -4.4464 0.340 -0.126 0.932 213 207 207 0 0
-4.0475 -7.7432 -4.4258 0.316 0.570 0.759 211 204 202 0 0
-4.0264 -7.8030 -4.4012 0.225 0.301 0.927 208 198 197 0 0
-4.0245 -7.8162 -4.3982 0.299 0.269 0.915 212 203 201 0 0
-3.7031 -0.3325 -4.9869 0.010 -0.218 0.976 208 205 210 0 0
-3.7063 -0.3448 -4.9881 -0.005 -0.127 0.992 205 203 208 0 0
-3.7293 -0.4742 -4.9920 -0.073 -0.104 0.992 208 202 206 0 0
-3.7680 -0.6821 -4.9997 0.406 0.525 0.748 209 205 211 0 0
-3.7626 -0.7002 -4.9931 0.582 0.405 0.706 209 207 212 0 0
-3.7894 -0.7858 -5.0052 0.731 -0.035 0.682 210 209 215 0 0
-3.7898 -0.8002 -5.0039 0.667 -0.008 0.745 212 211 218 0 0
-3.7909 -0.8142 -5.0032 0.665 0.075 0.743 213 212 218 0 0
-3.8366 -1.0074 -5.0184 -0.028 -0.152 0.988 206 197 195 0 0
-3.8545 -1.0562 -5.0275 0.548 0.125 0.827 210 204 205 0 0
-3.8556 -1.0704 -5.0268 0.557 0.045 0.829 212 208 212 0 0
-3.8548 -1.1004 -5.0225 0.596 -0.098 0.797 212 211 219 0 0
-3.8548 -1.1152 -5.0209 0.647 0.177 0.742 212 212 222 0 0
-3.9558 -1.4190 -5.0688 0.524 0.456 0.719 213 208 212 0 0
-3.9489 -1.4374 -5.0610 0.492 0.518 0.700 214 212 219 0 0
-3.9427 -1.5301 -5.0451 0.350 -0.195 0.916 213 211 217 0 0
-3.9583 -1.5824 -5.0519 0.153 -0.115 0.982 207 202 206 0 0
-3.9615 -1.5959 -5.0529 0.153 -0.115 0.982 210 205 208 0 0
-3.9824 -1.7062 -5.0573 0.775 -0.424 0.469 205 196 197 0 0
-3.9899 -1.7179 -5.0621 0.525 -0.346 0.778 210 205 209 0 0
-4.0263 -1.7168 -5.0923 0.741 -0.100 0.664 214 211 219 0 0
-4.0231 -1.7334 -5.0877 0.715 0.285 0.638 215 215 226 0 0
-4.0697 -1.8497 -5.1126 0.773 -0.634 -0.004 213 213 222 0 0
-4.0651 -1.8820 -5.1051 0.861 -0.023 0.508 218 221 234 0 0
-4.0506 -2.0545 -5.0730 0.360 -0.221 0.907 215 210 215 0 0
-4.1072 -2.1700 -5.1063 0.401 -0.596 0.696 210 207 216 0 0
-4.1275 -2.2085 -5.1185 0.797 -0.272 0.539 217 216 228 0 0
-4.1239 -2.2250 -5.1136 0.789 -0.143 0.598 219 219 231 0 0
-4.1253 -2.2398 -5.1131 0.848 -0.153 0.508 217 217 228 0 0
-4.1329 -2.2678 -5.1161 0.736 0.037 0.676 214 211 219 0 0
-4.1378 -2.2814 -5.1185 0.551 0.198 0.811 214 207 213 0 0
-4.1001 -2.4463 -5.0681 0.208 0.215 0.954 215 208 212 0 0
-4.0989 -2.4619 -5.0654 0.228 -0.083 0.970 216 207 212 0 0
-4.1199 -2.5771 -5.0693 0.033 0.198 0.980 213 193 192 0 0
-4.1598 -3.2373 -5.0253 0.369 0.381 0.848 213 209 224 0 0
-4.1926 -3.5369 -5.0174 0.606 0.022 0.795 219 209 218 0 0
-4.1891 -3.5527 -5.0126 0.736 0.288 0.612 220 210 219 0 0
-4.1942 -3.5672 -5.0152 0.785 0.602 0.148 218 209 218 0 0
-4.1834 -3.5839 -5.0044 0.619 0.759 0.201 217 205 214 0 0
-4.1639 -3.6320 -4.9827 0.439 0.368 0.820 219 206 213 0 0
-4.2157 -3.8856 -4.9958 0.428 0.673 0.603 223 211 215 0 0
-4.2053 -3.9017 -4.9853 0.350 0.637 0.687 220 207 214 0 0
-4.1951 -3.9177 -4.9751 0.393 0.581 0.712 217 206 214 0 0
-4.1903 -3.9333 -4.9693 0.490 0.187 0.851 220 211 221 0 0
-4.1892 -3.9486 -4.9666 0.490 0.187 0.851 221 213 223 0 0
-4.1853 -3.9640 -4.9615 0.444 0.306 0.842 220 210 221 0 0
-4.1879 -3.9790 -4.9620 0.430 0.280 0.859 219 209 220 0 0
-4.1860 -3.9944 -4.9586 0.327 0.227 0.917 218 210 219 0 0
-4.1804 -4.0099 -4.9522 0.301 0.294 0.907 218 210 221 0 0
-4.1795 -4.0251 -4.9496 0.329 0.461 0.824 219 210 221 0 0
-4.1696 -4.0408 -4.9397 0.263 0.259 0.929 219 209 220 0 0
-4.1671 -4.0561 -4.9358 0.260 0.305 0.916 220 210 219 0 0
-4.1655 -4.0713 -4.9327 0.183 0.171 0.968 220 210 219 0 0
-4.1996 -4.1760 -4.9487 0.655 -0.102 0.749 219 216 229 0 0
-4.2029 -4.1911 -4.9496 0.696 0.085 0.713 221 215 228 0 0
-4.1859 -4.2371 -4.9303 0.350 0.538 0.767 215 201 212 0 0
-4.1790 -4.2524 -4.9227 0.350 0.538 0.767 219 206 215 0 0
-4.1705 -4.2677 -4.9139 0.329 0.296 0.897 221 208 216 0 0
-4.1656 -4.2829 -4.9082 0.362 0.095 0.927 220 207 216 0 0
-4.1658 -4.2980 -4.9066 0.362 0.095 0.927 218 204 214 0 0
-4.1637 -4.4940 -4.8819 0.407 -0.083 0.910 216 197 206 0 0
-4.1580 -4.5240 -4.8738 0.244 0.256 0.935 211 191 202 0 0
-4.1564 -4.5541 -4.8689 0.243 0.296 0.924 212 191 201 0 0
-4.1627 -4.5994 -4.8689 0.203 -0.594 0.778 210 185 194 0 0
-4.1732 -4.6901 -4.8669 -0.103 0.319 0.942 192 158 171 0 0
-4.1737 -4.7052 -4.8656 -0.076 0.108 0.991 196 166 182 0 0
-4.1627 -4.9149 -4.8320 0.966 0.052 0.251 205 178 191 0 0
-4.1609 -4.9297 -4.8289 0.507 -0.300 0.808 208 181 196 0 0
-4.1899 -5.2332 -4.8174 0.154 -0.078 0.985 216 205 211 0 0
-4.1930 -5.2487 -4.8182 0.306 0.018 0.952 214 202 208 0 0
-4.1878 -5.2630 -4.8122 0.143 0.285 0.948 215 201 206 0 0
-4.1808 -5.2920 -4.8031 0.267 0.567 0.779 214 199 205 0 0
-4.1722 -5.3207 -4.7926 0.103 0.246 0.964 219 208 213 0 0
-4.1790 -5.3667 -4.7929 0.256 -0.068 0.964 219 210 212 0 0
-4.1758 -5.3811 -4.7885 0.394 -0.149 0.907 218 209 212 0 0
-4.1867 -5.3978 -4.7956 0.580 -0.095 0.809 216 205 211 0 0
-4.1783 -5.4863 -4.7784 0.817 0.018 0.576 216 215 228 0 0
-4.1735 -5.5004 -4.7727 0.925 -0.008 0.380 215 212 225 0 0
-4.1887 -5.5181 -4.7832 0.595 0.243 0.766 220 215 223 0 0
-4.1888 -5.5631 -4.7781 0.260 0.279 0.924 217 211 215 0 0
-4.1859 -5.5775 -4.7740 0.206 -0.046 0.978 219 210 213 0 0
-4.1671 -5.7826 -4.7345 0.528 0.077 0.846 212 205 209 0 0
-4.1552 -5.9285 -4.7078 0.089 0.343 0.935 213 202 201 0 0
-4.1476 -5.9859 -4.6948 0.131 0.159 0.978 217 208 209 0 0
-4.1462 -6.0004 -4.6919 0.202 0.072 0.977 217 208 209 0 0
-4.1518 -6.0167 -4.6947 0.362 0.079 0.929 217 208 209 0 0
-4.1614 -6.0489 -4.6988 0.615 -0.198 0.763 216 207 209 0 0
-4.1700 -6.0810 -4.7022 0.674 -0.151 0.723 212 205 209 0 0
-4.1703 -6.0959 -4.7007 0.616 -0.314 0.723 208 201 206 0 0
-4.1736 -6.1117 -4.7016 0.496 -0.181 0.849 207 202 206 0 0
-4.1506 -6.2533 -4.6661 0.445 -0.383 0.810 216 205 204 0 0
-4.1528 -6.2687 -4.6661 0.271 -0.235 0.934 217 206 204 0 0
-4.1608 -6.2860 -4.6707 0.135 0.314 0.940 217 206 204 0 0
-4.1587 -6.3001 -4.6673 0.259 0.707 0.658 210 198 201 0 0
-4.1186 -6.3759 -4.6253 0.247 0.060 0.967 213 206 209 0 0
-4.1119 -6.4178 -4.6150 0.162 0.133 0.978 208 198 202 0 0
-4.1124 -6.4327 -4.6137 0.270 0.072 0.960 211 202 203 0 0
-4.1095 -6.4757 -4.6062 0.099 0.108 0.989 215 206 206 0 0
-4.1037 -6.4884 -4.6000 0.125 0.121 0.985 216 207 208 0 0
-4.1103 -7.1483 -4.5285 0.187 0.404 0.896 212 205 207 0 0
-4.1098 -7.1918 -4.5230 0.338 0.341 0.877 212 205 206 0 0
-4.1049 -7.2041 -4.5175 0.435 0.215 0.874 212 205 205 0 0
-4.1014 -7.2170 -4.5131 0.409 -0.233 0.882 213 204 205 0 0
-4.1061 -7.2338 -4.5150 0.426 0.237 0.873 214 205 206 0 0
-4.1029 -7.2468 -4.5109 0.270 0.428 0.863 215 206 207 0 0
-4.0978 -7.4186 -4.4867 -0.000 0.106 0.994 208 198 197 0 0
-4.0782 -7.5101 -4.4598 0.206 0.012 0.979 211 205 205 0 0
-4.0821 -7.5554 -4.4577 0.159 0.153 0.975 212 204 205 0 0
-4.0746 -7.6093 -4.4453 0.424 0.403 0.811 211 203 202 0 0
-4.0761 -7.6533 -4.4414 0.365 -0.296 0.883 211 203 201 0 0
-4.0687 -7.7501 -4.4240 0.295 0.609 0.736 211 206 204 0 0
-3.7210 -0.3082 -4.9864 0.131 0.068 0.989 206 204 209 0 0
-3.7256 -0.3340 -4.9872 0.070 -0.134 0.989 207 205 210 0 0
-3.7286 -0.3464 -4.9882 0.246 -0.185 0.952 206 201 207 0 0
-3.7875 -0.4666 -5.0227 0.047 -0.727 0.685 213 210 216 0 0
-3.7885 -0.6421 -5.0030 0.200 0.042 0.979 201 197 204 0 0
-3.7900 -0.6558 -5.0027 0.318 0.239 0.917 200 196 203 0 0
-3.7853 -0.6735 -4.9968 0.458 0.495 0.738 203 198 205 0 0
-3.7779 -0.6929 -4.9884 0.458 0.495 0.738 204 201 207 0 0
-3.7986 -0.7824 -4.9950 0.750 0.046 0.660 210 208 215 0 0
-3.7989 -0.7969 -4.9936 0.750 0.046 0.660 209 207 214 0 0
-3.8039 -0.8085 -4.9963 0.642 0.057 0.764 208 205 211 0 0
-3.8118 -0.8183 -5.0016 0.615 0.148 0.775 210 206 212 0 0
-3.8121 -0.8475 -4.9986 0.495 -0.247 0.833 206 199 200 0 0
-3.8564 -0.9981 -5.0174 -0.012 -0.155 0.988 205 195 193 0 0
-3.8606 -1.0105 -5.0194 -0.012 -0.155 0.988 206 196 194 0 0
-3.9207 -1.3041 -5.0346 0.214 -0.314 0.925 206 196 195 0 0
-3.9481 -1.3347 -5.0536 0.580 -0.622 0.527 205 193 188 0 0
-3.9539 -1.3467 -5.0570 0.745 -0.383 0.546 207 195 188 0 0
-3.9633 -1.3869 -5.0600 0.434 0.144 0.889 214 206 206 0 0
-3.9752 -1.3959 -5.0688 0.462 0.239 0.854 213 209 213 0 0
-3.9679 -1.4146 -5.0606 0.475 0.424 0.771 214 212 220 0 0
-3.9555 -1.5105 -5.0393 0.439 -0.346 0.829 208 206 212 0 0
-3.9565 -1.5250 -5.0383 0.398 -0.336 0.853 208 206 212 0 0
-3.9653 -1.5357 -5.0444 0.210 -0.216 0.954 209 207 212 0 0
-3.9738 -1.5617 -5.0483 0.210 -0.216 0.954 212 207 212 0 0
-3.9822 -1.6027 -5.0505 0.196 -0.327 0.925 215 209 211 0 0
-3.9554 -1.6450 -5.0235 0.205 -0.604 0.770 209 202 203 0 0
-4.0360 -1.6685 -5.0871 0.509 0.053 0.859 205 196 197 0 0
-4.0665 -1.8826 -5.0872 0.855 0.022 0.519 219 224 237 0 0
-4.0740 -1.9858 -5.0813 0.192 0.016 0.981 215 209 215 0 0
-4.0796 -2.0139 -5.0827 0.067 0.122 0.990 214 209 214 0 0
-4.1257 -2.1794 -5.1013 0.529 -0.640 0.557 213 210 221 0 0
-4.1352 -2.1912 -5.1078 0.601 -0.401 0.691 215 213 225 0 0
-4.1522 -2.2619 -5.1134 0.371 -0.031 0.928 218 215 222 0 0
-4.1266 -2.4537 -5.0700 0.193 0.064 0.979 216 205 209 0 0
-4.1341 -2.5123 -5.0694 0.170 0.143 0.975 216 203 207 0 0
-4.1538 -2.7203 -5.0614 0.013 0.226 0.974 215 191 189 0 0
-4.1578 -2.7345 -5.0630 -0.051 -0.086 0.995 216 195 195 0 0
-4.1734 -2.7609 -5.0728 0.055 0.168 0.984 215 196 200 0 0
-4.1727 -2.7764 -5.0704 0.134 0.329 0.935 213 198 208 0 0
-4.1904 -3.1549 -5.0408 0.451 0.156 0.879 213 194 205 0 0
-4.1807 -3.2026 -5.0274 0.541 0.584 0.605 221 216 228 0 0
-4.1799 -3.4772 -4.9947 -0.005 -0.004 1.000 215 195 198 0 0
-4.1917 -3.5212 -4.9993 0.273 -0.206 0.940 223 216 229 0 0
-4.2015 -3.5351 -5.0057 0.747 0.089 0.659 221 217 231 0 0
-4.2014 -3.5504 -5.0038 0.747 0.089 0.659 220 216 230 0 0
-4.2008 -3.5657 -5.0016 0.843 0.538 0.014 219 214 227 0 0
-4.1743 -3.5997 -4.9758 0.773 0.611 0.169 217 204 211 0 0
-4.1846 -3.6136 -4.9826 0.312 -0.062 0.948 218 205 212 0 0
-4.1786 -3.6295 -4.9758 0.201 0.141 0.969 220 206 213 0 0
-4.2103 -3.8393 -4.9775 0.129 -0.495 0.860 218 204 210 0 0
-4.2142 -3.8695 -4.9772 0.139 0.208 0.968 222 212 219 0 0
-4.1849 -4.0540 -4.9316 0.263 0.259 0.929 220 210 219 0 0
-4.2064 -4.1593 -4.9370 0.805 -0.257 0.535 215 215 234 0 0
-4.2086 -4.1744 -4.9371 0.897 -0.165 0.410 214 215 233 0 0
-4.2125 -4.1895 -4.9385 0.716 0.219 0.663 219 218 235 0 0
-4.2038 -4.2353 -4.9260 0.421 0.149 0.895 212 198 210 0 0
-4.2008 -4.2506 -4.9218 0.265 0.275 0.924 216 203 214 0 0
-4.1866 -4.3568 -4.8977 0.153 0.324 0.934 218 204 213 0 0
-4.1859 -4.3719 -4.8954 0.033 0.268 0.963 219 204 212 0 0
-4.1860 -4.3871 -4.8937 0.054 0.051 0.997 217 203 212 0 0
-4.1806 -4.4022 -4.8875 0.218 0.018 0.976 218 205 213 0 0
-4.1810 -4.4776 -4.8790 0.424 -0.153 0.893 215 193 201 0 0
-4.1785 -4.4927 -4.8752 0.407 -0.083 0.910 214 192 202 0 0
-4.1839 -4.5079 -4.8779 0.288 -0.159 0.944 209 187 199 0 0
-4.1870 -4.5230 -4.8787 0.347 0.002 0.938 200 175 195 0 0
-4.1868 -4.5381 -4.8768 0.360 0.063 0.931 197 174 196 0 0
-4.1745 -4.5529 -4.8649 0.225 0.288 0.931 194 168 191 0 0
-4.1854 -4.5683 -4.8721 0.320 0.340 0.884 185 157 181 0 0
-4.2033 -4.9465 -4.8428 0.015 -0.562 0.827 172 135 161 0 0
-4.2172 -4.9629 -4.8523 0.003 -0.473 0.881 170 133 159 0 0
-4.2043 -5.2027 -4.8137 0.136 0.077 0.988 212 195 208 0 0
-4.1986 -5.3072 -4.7969 0.125 0.142 0.982 213 196 202 0 0
-4.1988 -5.3673 -4.7901 0.151 -0.148 0.977 216 205 208 0 0
-4.2021 -5.6229 -4.7630 0.401 0.004 0.916 219 209 213 0 0
-4.1972 -5.6519 -4.7556 0.337 0.195 0.921 217 207 210 0 0
-4.1756 -5.9455 -4.7037 0.150 -0.068 0.986 215 205 206 0 0
-4.1640 -5.9871 -4.6893 0.188 0.092 0.978 216 207 208 0 0
-4.1676 -6.0177 -4.6886 0.413 0.051 0.910 219 210 211 0 0
-4.1873 -6.1123 -4.6938 0.496 -0.181 0.849 216 211 216 0 0
-4.1765 -6.1390 -4.6818 0.354 0.271 0.895 215 209 214 0 0
-4.1810 -6.2591 -4.6715 0.525 0.206 0.826 215 207 210 0 0
-4.1706 -6.2708 -4.6616 0.492 0.021 0.870 214 208 212 0 0
-4.1562 -6.3403 -4.6417 0.225 0.283 0.932 217 210 215 0 0
-4.1331 -6.4213 -4.6132 0.181 0.098 0.979 213 204 207 0 0
-4.1384 -6.4378 -4.6157 0.430 -0.050 0.902 215 206 207 0 0
-4.1269 -7.1662 -4.5214 0.139 0.227 0.964 216 207 208 0 0
-4.1181 -7.2059 -4.5095 0.458 0.226 0.860 214 206 207 0 0
-4.1162 -7.2196 -4.5064 0.422 -0.268 0.866 212 205 205 0 0
-4.1362 -7.2434 -4.5200 0.529 0.574 0.625 214 205 206 0 0
-4.1292 -7.2548 -4.5130 0.473 0.518 0.713 216 207 208 0 0
-4.1012 -7.5028 -4.4610 0.211 0.151 0.966 210 201 203 0 0
-4.0966 -7.5150 -4.4559 0.206 0.012 0.979 209 202 202 0 0
-4.0963 -7.6738 -4.4371 0.456 -0.309 0.835 211 201 202 0 0
-4.0813 -7.7523 -4.4156 0.274 0.715 0.643 210 202 201 0 0
-4.0708 -7.7896 -4.4026 0.109 0.437 0.893 213 204 204 0 0
-4.0651 -7.8008 -4.3967 0.064 0.353 0.933 210 200 199 0 0
-4.0546 -7.8808 -4.3787 0.280 -0.133 0.951 213 204 203 0 0
-4.0521 -7.9223 -4.3718 0.119 0.310 0.943 211 203 202 0 0
-3.7987 -0.4618 -5.0142 0.191 -0.684 0.704 214 212 221 0 0
-3.7921 -0.4809 -5.0066 0.895 0.060 0.442 213 212 221 0 0
-3.7975 -0.4920 -5.0097 0.888 -0.367 0.279 213 212 221 0 0
-3.8053 -0.5015 -5.0150 0.790 -0.583 -0.188 213 213 222 0 0
-3.8118 -0.7766 -4.9883 0.548 -0.101 0.831 209 206 213 0 0
-3.8125 -0.7908 -4.9872 0.347 0.281 0.895 205 202 209 0 0
-3.8133 -0.8050 -4.9862 0.387 0.081 0.918 204 199 205 0 0
-3.8182 -0.8167 -4.9889 0.446 0.158 0.881 204 197 200 0 0
-3.8279 -0.8255 -4.9958 0.072 -0.174 0.982 205 197 198 0 0
-3.8856 -0.9537 -5.0282 0.320 0.260 0.911 203 193 191 0 0
-3.8735 -0.9904 -5.0140 -0.091 -0.288 0.953 204 193 191 0 0
-3.8763 -1.0036 -5.0147 0.022 -0.249 0.968 207 196 195 0 0
-3.9205 -1.2614 -5.0209 0.148 -0.039 0.988 211 204 205 0 0
-3.9307 -1.2858 -5.0264 0.230 -0.080 0.970 208 198 197 0 0
-3.9497 -1.3207 -5.0379 0.376 -0.649 0.661 211 202 199 0 0
-3.9562 -1.3324 -5.0419 0.580 -0.622 0.527 207 196 194 0 0
-3.9619 -1.3444 -5.0452 0.782 -0.356 0.511 206 196 191 0 0
-3.9665 -1.3570 -5.0475 0.625 -0.289 0.725 211 205 203 0 0
-3.9750 -1.3677 -5.0532 0.530 -0.107 0.841 214 207 210 0 0
-3.9760 -1.3822 -5.0523 0.542 0.064 0.838 213 209 215 0 0
-3.9764 -1.3970 -5.0509 0.542 0.064 0.838 215 214 223 0 0
-3.9765 -1.4120 -5.0493 0.649 0.427 0.630 215 216 228 0 0
-3.9732 -1.4436 -5.0429 0.525 0.344 0.779 218 219 228 0 0
-3.9711 -1.4596 -5.0393 0.464 0.172 0.869 215 214 221 0 0
-3.9708 -1.4897 -5.0356 0.321 -0.028 0.947 214 212 217 0 0
-3.9729 -1.5037 -5.0356 0.206 -0.169 0.964 211 208 215 0 0
-3.9770 -1.5167 -5.0375 0.210 -0.216 0.954 206 204 210 0 0
-3.9813 -1.5297 -5.0395 0.210 -0.216 0.954 211 209 214 0 0
-3.9703 -1.6396 -5.0177 0.187 -0.485 0.854 215 208 208 0 0
-3.9864 -1.6472 -5.0300 0.352 -0.072 0.933 213 207 207 0 0
-3.9915 -1.6599 -5.0327 0.352 -0.285 0.891 212 206 204 0 0
-3.9968 -1.6725 -5.0355 0.644 -0.062 0.762 211 202 202 0 0
-4.0459 -1.7411 -5.0678 0.614 0.135 0.778 213 214 226 0 0
-4.0453 -1.7564 -5.0656 0.614 0.135 0.778 215 215 226 0 0
-4.0988 -2.0683 -5.0731 0.232 -0.154 0.960 213 207 213 0 0
-4.1347 -2.1770 -5.0898 0.485 -0.291 0.824 218 215 222 0 0
-4.1565 -2.5060 -5.0694 0.181 -0.039 0.983 215 202 207 0 0
-4.1562 -2.5366 -5.0656 0.116 -0.086 0.990 211 194 197 0 0
-4.1592 -2.6274 -5.0575 0.125 0.321 0.939 214 198 203 0 0
-4.1647 -2.6411 -5.0604 0.192 0.155 0.969 214 196 202 0 0
-4.1653 -2.6563 -5.0592 0.226 -0.011 0.974 212 192 195 0 0
-4.1935 -2.7405 -5.0724 0.452 0.011 0.892 218 198 202 0 0
-4.1890 -2.7570 -5.0668 0.526 0.558 0.642 217 198 204 0 0
-4.1845 -2.7735 -5.0613 0.322 0.323 0.890 214 196 206 0 0
-4.1818 -2.7895 -5.0571 0.306 0.397 0.865 212 197 208 0 0
-4.1682 -2.8694 -5.0367 0.355 -0.126 0.926 219 206 216 0 0
-4.1712 -2.8839 -5.0375 0.355 -0.126 0.926 216 203 212 0 0
-4.1747 -2.8984 -5.0387 0.366 -0.087 0.927 215 198 209 0 0
-4.1807 -2.9428 -5.0384 0.090 0.054 0.995 216 199 207 0 0
-4.2079 -3.1512 -5.0364 0.410 -0.051 0.911 214 197 211 0 0
-4.2137 -3.1654 -5.0395 0.469 0.703 0.534 213 202 215 0 0
-4.2030 -3.1828 -5.0287 0.506 0.634 0.585 214 203 217 0 0
-4.1932 -3.2000 -5.0187 0.541 0.584 0.605 215 205 218 0 0
-4.1834 -3.2171 -5.0087 0.719 0.535 0.443 216 207 220 0 0
-4.1793 -3.2331 -5.0034 0.618 0.524 0.586 218 208 221 0 0
-4.1724 -3.2496 -4.9959 0.618 0.524 0.586 221 210 219 0 0
-4.1857 -3.2777 -5.0035 0.267 0.094 0.959 221 209 220 0 0
-4.2149 -3.5174 -4.9995 0.218 -0.028 0.976 222 215 227 0 0
-4.2114 -3.5332 -4.9948 0.460 0.377 0.804 223 218 232 0 0
-4.2167 -3.5477 -4.9975 0.447 0.146 0.882 221 217 230 0 0
-4.2183 -3.5628 -4.9970 0.410 0.471 0.781 221 213 225 0 0
-4.2128 -3.5788 -4.9907 0.341 0.453 0.824 218 206 215 0 0
-4.2134 -3.5940 -4.9894 0.467 0.288 0.836 219 204 212 0 0
-4.2109 -3.6096 -4.9855 0.499 0.250 0.830 218 202 210 0 0
-4.2089 -3.6251 -4.9821 0.499 0.250 0.830 218 203 210 0 0
-4.2079 -3.6405 -4.9794 0.182 0.199 0.963 217 202 209 0 0
-4.2160 -3.8074 -4.9666 0.194 -0.398 0.896 217 201 210 0 0
-4.2207 -4.0814 -4.9386 0.291 -0.042 0.956 219 207 217 0 0
-4.2225 -4.1118 -4.9366 0.602 0.652 0.461 214 202 212 0 0
-4.2158 -4.1273 -4.9293 0.522 0.235 0.820 215 202 213 0 0
-4.1979 -4.4158 -4.8810 0.421 -0.299 0.856 217 201 210 0 0
-4.2024 -4.4613 -4.8794 0.336 0.343 0.877 219 202 212 0 0
-4.1965 -4.4763 -4.8728 0.287 0.056 0.956 215 194 203 0 0
-4.1957 -4.4914 -4.8704 0.316 -0.088 0.945 212 190 199 0 0
-4.2003 -4.5066 -4.8725 0.229 -0.065 0.971 206 179 194 0 0
-4.2030 -4.5218 -4.8729 0.157 0.025 0.987 180 151 175 0 0
-4.2044 -4.5369 -4.8723 0.157 0.025 0.987 171 142 172 0 0
-4.2043 -4.5672 -4.8687 0.321 0.368 0.873 168 138 173 0 0
-4.2266 -4.7952 -4.8603 0.329 -0.064 0.942 161 131 170 0 0
-4.2296 -4.8257 -4.8593 0.258 0.178 0.950 157 124 160 0 0
-4.1906 -4.8832 -4.8207 0.597 0.759 0.259 158 120 153 0 0
-4.1773 -4.8971 -4.8081 0.639 0.734 0.229 156 117 150 0 0
-4.2184 -4.9156 -4.8396 -0.040 0.376 0.926 161 120 154 0 0
-4.2241 -4.9463 -4.8407 0.150 -0.604 0.783 159 117 147 0 0
-4.2791 -4.9817 -4.8817 0.729 0.443 0.522 151 113 140 0 0
-4.2281 -5.2036 -4.8141 0.358 0.037 0.933 198 175 190 0 0
-4.2303 -5.2190 -4.8141 0.342 -0.082 0.936 211 192 204 0 0
-4.2270 -5.2336 -4.8097 0.160 -0.048 0.986 214 196 207 0 0
-4.2271 -5.2487 -4.8080 0.091 -0.028 0.995 210 190 201 0 0
-4.2205 -5.2779 -4.7992 0.141 0.354 0.924 217 200 206 0 0
-4.2187 -5.2927 -4.7960 0.142 0.212 0.967 212 193 199 0 0
-4.2171 -5.3075 -4.7930 0.142 0.212 0.967 213 194 199 0 0
-4.2182 -5.3228 -4.7921 0.215 0.010 0.977 211 194 200 0 0
-4.2146 -5.3373 -4.7874 0.231 -0.060 0.971 210 193 198 0 0
-4.2172 -5.3527 -4.7878 0.231 -0.060 0.971 212 197 201 0 0
-4.1922 -5.7378 -4.7225 0.259 0.016 0.966 214 204 205 0 0
-4.1965 -5.9626 -4.6998 0.143 0.179 0.973 211 202 201 0 0
-4.1930 -6.0809 -4.6832 0.542 -0.170 0.823 218 211 215 0 0
-4.1962 -6.0966 -4.6840 0.604 -0.166 0.780 222 215 220 0 0
-4.2009 -6.1128 -4.6859 0.496 -0.181 0.849 220 214 218 0 0
-4.2057 -6.1291 -4.6880 0.470 -0.274 0.839 217 209 214 0 0
-4.1950 -6.1410 -4.6778 0.413 0.029 0.910 216 207 212 0 0
-4.2057 -6.1738 -4.6828 0.340 -0.166 0.926 214 206 208 0 0
-4.2037 -6.2477 -4.6726 0.659 0.175 0.731 211 208 216 0 0
-4.1993 -6.2613 -4.6674 0.576 0.400 0.713 207 204 214 0 0
-4.1882 -6.2728 -4.6569 0.708 0.226 0.669 211 209 220 0 0
-4.1508 -6.4089 -4.6104 0.188 0.182 0.965 213 203 206 0 0
-4.1495 -6.4232 -4.6077 0.176 0.198 0.964 218 210 212 0 0
-4.1518 -6.4388 -4.6078 0.488 -0.037 0.872 214 205 206 0 0
-4.1525 -6.4537 -4.6066 0.413 0.087 0.907 208 198 200 0 0
-4.1465 -6.4665 -4.6002 0.344 0.374 0.861 214 205 206 0 0
-4.1565 -6.7202 -4.5789 0.205 0.257 0.944 212 204 202 0 0
-4.1463 -6.8044 -4.5607 0.325 -0.307 0.894 214 204 203 0 0
-4.1573 -6.8234 -4.5675 0.377 -0.345 0.860 213 203 202 0 0
-4.1319 -7.2226 -4.5003 0.412 -0.242 0.878 211 201 202 0 0
-4.1447 -7.2577 -4.5066 0.396 0.343 0.852 212 203 204 0 0
-4.1386 -7.2694 -4.5003 0.197 0.358 0.912 212 203 204 0 0
-4.1323 -7.2811 -4.4937 0.148 0.404 0.903 211 202 203 0 0
-4.1430 -7.3591 -4.4934 0.272 0.133 0.953 208 198 197 0 0
-4.1343 -7.4132 -4.4800 0.119 -0.039 0.992 212 203 201 0 0
-4.1269 -7.4677 -4.4676 0.177 0.406 0.897 205 195 194 0 0
-4.1160 -7.5058 -4.4543 0.179 0.161 0.971 212 204 204 0 0
-4.1024 -7.6580 -4.4254 0.466 -0.337 0.818 211 202 202 0 0
-4.1164 -7.6944 -4.4326 0.323 0.158 0.933 215 206 207 0 0
-4.0722 -7.9290 -4.3691 0.305 0.175 0.936 209 201 199 0 0
-4.0699 -7.9420 -4.3657 0.308 0.423 0.852 209 201 199 0 0
-3.7643 -0.2832 -4.9887 0.043 0.202 0.979 204 202 207 0 0
-3.7680 -0.2951 -4.9903 0.099 0.158 0.982 208 206 211 0 0
-3.7984 -0.4794 -4.9937 0.893 0.201 0.403 213 214 226 0 0
-3.8018 -0.4917 -4.9951 0.882 -0.384 0.272 215 216 228 0 0
-3.8255 -0.5644 -5.0059 0.956 0.143 0.256 211 209 214 0 0
-3.8187 -0.6423 -4.9914 0.565 0.301 0.768 199 194 200 0 0
-3.8158 -0.6589 -4.9870 0.565 0.301 0.768 200 195 202 0 0
-3.8051 -0.6951 -4.9741 0.692 0.117 0.712 204 201 207 0 0
-3.8090 -0.7073 -4.9758 0.599 0.103 0.794 205 203 208 0 0
-3.8351 -0.7940 -4.9870 0.188 -0.078 0.979 207 202 206 0 0
-3.8273 -0.8134 -4.9785 0.500 0.144 0.854 198 190 194 0 0
-3.8391 -0.8209 -4.9872 0.086 -0.163 0.983 198 190 191 0 0
-3.9431 -1.2662 -5.0203 0.168 -0.104 0.980 209 201 199 0 0
-3.9843 -1.3647 -5.0425 0.423 -0.197 0.885 213 211 219 0 0
-3.9895 -1.3771 -5.0453 0.530 -0.107 0.841 213 213 223 0 0
-3.9881 -1.3929 -5.0423 0.605 -0.101 0.790 214 217 229 0 0
-3.9892 -1.4974 -5.0310 0.206 -0.169 0.964 214 210 216 0 0
-3.9758 -1.5936 -5.0090 0.096 -0.203 0.975 213 207 209 0 0
-4.0155 -1.6353 -5.0365 0.128 -0.127 0.984 216 208 207 0 0
-4.0678 -1.8692 -5.0520 0.458 -0.326 0.827 204 200 207 0 0
-4.0713 -1.8829 -5.0532 0.482 -0.092 0.871 209 206 213 0 0
-4.1238 -1.9987 -5.0826 0.077 0.165 0.983 211 205 208 0 0
-4.1561 -2.1854 -5.0872 0.472 -0.399 0.786 213 209 215 0 0
-4.1652 -2.4579 -5.0630 0.201 0.066 0.977 216 204 209 0 0
-4.1804 -2.5145 -5.0688 0.495 -0.022 0.869 209 196 206 0 0
-4.1831 -2.5290 -5.0693 0.517 -0.104 0.850 206 195 208 0 0
-4.1904 -2.5421 -5.0738 0.390 -0.423 0.817 202 193 210 0 0
-4.1795 -2.5607 -5.0627 0.375 -0.274 0.885 202 195 213 0 0
-4.1899 -2.6037 -5.0662 0.404 0.079 0.912 210 203 217 0 0
-4.1857 -2.6202 -5.0608 0.233 0.294 0.927 212 201 215 0 0
-4.1885 -2.6348 -5.0614 0.315 0.193 0.929 216 201 213 0 0
-4.1840 -2.6514 -5.0558 0.190 0.083 0.978 212 196 206 0 0
-4.1838 -2.6667 -5.0539 0.158 -0.050 0.986 213 197 206 0 0
-4.1885 -2.6961 -5.0543 0.119 -0.106 0.987 213 199 209 0 0
-4.2029 -2.7382 -5.0611 0.822 0.076 0.564 218 205 216 0 0
-4.1869 -2.8190 -5.0387 0.642 0.228 0.732 213 198 211 0 0
-4.1851 -2.8348 -5.0354 0.642 0.228 0.732 214 201 214 0 0
-4.1909 -2.9404 -5.0278 0.101 0.173 0.980 218 201 209 0 0
-4.1916 -2.9556 -5.0266 0.125 0.259 0.958 220 199 208 0 0
-4.1939 -2.9703 -5.0268 0.158 0.001 0.987 214 191 200 0 0
-4.1969 -2.9849 -5.0276 0.133 -0.072 0.988 215 191 199 0 0
-4.2179 -3.0876 -5.0328 0.202 0.029 0.979 215 198 208 0 0
-4.2080 -3.2122 -5.0102 0.540 -0.005 0.841 213 200 212 0 0
-4.2297 -3.7900 -4.9607 0.595 0.323 0.736 218 204 211 0 0
-4.2319 -3.8051 -4.9608 0.416 -0.426 0.803 218 205 214 0 0
-4.2390 -3.8197 -4.9648 0.416 -0.426 0.803 222 212 223 0 0
-4.2426 -3.8347 -4.9661 0.374 -0.583 0.721 219 210 225 0 0
-4.2359 -4.0643 -4.9339 0.390 -0.389 0.835 218 206 216 0 0
-4.2344 -4.1710 -4.9202 0.506 -0.407 0.761 212 196 209 0 0
-4.2399 -4.1861 -4.9229 0.394 -0.072 0.916 211 194 210 0 0
-4.2380 -4.2014 -4.9196 0.320 0.258 0.912 213 200 215 0 0
-4.2311 -4.2168 -4.9122 0.383 0.438 0.813 210 194 207 0 0
-4.2337 -4.2320 -4.9125 0.421 0.149 0.895 215 196 207 0 0
-4.2390 -4.2471 -4.9151 0.311 -0.011 0.950 216 196 208 0 0
-4.1955 -4.2632 -4.8778 0.232 -0.218 0.948 212 190 202 0 0
-4.2245 -4.3841 -4.8873 0.367 -0.009 0.930 217 199 209 0 0
-4.2254 -4.3993 -4.8863 0.330 0.005 0.944 216 197 208 0 0
-4.2161 -4.4144 -4.8770 0.525 -0.064 0.849 215 195 207 0 0
-4.2187 -4.4599 -4.8738 0.336 0.343 0.877 216 196 208 0 0
-4.2179 -4.4751 -4.8713 0.258 0.000 0.966 211 189 200 0 0
-4.2159 -4.4902 -4.8680 0.325 -0.154 0.933 212 190 200 0 0
-4.2197 -4.5054 -4.8693 0.249 -0.084 0.965 206 179 194 0 0
-4.2231 -4.5206 -4.8703 0.196 -0.029 0.980 184 153 181 0 0
-4.2247 -4.5358 -4.8699 0.298 0.082 0.951 174 145 181 0 0
-4.2198 -4.5508 -4.8641 0.336 0.386 0.859 172 143 181 0 0
-4.2215 -4.5660 -4.8638 0.270 0.314 0.910 167 137 175 0 0
-4.2281 -4.5814 -4.8673 0.191 0.079 0.978 162 132 172 0 0
-4.2402 -4.7639 -4.8560 0.129 -0.047 0.991 158 127 171 0 0
-4.2164 -4.8833 -4.8227 0.346 0.495 0.797 154 116 154 0 0
-4.2129 -4.8981 -4.8181 0.242 0.340 0.909 153 112 147 0 0
-4.2883 -4.9805 -4.8700 0.729 0.443 0.522 150 110 140 0 0
-4.2733 -5.0096 -4.8544 0.542 0.582 0.606 155 132 174 0 0
-4.2442 -5.2185 -4.8063 0.319 -0.001 0.948 191 165 186 0 0
-4.2435 -5.2335 -4.8041 0.370 -0.149 0.917 201 177 194 0 0
-4.2462 -5.2490 -4.8044 0.425 -0.097 0.900 205 182 195 0 0
-4.2489 -5.2645 -4.8049 0.379 -0.092 0.921 212 193 199 0 0
-4.2453 -5.4150 -4.7844 0.241 -0.235 0.942 217 207 211 0 0
-4.2465 -5.5057 -4.7749 0.054 -0.264 0.963 218 203 201 0 0
-4.2233 -5.9065 -4.7093 0.209 0.449 0.869 214 204 205 0 0
-4.2225 -5.9213 -4.7069 0.259 0.269 0.928 217 207 208 0 0
-4.2219 -5.9361 -4.7047 0.442 0.022 0.897 215 206 206 0 0
-4.2215 -5.9509 -4.7026 0.454 -0.082 0.887 214 204 203 0 0
-4.2236 -5.9664 -4.7026 0.425 -0.080 0.902 211 201 201 0 0
-4.2209 -5.9807 -4.6987 0.391 0.011 0.920 215 205 205 0 0
-4.2078 -5.9923 -4.6866 0.336 0.626 0.704 215 206 207 0 0
-4.2076 -6.0966 -4.6744 0.554 -0.055 0.831 217 207 209 0 0
-4.2158 -6.2331 -4.6652 0.659 0.175 0.731 215 212 220 0 0
-4.2148 -6.2477 -4.6626 0.659 0.175 0.731 214 211 222 0 0
-4.2109 -6.2614 -4.6579 0.576 0.400 0.713 212 210 221 0 0
-4.1983 -6.2725 -4.6463 0.708 0.226 0.669 210 207 219 0 0
-4.1813 -6.3118 -4.6279 0.190 0.319 0.928 212 205 210 0 0
-4.1746 -6.3393 -4.6192 0.146 0.230 0.962 215 208 210 0 0
-4.1761 -6.3842 -4.6152 0.221 -0.089 0.971 217 208 210 0 0
-4.1723 -6.3977 -4.6105 0.234 0.139 0.962 216 207 208 0 0
-4.1693 -6.4115 -4.6065 0.259 0.237 0.936 215 206 208 0 0
-4.1696 -6.4264 -4.6050 0.500 0.084 0.862 218 209 211 0 0
-4.1687 -6.4409 -4.6026 0.555 0.115 0.824 216 207 208 0 0
-4.1703 -6.4562 -4.6021 0.535 0.021 0.845 213 203 204 0 0
-4.1669 -6.4698 -4.5977 0.451 0.372 0.811 213 203 204 0 0
-4.1795 -6.4888 -4.6058 0.132 -0.066 0.989 215 206 206 0 0
-4.1712 -6.8250 -4.5599 0.248 -0.125 0.961 215 205 203 0 0
-4.1745 -6.8411 -4.5608 0.204 -0.108 0.973 215 205 204 0 0
-4.1864 -7.0374 -4.5476 0.309 -0.084 0.947 212 205 205 0 0
-4.1882 -7.0529 -4.5473 0.340 -0.231 0.912 213 205 206 0 0
-4.1898 -7.0683 -4.5468 0.290 -0.244 0.925 211 201 199 0 0
-4.1917 -7.0839 -4.5466 0.145 0.130 0.981 209 198 196 0 0
-4.1542 -7.2724 -4.4940 0.148 0.404 0.903 212 203 204 0 0
-4.1473 -7.3422 -4.4803 0.223 0.077 0.972 211 204 202 0 0
-4.1589 -7.3623 -4.4874 0.213 0.230 0.950 211 201 202 0 0
-4.0915 -7.9353 -4.3657 0.449 0.105 0.887 208 199 198 0 0
-3.7696 -0.2237 -4.9819 0.562 0.285 0.777 205 201 206 0 0
-3.7732 -0.2358 -4.9834 0.122 0.164 0.979 204 199 204 0 0
-3.7714 -0.2517 -4.9801 -0.041 -0.045 0.998 204 199 203 0 0
-3.7803 -0.2600 -4.9863 0.143 0.249 0.958 204 200 205 0 0
-3.7872 -0.2844 -4.9891 0.078 0.159 0.984 210 207 213 0 0
-3.8171 -0.4548 -4.9936 0.314 -0.257 0.914 211 211 220 0 0
-3.8103 -0.4740 -4.9859 0.669 0.138 0.730 214 216 226 0 0
-3.8101 -0.4889 -4.9840 0.801 -0.082 0.593 214 216 227 0 0
-3.8136 -0.5012 -4.9854 0.887 -0.246 0.391 214 216 228 0 0
-3.8167 -0.5139 -4.9864 0.887 -0.246 0.391 211 211 222 0 0
-3.8370 -0.6037 -4.9925 0.845 -0.140 0.515 207 202 208 0 0
-3.8334 -0.6207 -4.9876 0.737 0.337 0.586 206 202 207 0 0
-3.8296 -0.6379 -4.9825 0.737 0.337 0.586 202 197 203 0 0
-3.8302 -0.6522 -4.9813 0.550 0.319 0.771 202 197 203 0 0
-3.8207 -0.6876 -4.9695 0.599 0.103 0.794 204 202 207 0 0
-3.8560 -0.7982 -4.9853 0.281 -0.391 0.877 201 193 197 0 0
-3.8625 -0.8090 -4.9894 0.349 -0.422 0.837 199 193 194 0 0
-3.8761 -0.8303 -4.9980 0.299 -0.660 0.689 204 196 198 0 0
-3.8850 -0.8398 -5.0041 0.383 -0.367 0.848 209 203 205 0 0
-3.8965 -0.9071 -5.0056 0.645 0.060 0.762 212 210 215 0 0
-3.9170 -0.9248 -5.0203 0.463 0.070 0.883 208 202 203 0 0
-3.9039 -0.9771 -5.0035 0.357 -0.040 0.933 206 198 198 0 0
-3.9049 -0.9913 -5.0027 0.266 -0.252 0.930 207 199 200 0 0
-3.9115 -1.0024 -5.0067 0.394 -0.034 0.918 209 204 205 0 0
-3.9298 -1.1708 -5.0021 0.127 -0.280 0.952 211 206 211 0 0
-3.9350 -1.1829 -5.0049 0.127 -0.280 0.952 208 203 207 0 0
-3.9943 -1.2411 -5.0464 -0.002 -0.502 0.865 208 198 197 0 0
-3.9652 -1.2714 -5.0191 0.171 -0.081 0.982 208 198 196 0 0
-3.9958 -1.3456 -5.0354 0.336 -0.451 0.827 212 211 217 0 0
-3.9986 -1.3592 -5.0361 0.315 -0.344 0.885 214 214 223 0 0
-4.0060 -1.3705 -5.0408 0.528 -0.158 0.835 216 218 230 0 0
-4.0091 -1.3841 -5.0417 0.893 0.096 0.440 215 220 231 0 0
-3.9994 -1.4039 -5.0316 0.847 0.411 0.338 218 222 233 0 0
-3.9874 -1.5747 -5.0019 -0.028 -0.179 0.983 212 208 209 0 0
-3.9941 -1.5865 -5.0060 0.056 -0.203 0.977 213 207 207 0 0
-4.0259 -1.6320 -5.0266 0.612 0.146 0.777 212 202 199 0 0
-4.0816 -1.8494 -5.0466 0.713 -0.378 0.591 215 213 218 0 0
-4.0852 -1.8631 -5.0479 0.420 -0.095 0.903 213 208 214 0 0
-4.0873 -1.8774 -5.0480 0.338 0.058 0.939 211 206 212 0 0
-4.1456 -1.9453 -5.0875 0.187 -0.367 0.911 217 207 204 0 0
-4.1490 -2.1123 -5.0709 0.279 0.049 0.959 216 211 218 0 0
-4.1922 -2.4960 -5.0614 0.458 0.077 0.886 215 203 213 0 0
-4.1956 -2.5103 -5.0625 0.571 -0.217 0.791 207 195 210 0 0
-4.2019 -2.5238 -5.0660 0.541 -0.341 0.769 205 195 214 0 0
-4.2152 -2.7352 -5.0523 0.794 0.336 0.507 207 207 230 0 0
-4.2102 -2.7518 -5.0463 0.851 0.096 0.517 208 208 231 0 0
-4.2092 -2.7675 -5.0437 0.828 0.307 0.470 205 204 226 0 0
-4.2087 -2.7829 -5.0415 0.766 0.102 0.634 203 194 217 0 0
-4.2088 -2.7982 -5.0398 0.769 0.010 0.639 203 185 203 0 0
-4.2106 -2.8131 -5.0395 0.674 -0.236 0.700 202 179 196 0 0
-4.1994 -2.8313 -5.0283 0.578 0.149 0.802 205 184 199 0 0
-4.2722 -2.9988 -5.0680 0.705 0.169 0.689 208 183 195 0 0
-4.2758 -3.0135 -5.0693 0.482 0.493 0.724 215 193 205 0 0
-4.2394 -3.0369 -5.0369 0.284 0.150 0.947 218 199 212 0 0
-4.2598 -3.0479 -5.0523 0.463 0.447 0.766 214 197 212 0 0
-4.2568 -3.0639 -5.0480 0.414 0.557 0.720 206 192 214 0 0
-4.2446 -3.4200 -4.9966 0.177 -0.223 0.959 214 190 192 0 0
-4.2458 -3.5119 -4.9869 0.245 0.139 0.960 211 197 211 0 0
-4.2449 -3.5273 -4.9844 0.250 0.182 0.951 214 202 215 0 0
-4.2678 -3.5703 -4.9980 0.363 -0.124 0.924 216 196 202 0 0
-4.2364 -3.6815 -4.9595 0.247 0.278 0.928 216 199 208 0 0
-4.2474 -3.6956 -4.9669 0.266 0.340 0.902 219 205 212 0 0
-4.2490 -3.7260 -4.9646 0.362 0.021 0.932 219 204 213 0 0
-4.2517 -3.7411 -4.9650 0.312 -0.085 0.946 215 198 208 0 0
-4.2516 -3.7717 -4.9615 0.482 0.177 0.858 218 204 214 0 0
-4.2402 -3.7881 -4.9503 0.387 0.274 0.881 219 206 215 0 0
-4.2586 -3.8017 -4.9636 0.356 0.119 0.927 219 207 215 0 0
-4.2506 -3.8177 -4.9553 0.321 -0.521 0.791 220 210 219 0 0
-4.2528 -4.1386 -4.9198 0.294 -0.069 0.953 215 200 212 0 0
-4.2518 -4.1539 -4.9172 0.149 0.036 0.988 216 199 212 0 0
-4.2631 -4.3215 -4.9069 0.680 0.175 0.712 214 194 208 0 0
-4.2567 -4.3369 -4.8999 0.452 0.363 0.815 215 195 209 0 0
-4.2510 -4.3522 -4.8935 0.377 0.476 0.794 216 195 208 0 0
-4.2452 -4.3674 -4.8870 0.377 0.476 0.794 214 194 207 0 0
-4.2401 -4.4282 -4.8757 0.420 0.187 0.888 212 190 203 0 0
-4.2393 -4.4434 -4.8734 0.321 0.196 0.927 216 195 210 0 0
-4.2356 -4.4586 -4.8686 0.312 0.371 0.875 210 187 203 0 0
-4.2372 -4.4738 -4.8681 0.215 0.075 0.974 208 184 198 0 0
-4.2343 -4.4889 -4.8640 0.235 -0.099 0.967 209 184 197 0 0
-4.2406 -4.5042 -4.8674 0.163 -0.189 0.968 202 171 192 0 0
-4.2455 -4.5195 -4.8695 0.163 -0.189 0.968 176 139 175 0 0
-4.2466 -4.5347 -4.8686 0.169 0.039 0.985 161 123 162 0 0
-4.2708 -4.6725 -4.8724 0.086 0.368 0.926 155 145 200 0 0
-4.2680 -4.6876 -4.8683 0.064 0.466 0.882 165 158 209 0 0
-4.2570 -4.7479 -4.8524 0.124 -0.016 0.992 157 130 178 0 0
-4.2592 -4.9150 -4.8347 0.309 0.064 0.949 144 97 131 0 0
-4.2682 -4.9310 -4.8402 0.291 -0.035 0.956 142 90 124 0 0
-4.2987 -4.9794 -4.8594 0.724 0.333 0.604 149 108 142 0 0
-4.2955 -4.9944 -4.8550 0.724 0.333 0.604 155 125 167 0 0
-4.2923 -5.0093 -4.8507 0.724 0.333 0.604 160 145 196 0 0
-4.2612 -5.1427 -4.8099 0.111 0.120 0.987 175 151 188 0 0
-4.2585 -5.2483 -4.7954 0.541 -0.237 0.807 192 164 186 0 0
-4.2629 -5.2641 -4.7971 0.541 -0.237 0.807 206 184 198 0 0
-4.2970 -5.4817 -4.7996 0.210 -0.517 0.830 214 200 201 0 0
-4.2703 -5.5073 -4.7749 0.055 -0.089 0.995 216 202 200 0 0
-4.2785 -5.5239 -4.7796 0.092 -0.130 0.987 217 203 200 0 0
-4.2722 -5.5379 -4.7729 0.064 -0.031 0.997 217 204 202 0 0
-4.2713 -5.5529 -4.7704 0.074 0.320 0.945 218 204 201 0 0
-4.2663 -5.5671 -4.7647 0.070 0.416 0.907 217 203 200 0 0
-4.2525 -5.6699 -4.7416 0.212 0.454 0.866 219 209 211 0 0
-4.2491 -5.6843 -4.7371 0.204 0.234 0.951 217 207 209 0 0
-4.2484 -5.6992 -4.7348 0.214 0.254 0.943 215 205 206 0 0
-4.2604 -5.8523 -4.7268 0.106 0.102 0.989 219 208 207 0 0
-4.2405 -5.9227 -4.7024 0.290 0.281 0.915 215 206 207 0 0
-4.2365 -5.9367 -4.6975 0.442 0.022 0.897 216 206 206 0 0
-4.2360 -5.9515 -4.6954 0.448 -0.015 0.894 214 204 204 0 0
-4.2375 -5.9669 -4.6948 0.448 -0.015 0.894 214 204 204 0 0
-4.2368 -5.9817 -4.6925 0.358 0.124 0.926 213 204 203 0 0
-4.2341 -6.1605 -4.6696 0.252 0.347 0.904 216 206 206 0 0
-4.2226 -6.2616 -4.6484 0.576 0.400 0.713 216 210 216 0 0
-4.1933 -6.3566 -4.6136 0.154 0.171 0.973 217 208 211 0 0
-4.1813 -6.4415 -4.5940 0.555 0.115 0.824 216 207 208 0 0
-4.1811 -6.4562 -4.5921 0.555 0.115 0.824 214 204 204 0 0
-4.1940 -6.4901 -4.5986 0.218 -0.075 0.973 213 202 201 0 0
-4.1872 -6.6947 -4.5693 0.175 -0.033 0.984 216 208 208 0 0
-4.1980 -6.8612 -4.5588 0.436 0.069 0.897 208 198 196 0 0
-4.2152 -6.9124 -4.5668 0.694 0.288 0.660 208 197 195 0 0
-4.2105 -6.9401 -4.5598 0.605 0.282 0.745 213 204 205 0 0
-4.2071 -6.9535 -4.5554 0.529 0.382 0.758 214 207 209 0 0
-4.2022 -7.0400 -4.5414 0.256 -0.060 0.965 213 207 209 0 0
-4.2066 -7.1009 -4.5379 0.394 0.233 0.889 214 205 204 0 0
-4.2058 -7.1301 -4.5338 0.194 0.347 0.917 215 207 208 0 0
-4.1719 -7.2763 -4.4893 0.263 0.296 0.918 211 202 203 0 0
-4.1676 -7.2889 -4.4843 0.123 0.239 0.963 215 206 207 0 0
-4.1800 -7.3827 -4.4835 0.183 0.077 0.980 210 201 202 0 0
-4.1787 -7.3967 -4.4808 0.187 0.037 0.982 209 200 199 0 0
-4.1823 -7.4424 -4.4784 0.187 0.037 0.982 214 205 206 0 0
-4.1508 -7.5434 -4.4411 0.361 -0.109 0.926 211 203 203 0 0
-4.1125 -7.8705 -4.3719 0.315 0.018 0.949 208 198 197 0 0
-4.1138 -7.8856 -4.3712 0.315 0.018 0.949 208 199 198 0 0
-3.7671 -0.1847 -4.9663 0.808 -0.182 0.560 205 200 205 0 0
-3.7784 -0.2057 -4.9730 0.707 -0.434 0.559 206 201 205 0 0
-3.7785 -0.2203 -4.9714 0.731 0.078 0.678 206 201 205 0 0
-3.7863 -0.2293 -4.9767 0.476 0.205 0.855 206 201 205 0 0
-3.7997 -0.2784 -4.9819 0.568 0.488 0.663 207 205 211 0 0
-3.8120 -0.3286 -4.9860 0.259 0.039 0.965 208 205 211 0 0
-3.8137 -0.3715 -4.9824 0.215 0.023 0.976 211 207 213 0 0
-3.8196 -0.3822 -4.9859 0.281 -0.036 0.959 209 206 210 0 0
-3.8212 -0.4105 -4.9839 0.243 -0.346 0.906 207 205 210 0 0
-3.8306 -0.4483 -4.9871 0.314 -0.257 0.914 213 212 219 0 0
-3.8350 -0.4601 -4.9893 0.412 0.230 0.882 213 212 220 0 0
-3.8298 -0.4784 -4.9830 0.586 0.433 0.685 211 209 218 0 0
-3.8243 -0.4967 -4.9764 0.606 0.191 0.772 207 205 214 0 0
-3.8477 -0.5697 -4.9869 0.308 -0.179 0.934 204 198 201 0 0
-3.8486 -0.5839 -4.9859 0.096 -0.323 0.942 207 202 206 0 0
-3.8690 -0.7926 -4.9783 0.282 -0.329 0.901 207 201 205 0 0
-3.8749 -0.8038 -4.9817 0.355 -0.416 0.837 207 201 205 0 0
-3.9075 -0.9029 -4.9966 0.645 0.060 0.762 213 212 218 0 0
-3.9205 -0.9398 -5.0029 0.522 0.223 0.823 206 200 200 0 0
-3.9206 -0.9844 -4.9978 0.245 -0.211 0.946 209 205 208 0 0
-3.9390 -1.1379 -4.9948 0.228 -0.200 0.953 208 205 212 0 0
-3.9412 -1.1516 -4.9951 0.226 -0.161 0.961 205 200 205 0 0
-3.9466 -1.1636 -4.9980 0.178 -0.244 0.953 208 204 206 0 0
-3.9998 -1.2100 -5.0357 0.263 -0.344 0.901 212 206 205 0 0
-4.0053 -1.2222 -5.0388 0.263 -0.344 0.901 208 199 197 0 0
-4.0068 -1.2365 -5.0383 0.000 -0.613 0.790 208 199 196 0 0
-4.0177 -1.2458 -5.0461 -0.002 -0.520 0.854 209 199 196 0 0
-4.0204 -1.3801 -5.0327 0.921 0.064 0.385 218 219 231 0 0
-4.0097 -1.5807 -5.0007 -0.045 -0.234 0.971 212 207 207 0 0
-4.0147 -1.5934 -5.0033 0.010 -0.205 0.979 210 205 203 0 0
-4.0257 -1.6034 -5.0110 0.125 -0.144 0.982 211 202 200 0 0
-4.1036 -1.8718 -5.0430 0.259 0.113 0.959 211 206 211 0 0
-4.1327 -1.9057 -5.0626 0.180 -0.207 0.962 207 197 196 0 0
-4.1494 -1.9449 -5.0716 0.143 -0.285 0.948 217 210 211 0 0
-4.1580 -2.0640 -5.0647 0.279 -0.242 0.929 216 210 216 0 0
-4.1875 -2.1912 -5.0738 0.198 -0.004 0.980 214 204 212 0 0
-4.2033 -2.2009 -5.0855 0.126 -0.401 0.907 212 203 208 0 0
-4.2314 -2.2529 -5.1022 0.181 -0.156 0.971 217 204 206 0 0
-4.2383 -2.2970 -5.1027 0.267 0.160 0.950 214 202 206 0 0
-4.2304 -2.3614 -5.0889 0.196 0.299 0.934 209 194 201 0 0
-4.2545 -2.7250 -5.0661 0.587 0.412 0.697 193 202 232 0 0
-4.2152 -2.7661 -5.0295 0.841 0.388 0.376 195 197 227 0 0
-4.2072 -2.7835 -5.0210 0.830 0.385 0.403 198 190 216 0 0
-4.2130 -2.7973 -5.0241 0.776 0.050 0.629 198 179 202 0 0
-4.2829 -2.9964 -5.0576 0.705 0.169 0.689 204 174 194 0 0
-4.2828 -3.3056 -5.0216 0.364 0.259 0.895 214 193 207 0 0
-4.2701 -3.3232 -5.0093 0.721 0.302 0.624 215 194 207 0 0
-4.2641 -3.5087 -4.9829 0.250 0.182 0.951 211 199 217 0 0
-4.2630 -3.5243 -4.9802 0.297 0.110 0.948 208 195 212 0 0
-4.2928 -3.5664 -4.9994 0.886 -0.331 0.325 205 184 195 0 0
-4.3027 -3.5806 -5.0058 0.869 -0.492 -0.049 208 188 197 0 0
-4.3086 -3.5953 -5.0089 0.916 -0.371 0.150 207 186 197 0 0
-4.2998 -3.6118 -4.9998 0.830 0.146 0.539 208 186 196 0 0
-4.2966 -3.6277 -4.9954 0.704 0.614 0.356 206 183 192 0 0
-4.2921 -3.6436 -4.9899 0.636 0.628 0.448 204 183 196 0 0
-4.2722 -3.7842 -4.9575 0.420 -0.162 0.893 217 202 213 0 0
-4.3123 -3.9347 -4.9724 0.616 -0.273 0.739 209 186 204 0 0
-4.3042 -4.0122 -4.9569 0.557 0.500 0.663 214 200 215 0 0
-4.2826 -4.0902 -4.9303 0.633 0.592 0.499 219 207 220 0 0
-4.2816 -4.2740 -4.9081 0.234 0.680 0.695 189 153 175 0 0
-4.2708 -4.2895 -4.8976 0.178 0.547 0.818 204 175 196 0 0
-4.2776 -4.3047 -4.9013 0.285 0.442 0.850 210 186 205 0 0
-4.2741 -4.3200 -4.8967 0.680 0.175 0.712 214 192 209 0 0
-4.2711 -4.3353 -4.8926 0.452 0.363 0.815 217 196 212 0 0
-4.2646 -4.3506 -4.8855 0.326 0.352 0.877 214 193 210 0 0
-4.2576 -4.3811 -4.8763 0.140 0.038 0.989 217 196 211 0 0
-4.2581 -4.4421 -4.8696 0.183 0.144 0.972 208 182 200 0 0
-4.2533 -4.4572 -4.8640 0.259 0.313 0.914 205 178 199 0 0
-4.2561 -4.4725 -4.8645 0.147 -0.003 0.989 194 166 190 0 0
-4.2559 -4.4877 -4.8625 0.099 -0.202 0.974 186 155 185 0 0
-4.2678 -4.5183 -4.8686 0.090 -0.416 0.905 171 133 175 0 0
-4.2775 -4.5338 -4.8747 0.090 -0.416 0.905 159 118 158 0 0
-4.2792 -4.6863 -4.8583 0.468 0.439 0.767 166 156 208 0 0
-4.2817 -4.7017 -4.8586 0.342 0.036 0.939 163 150 203 0 0
-4.2716 -4.7164 -4.8487 0.467 0.463 0.753 155 132 185 0 0
-4.2883 -4.8088 -4.8515 0.214 -0.105 0.971 156 117 163 0 0
-4.2894 -4.8241 -4.8506 0.219 0.549 0.807 153 113 158 0 0
-4.2847 -4.8390 -4.8451 0.290 0.567 0.771 154 112 157 0 0
-4.2723 -4.9141 -4.8263 0.324 -0.075 0.943 142 88 123 0 0
-4.2979 -5.1144 -4.8238 0.250 0.447 0.859 162 133 178 0 0
-4.2783 -5.3396 -4.7817 0.199 0.302 0.932 210 187 195 0 0
-4.2758 -5.3544 -4.7780 0.245 0.268 0.932 214 196 200 0 0
-4.2806 -5.4309 -4.7730 0.222 -0.031 0.975 216 205 209 0 0
-4.2828 -5.4464 -4.7730 0.222 -0.031 0.975 214 203 206 0 0
-4.2944 -5.4635 -4.7804 0.210 -0.434 0.876 217 206 208 0 0
-4.3120 -5.4969 -4.7908 0.542 -0.617 0.571 214 202 204 0 0
-4.3147 -5.5126 -4.7912 0.958 0.285 0.025 215 203 203 0 0
-4.3012 -5.5406 -4.7769 0.687 -0.233 0.688 219 208 209 0 0
-4.2918 -5.5692 -4.7660 0.107 0.644 0.757 216 203 204 0 0
-4.2706 -5.6708 -4.7370 0.303 0.383 0.873 222 212 215 0 0
-4.2692 -5.6857 -4.7342 0.312 0.140 0.940 219 208 211 0 0
-4.2666 -5.7002 -4.7304 0.214 0.254 0.943 216 206 207 0 0
-4.2799 -5.8237 -4.7268 0.452 -0.380 0.807 215 207 209 0 0
-4.2836 -5.8397 -4.7280 0.385 -0.190 0.903 215 208 212 0 0
-4.2575 -5.9238 -4.6970 0.291 0.240 0.926 211 201 202 0 0
-4.2504 -5.9521 -4.6880 0.382 -0.101 0.919 215 205 205 0 0
-4.2508 -5.9672 -4.6866 0.446 0.120 0.887 216 206 207 0 0
-4.2533 -5.9828 -4.6868 0.329 0.212 0.920 214 204 204 0 0
-4.2399 -6.0692 -4.6659 0.244 -0.225 0.943 217 208 209 0 0
-4.2471 -6.1310 -4.6645 0.395 -0.356 0.847 218 208 207 0 0
-4.2535 -6.1478 -4.6678 0.455 -0.109 0.884 216 206 205 0 0
-4.2564 -6.1635 -4.6683 0.455 -0.109 0.884 216 205 204 0 0
-4.2403 -6.1739 -4.6541 0.310 0.332 0.891 216 206 204 0 0
-4.2492 -6.1914 -4.6592 0.189 0.609 0.771 211 201 199 0 0
-4.2077 -6.4467 -4.5960 0.074 0.033 0.997 217 208 209 0 0
-4.2304 -6.5286 -4.6048 0.155 -0.308 0.939 211 200 200 0 0
-4.2075 -6.6689 -4.5700 0.247 0.246 0.937 212 203 202 0 0
-4.2131 -6.7301 -4.5674 0.237 -0.002 0.971 211 202 201 0 0
-4.2125 -6.7891 -4.5601 0.040 -0.185 0.982 213 203 202 0 0
-4.2334 -6.9158 -4.5623 0.449 0.259 0.855 210 200 200 0 0
-4.2235 -6.9414 -4.5513 0.619 0.283 0.732 213 208 212 0 0
-4.2152 -6.9971 -4.5381 0.207 0.115 0.972 215 210 214 0 0
-4.2194 -7.0285 -4.5379 0.177 0.176 0.968 214 208 212 0 0
-4.2169 -7.0422 -4.5343 0.480 0.134 0.867 214 208 210 0 0
-4.2209 -7.0586 -4.5356 0.378 -0.198 0.905 213 207 208 0 0
-4.2199 -7.0730 -4.5331 0.514 -0.082 0.854 211 205 208 0 0
-4.2142 -7.0853 -4.5270 0.818 0.071 0.570 215 209 211 0 0
-4.2278 -7.1060 -4.5357 0.797 -0.212 0.566 216 209 213 0 0
-4.2279 -7.1356 -4.5324 0.094 0.407 0.908 217 212 218 0 0
-4.2155 -7.1596 -4.5195 0.097 0.224 0.970 213 208 214 0 0
-4.1966 -7.3863 -4.4778 0.187 0.037 0.982 213 204 205 0 0
-4.2014 -7.4473 -4.4746 0.187 0.037 0.982 205 199 202 0 0
-4.1650 -7.7936 -4.4049 0.116 0.452 0.884 209 199 198 0 0
-4.1601 -7.8054 -4.3996 0.116 0.452 0.884 210 201 200 0 0
-4.1392 -7.8518 -4.3773 0.076 0.486 0.871 209 199 197 0 0
-4.1396 -7.8664 -4.3759 0.017 0.488 0.872 208 198 197 0 0
-4.1287 -7.8747 -4.3661 0.595 0.225 0.772 208 198 196 0 0
-3.7722 -0.1547 -4.9559 0.395 -0.059 0.917 206 204 209 0 0
-3.7741 -0.1679 -4.9559 0.395 -0.059 0.917 205 201 207 0 0
-3.8133 -0.1982 -4.9840 0.017 -0.132 0.991 210 206 211 0 0
-3.8392 -0.3125 -4.9917 0.345 0.289 0.893 206 204 209 0 0
-3.8295 -0.3487 -4.9796 0.359 0.061 0.932 209 206 211 0 0
-3.8301 -0.3630 -4.9784 0.359 0.061 0.932 210 208 213 0 0
-3.8332 -0.3756 -4.9795 0.363 0.095 0.927 210 207 213 0 0
-3.8336 -0.3901 -4.9781 0.377 -0.353 0.856 211 206 212 0 0
-3.8384 -0.4015 -4.9807 0.377 -0.353 0.856 208 203 209 0 0
-3.8427 -0.4429 -4.9793 0.313 -0.135 0.940 209 207 212 0 0
-3.8626 -0.4443 -4.9952 0.315 0.601 0.735 209 207 212 0 0
-3.8476 -0.4691 -4.9802 0.373 0.512 0.774 208 206 211 0 0
-3.8827 -0.7865 -4.9718 0.282 -0.329 0.901 209 204 209 0 0
-3.8857 -0.7995 -4.9726 0.297 -0.421 0.857 207 202 206 0 0
-3.9216 -0.8521 -4.9956 0.503 -0.544 0.672 212 210 216 0 0
-3.9326 -0.9499 -4.9930 0.533 0.024 0.846 210 203 205 0 0
-3.9335 -0.9643 -4.9921 0.533 0.024 0.846 210 206 208 0 0
-3.9581 -1.1444 -4.9911 0.118 0.105 0.988 207 201 205 0 0
-3.9829 -1.2058 -5.0039 0.040 -0.383 0.923 214 208 209 0 0
-4.0178 -1.2024 -5.0325 0.480 -0.469 0.741 212 205 203 0 0
-4.0222 -1.2151 -5.0346 0.118 -0.434 0.893 207 197 195 0 0
-4.0475 -1.2321 -5.0530 0.072 -0.832 0.550 208 199 194 0 0
-4.0279 -1.3629 -5.0221 0.605 0.020 0.796 216 215 224 0 0
-4.0595 -1.5287 -5.0283 0.167 -0.112 0.980 216 210 212 0 0
-4.0379 -1.5540 -5.0079 0.259 -0.736 0.626 213 207 207 0 0
-4.0335 -1.5711 -5.0024 0.227 -0.328 0.917 214 208 207 0 0
-4.0873 -1.8191 -5.0170 0.765 -0.141 0.629 215 213 219 0 0
-4.0896 -1.8333 -5.0173 0.765 -0.141 0.629 213 211 216 0 0
-4.1714 -1.9372 -5.0712 0.696 -0.378 0.610 211 208 216 0 0
-4.1855 -2.0238 -5.0725 0.414 0.063 0.908 215 210 214 0 0
-4.1891 -2.1300 -5.0631 0.264 -0.229 0.937 218 213 219 0 0
-4.2116 -2.1834 -5.0751 0.203 -0.108 0.973 210 201 208 0 0
-4.2493 -2.2475 -5.0980 0.181 -0.156 0.971 214 207 216 0 0
-4.2689 -2.7214 -5.0589 0.546 0.421 0.725 184 186 223 0 0
-4.2969 -3.4109 -5.0014 0.247 -0.116 0.962 194 183 207 0 0
-4.2989 -3.5650 -4.9852 0.656 -0.007 0.755 192 178 204 0 0
-4.3049 -3.5797 -4.9883 0.795 -0.291 0.532 188 176 206 0 0
-4.3058 -3.5950 -4.9872 0.788 -0.121 0.604 187 175 205 0 0
-4.3097 -3.6099 -4.9887 0.793 0.146 0.592 194 184 211 0 0
-4.3081 -3.6256 -4.9856 0.637 0.543 0.547 197 187 211 0 0
-4.3025 -3.6417 -4.9792 0.630 0.541 0.558 196 186 210 0 0
-4.3051 -3.6568 -4.9795 0.536 0.091 0.839 200 186 210 0 0
-4.3020 -3.6726 -4.9752 0.448 0.170 0.878 197 180 203 0 0
-4.2826 -3.7362 -4.9522 0.430 0.431 0.793 211 196 213 0 0
-4.3348 -3.9784 -4.9662 0.721 0.592 0.360 188 157 183 0 0
-4.3177 -4.0103 -4.9487 0.640 0.544 0.543 204 185 208 0 0
-4.3116 -4.0261 -4.9419 0.712 0.454 0.535 211 191 214 0 0
-4.2936 -4.0885 -4.9201 0.469 0.285 0.836 212 198 217 0 0
-4.2969 -4.2724 -4.9014 0.217 0.706 0.674 167 137 170 0 0
-4.2950 -4.3031 -4.8963 0.285 0.442 0.850 186 159 189 0 0
-4.2848 -4.3185 -4.8863 0.452 0.144 0.880 197 172 199 0 0
-4.2856 -4.3338 -4.8852 0.452 0.363 0.815 199 176 202 0 0
-4.2816 -4.3491 -4.8802 0.233 0.242 0.942 204 183 209 0 0
-4.2813 -4.4865 -4.8640 0.034 -0.100 0.994 173 139 185 0 0
-4.3054 -4.5328 -4.8781 -0.005 -0.217 0.976 164 122 165 0 0
-4.3050 -4.6552 -4.8636 0.478 0.405 0.780 161 134 190 0 0
-4.3283 -4.8708 -4.8573 -0.186 -0.357 0.916 142 82 122 0 0
-4.3180 -5.0840 -4.8243 0.503 0.338 0.795 157 128 177 0 0
