ply
format ascii 1.0
element vertex 815
property float x
property float y
property float z
property float nx
property float ny
property float nz
property uchar diffuse_red
property uchar diffuse_green
property uchar diffuse_blue
property uchar class
property uchar detection
end_header
-4.3028 -7.4685 -4.4633 0.461 -0.070 0.885 209 198 195 0 0
-4.3056 -7.4830 -4.4624 0.412 0.269 0.871 209 199 195 0 0
-4.2999 -7.5092 -4.4521 0.263 0.569 0.779 209 198 194 0 0
-4.2948 -7.5217 -4.4452 0.188 0.498 0.846 205 194 191 0 0
-4.2868 -7.5334 -4.4362 0.158 0.530 0.833 205 195 193 0 0
-4.2729 -7.6938 -4.3901 0.450 -0.172 0.876 210 201 200 0 0
-4.2736 -7.7076 -4.3877 0.320 -0.358 0.877 210 202 200 0 0
-4.2804 -7.7232 -4.3898 0.289 -0.174 0.941 208 200 199 0 0
-4.2860 -8.1819 -4.2947 0.380 0.182 0.907 204 193 192 0 0
-3.5407 -1.6297 -5.0928 0.433 -0.701 0.566 196 184 177 0 0
-3.5499 -1.6396 -5.0980 0.433 -0.701 0.566 193 177 169 0 0
-3.5601 -1.6487 -5.1043 0.462 -0.456 0.761 196 181 173 0 0
-3.6203 -1.8742 -5.1042 0.392 0.270 0.880 203 198 204 0 0
-3.6291 -1.9184 -5.1018 0.254 -0.180 0.950 202 196 201 0 0
-3.7489 -2.1747 -5.1433 0.144 0.238 0.961 203 197 200 0 0
-3.7890 -2.4521 -5.1157 0.573 0.396 0.717 207 201 207 0 0
-3.7906 -2.4678 -5.1136 0.366 0.176 0.914 203 197 202 0 0
-3.7860 -2.4872 -5.1056 0.259 0.356 0.898 203 196 199 0 0
-3.8522 -2.9315 -5.0630 0.136 0.049 0.989 206 192 195 0 0
-3.8552 -2.9465 -5.0621 0.141 0.151 0.978 206 190 191 0 0
-3.8617 -2.9597 -5.0645 0.136 -0.026 0.990 205 190 190 0 0
-3.8663 -2.9738 -5.0652 0.141 -0.459 0.877 208 193 193 0 0
-4.0443 -3.9892 -4.9894 0.450 0.429 0.784 215 209 219 0 0
-4.0413 -4.0380 -4.9763 0.143 -0.097 0.985 214 208 218 0 0
-4.0427 -4.1965 -4.9431 0.523 0.362 0.771 213 202 210 0 0
-4.0657 -4.4113 -4.9152 0.152 -0.362 0.920 208 192 196 0 0
-4.0555 -4.5698 -4.8726 0.251 0.272 0.929 209 195 204 0 0
-4.1040 -4.7930 -4.8636 -0.021 0.105 0.994 209 195 201 0 0
-4.1058 -4.8854 -4.8450 0.319 0.109 0.941 213 202 208 0 0
-4.1635 -5.0926 -4.8468 0.137 -0.246 0.960 210 195 201 0 0
-4.1612 -5.1389 -4.8349 0.376 0.439 0.816 206 196 211 0 0
-4.1606 -5.2155 -4.8178 0.151 0.156 0.976 213 201 209 0 0
-4.1696 -5.2298 -4.8220 0.305 -0.095 0.948 213 200 207 0 0
-4.1687 -5.2452 -4.8179 0.277 0.096 0.956 211 198 205 0 0
-4.1675 -5.2758 -4.8104 0.275 0.394 0.877 209 194 201 0 0
-4.1627 -5.2915 -4.8030 0.360 0.497 0.789 209 195 202 0 0
-4.1606 -5.3069 -4.7980 0.267 0.404 0.875 213 201 207 0 0
-4.1573 -5.3224 -4.7919 0.255 0.369 0.894 216 205 211 0 0
-4.1648 -5.3521 -4.7916 0.255 -0.052 0.966 215 204 209 0 0
-4.1865 -5.4111 -4.7964 0.356 -0.298 0.886 206 195 199 0 0
-4.1907 -5.4259 -4.7966 0.452 -0.311 0.836 211 200 206 0 0
-4.2028 -5.4403 -4.8033 0.603 -0.690 0.400 215 209 216 0 0
-4.2003 -5.4556 -4.7979 0.297 -0.022 0.955 217 213 224 0 0
-4.2017 -5.4707 -4.7958 0.276 0.077 0.958 216 213 224 0 0
-4.1927 -5.5619 -4.7687 0.266 0.187 0.946 214 204 207 0 0
-4.1707 -5.6678 -4.7280 0.225 0.227 0.947 208 197 198 0 0
-4.1778 -5.6974 -4.7273 0.258 -0.031 0.966 209 198 200 0 0
-4.1771 -5.7123 -4.7235 0.243 -0.291 0.925 210 198 200 0 0
-4.1853 -5.7271 -4.7270 0.280 -0.330 0.902 209 197 199 0 0
-4.1734 -6.0081 -4.6564 0.178 -0.421 0.890 216 206 207 0 0
-4.1841 -6.0230 -4.6619 0.518 0.049 0.854 213 203 204 0 0
-4.1797 -6.0376 -4.6551 0.717 -0.144 0.682 211 201 202 0 0
-4.1847 -6.0524 -4.6560 0.560 -0.175 0.810 209 199 200 0 0
-4.1979 -6.0674 -4.6634 0.391 -0.368 0.844 210 201 203 0 0
-4.2108 -6.0972 -4.6674 0.390 -0.729 0.562 213 204 206 0 0
-4.2262 -6.1125 -4.6765 0.390 -0.729 0.562 211 203 205 0 0
-4.2330 -6.1275 -4.6788 0.296 -0.548 0.782 210 202 203 0 0
-4.2416 -6.1426 -4.6825 0.319 -0.503 0.803 213 205 206 0 0
-4.2154 -6.2292 -4.6425 0.416 0.680 0.605 214 210 214 0 0
-4.2015 -6.3445 -4.6063 0.210 0.201 0.957 213 204 205 0 0
-4.2070 -6.3594 -4.6075 0.155 -0.079 0.985 214 205 206 0 0
-4.2115 -6.3742 -4.6080 0.155 -0.079 0.985 212 203 204 0 0
-4.2161 -6.3890 -4.6084 0.155 -0.079 0.985 211 202 204 0 0
-4.2188 -6.4037 -4.6075 0.107 -0.027 0.994 211 203 203 0 0
-4.2190 -6.4182 -4.6045 0.215 0.419 0.882 211 203 202 0 0
-4.2155 -6.4323 -4.5986 0.215 0.419 0.882 211 202 201 0 0
-4.2348 -6.5207 -4.5950 0.100 -0.379 0.920 207 196 196 0 0
-4.2324 -6.5349 -4.5901 0.686 0.036 0.727 211 201 201 0 0
-4.2369 -6.5497 -4.5905 0.848 0.152 0.508 212 203 204 0 0
-4.2382 -6.5643 -4.5884 0.730 0.069 0.680 210 201 202 0 0
-4.2412 -6.5790 -4.5876 0.824 0.368 0.430 211 202 203 0 0
-4.2349 -6.5926 -4.5796 0.774 0.098 0.625 211 203 203 0 0
-4.2353 -6.6070 -4.5768 0.774 0.098 0.625 212 203 203 0 0
-4.2341 -6.6212 -4.5727 0.741 0.236 0.628 211 202 201 0 0
-4.2408 -6.6364 -4.5749 0.577 0.341 0.742 209 199 198 0 0
-4.2356 -6.6643 -4.5646 0.477 0.291 0.829 211 202 201 0 0
-4.2340 -6.6784 -4.5603 0.305 0.073 0.950 212 201 201 0 0
-4.2364 -6.6930 -4.5590 0.282 -0.193 0.940 212 203 202 0 0
-4.2431 -6.7082 -4.5612 0.233 -0.367 0.900 210 200 198 0 0
-4.2483 -6.7232 -4.5622 0.247 -0.139 0.959 208 197 195 0 0
-4.2456 -6.7371 -4.5569 0.065 0.234 0.970 209 198 196 0 0
-4.2855 -6.8713 -4.5601 -0.106 0.191 0.976 209 198 194 0 0
-4.2765 -6.8842 -4.5501 -0.046 0.182 0.982 208 196 193 0 0
-4.2677 -6.9253 -4.5340 0.584 0.537 0.609 209 200 202 0 0
-4.2664 -6.9392 -4.5300 0.685 0.174 0.707 209 201 204 0 0
-4.2614 -6.9525 -4.5230 0.632 0.061 0.773 209 203 207 0 0
-4.2644 -6.9672 -4.5223 0.629 -0.007 0.777 212 207 209 0 0
-4.2789 -6.9839 -4.5304 0.327 -0.192 0.925 212 206 209 0 0
-4.2808 -7.0266 -4.5227 0.237 0.457 0.858 211 205 207 0 0
-4.3182 -7.5103 -4.4482 0.437 0.647 0.624 210 201 199 0 0
-4.3106 -7.5222 -4.4394 0.372 0.582 0.723 207 197 195 0 0
-4.3066 -7.5349 -4.4334 0.337 0.620 0.709 207 197 196 0 0
-4.2993 -7.5468 -4.4250 0.153 0.604 0.782 208 198 197 0 0
-4.2994 -7.7250 -4.3864 0.313 0.057 0.948 209 199 198 0 0
-4.3056 -7.7404 -4.3881 0.353 0.166 0.921 207 197 196 0 0
-4.3240 -7.8005 -4.3900 0.374 -0.385 0.844 208 198 194 0 0
-4.3011 -8.1434 -4.2971 0.387 0.399 0.831 201 191 189 0 0
-4.3019 -8.1570 -4.2948 0.584 -0.059 0.810 203 192 190 0 0
-4.3037 -8.1709 -4.2933 0.385 0.081 0.919 205 195 193 0 0
-4.3043 -8.1844 -4.2908 0.313 0.252 0.916 207 197 195 0 0
-3.6352 -1.8827 -5.0951 0.164 -0.001 0.987 204 198 204 0 0
-3.6958 -2.0093 -5.1167 0.367 -0.215 0.905 208 207 213 0 0
-3.7287 -2.0039 -5.1444 0.403 -0.202 0.893 209 207 214 0 0
-3.7764 -2.3273 -5.1129 0.121 -0.111 0.986 201 195 199 0 0
-3.8389 -2.7911 -5.0631 0.194 0.091 0.977 202 190 193 0 0
-3.8840 -2.9660 -5.0617 0.182 -0.111 0.977 208 193 193 0 0
-3.9574 -3.2769 -5.0537 0.103 -0.429 0.897 208 190 188 0 0
-3.9667 -3.2893 -5.0586 0.103 -0.429 0.897 212 194 191 0 0
-3.9832 -3.5434 -5.0170 0.257 -0.016 0.966 214 209 216 0 0
-3.9865 -3.5583 -5.0163 0.257 -0.016 0.966 215 210 218 0 0
-4.0030 -3.6977 -4.9995 0.312 -0.076 0.947 214 204 212 0 0
-4.0523 -3.8257 -5.0116 0.012 -0.135 0.991 207 196 202 0 0
-4.0642 -3.8379 -5.0186 0.436 -0.070 0.897 208 196 201 0 0
-4.0701 -3.8521 -5.0203 0.496 0.062 0.866 211 200 206 0 0
-4.0660 -3.8696 -5.0132 0.599 -0.036 0.800 211 202 208 0 0
-4.0712 -3.8840 -5.0143 0.633 0.211 0.745 212 202 210 0 0
-4.0706 -3.9003 -5.0102 0.633 0.211 0.745 210 200 207 0 0
-4.0594 -4.0482 -4.9693 0.356 -0.198 0.913 214 207 217 0 0
-4.0668 -4.0780 -4.9688 0.540 -0.024 0.841 212 208 220 0 0
-4.0670 -4.1735 -4.9484 0.537 0.010 0.844 213 203 214 0 0
-4.0689 -4.3784 -4.9056 0.269 -0.246 0.931 213 200 207 0 0
-4.0752 -4.3926 -4.9075 0.269 -0.246 0.931 207 193 202 0 0
-4.0864 -4.4528 -4.9036 0.372 0.565 0.737 210 203 215 0 0
-4.1118 -4.7130 -4.8679 0.318 -0.246 0.915 201 179 177 0 0
-4.1210 -4.7268 -4.8723 0.415 -0.219 0.883 203 182 181 0 0
-4.1263 -4.7414 -4.8734 0.415 -0.219 0.883 210 192 190 0 0
-4.1306 -4.7562 -4.8737 0.286 -0.176 0.942 210 196 200 0 0
-4.1310 -4.7717 -4.8707 0.152 0.134 0.979 212 200 210 0 0
-4.1773 -5.0895 -4.8393 0.035 -0.063 0.997 204 181 188 0 0
-4.1880 -5.1035 -4.8449 0.267 0.005 0.964 204 187 200 0 0
-4.1810 -5.2119 -4.8158 0.118 0.091 0.989 211 198 207 0 0
-4.1811 -5.3034 -4.7961 0.167 0.287 0.943 210 196 200 0 0
-4.1813 -5.3339 -4.7897 0.163 0.038 0.986 212 200 205 0 0
-4.1841 -5.3488 -4.7887 0.163 0.038 0.986 212 200 205 0 0
-4.1943 -5.3784 -4.7905 0.353 -0.068 0.933 213 201 207 0 0
-4.1974 -5.3934 -4.7898 0.415 -0.120 0.902 211 200 204 0 0
-4.2011 -5.4083 -4.7896 0.356 -0.298 0.886 211 200 204 0 0
-4.2048 -5.4232 -4.7893 0.576 -0.403 0.712 214 203 210 0 0
-4.2128 -5.4378 -4.7926 0.553 -0.739 0.385 217 211 219 0 0
-4.2204 -5.4525 -4.7956 0.609 -0.522 0.598 216 213 223 0 0
-4.2168 -5.4679 -4.7894 0.677 0.107 0.728 214 209 220 0 0
-4.2280 -5.4824 -4.7953 0.190 -0.064 0.980 214 208 219 0 0
-4.1945 -5.6800 -4.7255 0.218 0.310 0.925 207 195 197 0 0
-4.1965 -5.6949 -4.7239 0.201 0.132 0.971 206 194 197 0 0
-4.1977 -5.7098 -4.7216 0.201 0.132 0.971 207 196 198 0 0
-4.1999 -5.7247 -4.7202 0.183 0.066 0.981 209 197 200 0 0
-4.1986 -6.0358 -4.6519 0.337 0.072 0.939 212 203 202 0 0
-4.2183 -6.0951 -4.6549 0.475 -0.604 0.640 209 199 198 0 0
-4.2327 -6.1104 -4.6633 0.319 -0.631 0.707 210 200 200 0 0
-4.2230 -6.2709 -4.6207 0.291 0.220 0.931 210 201 201 0 0
-4.2298 -6.3731 -4.6042 0.157 -0.057 0.986 213 204 205 0 0
-4.2464 -6.6055 -4.5673 0.643 0.017 0.766 211 201 201 0 0
-4.2532 -6.6637 -4.5602 0.428 0.290 0.856 214 205 204 0 0
-4.2534 -6.6924 -4.5542 0.251 -0.203 0.946 214 204 203 0 0
-4.2604 -6.7076 -4.5565 0.233 -0.367 0.900 211 200 199 0 0
-4.2664 -6.7227 -4.5581 0.221 -0.138 0.966 208 197 196 0 0
-4.3047 -6.8713 -4.5568 0.083 0.280 0.956 212 202 200 0 0
-4.2820 -6.9671 -4.5179 0.374 -0.248 0.894 210 204 206 0 0
-4.2935 -7.0116 -4.5175 0.336 0.114 0.935 209 202 204 0 0
-4.2984 -7.3075 -4.4575 0.185 0.194 0.964 202 192 190 0 0
-4.3326 -7.5104 -4.4412 0.248 0.520 0.817 209 202 203 0 0
-4.3140 -7.5470 -4.4183 0.406 0.618 0.673 208 199 198 0 0
-4.3069 -7.6139 -4.3981 0.165 0.172 0.971 205 195 193 0 0
-4.3167 -7.7262 -4.3817 0.353 -0.259 0.899 208 198 197 0 0
-4.3211 -7.7412 -4.3820 0.353 0.166 0.921 207 197 195 0 0
-4.3245 -7.7559 -4.3816 0.388 0.255 0.886 207 196 194 0 0
-4.3333 -7.7858 -4.3822 0.484 -0.462 0.743 207 196 194 0 0
-3.6792 -1.9384 -5.0992 0.232 -0.013 0.973 207 201 206 0 0
-3.6844 -1.9517 -5.1005 0.443 -0.522 0.729 209 203 208 0 0
-3.6909 -1.9641 -5.1031 0.634 -0.419 0.650 210 204 210 0 0
-3.6964 -1.9772 -5.1046 0.605 -0.385 0.696 206 202 207 0 0
-3.7009 -1.9910 -5.1053 0.521 -0.431 0.737 204 198 205 0 0
-3.7943 -2.3180 -5.1098 0.111 -0.119 0.987 204 197 203 0 0
-3.8355 -2.4445 -5.1157 0.046 0.260 0.965 204 197 201 0 0
-3.8558 -2.7668 -5.0625 0.232 0.014 0.973 203 191 193 0 0
-3.8589 -2.7817 -5.0618 0.275 -0.084 0.958 204 192 193 0 0
-3.8765 -2.7890 -5.0743 0.134 0.173 0.976 206 193 193 0 0
-3.9754 -3.2697 -5.0502 0.009 -0.619 0.785 210 192 191 0 0
-4.0015 -3.3077 -5.0629 0.465 0.026 0.885 212 200 201 0 0
-4.0004 -3.3246 -5.0584 0.450 0.282 0.848 214 205 211 0 0
-3.9994 -3.3415 -5.0540 0.445 0.275 0.852 213 208 216 0 0
-4.0026 -3.5361 -5.0146 0.242 -0.024 0.970 214 208 216 0 0
-4.0066 -3.5508 -5.0146 0.122 -0.170 0.978 216 211 218 0 0
-4.0287 -3.7047 -4.9992 0.429 -0.108 0.897 216 206 214 0 0
-4.0394 -3.7494 -4.9981 0.364 -0.364 0.857 211 200 207 0 0
-4.0465 -3.7631 -5.0009 0.364 -0.364 0.857 208 195 202 0 0
-4.0631 -3.7897 -5.0085 0.107 -0.403 0.909 210 201 207 0 0
-4.0680 -3.8042 -5.0093 0.128 -0.266 0.955 213 207 213 0 0
-4.0737 -3.8184 -5.0109 0.417 -0.018 0.909 211 206 214 0 0
-4.0829 -3.8639 -5.0085 0.488 0.159 0.858 214 208 216 0 0
-4.0840 -3.8797 -5.0059 0.541 0.203 0.816 211 204 212 0 0
-4.0800 -4.0897 -4.9574 0.652 -0.237 0.721 213 208 218 0 0
-4.0847 -4.1043 -4.9580 0.652 -0.237 0.721 214 210 222 0 0
-4.0879 -4.1194 -4.9574 0.627 0.046 0.778 214 208 220 0 0
-4.0894 -4.1349 -4.9552 0.627 0.046 0.778 214 206 218 0 0
-4.0907 -4.3724 -4.9050 0.241 -0.024 0.970 214 201 208 0 0
-4.0907 -4.3882 -4.9016 0.287 -0.225 0.931 210 197 207 0 0
-4.0976 -4.4023 -4.9041 0.229 -0.500 0.836 207 195 207 0 0
-4.1077 -4.4156 -4.9093 0.229 -0.500 0.836 208 201 214 0 0
-4.1548 -4.7664 -4.8716 0.285 0.116 0.951 203 199 217 0 0
-4.1513 -4.7981 -4.8619 0.241 0.240 0.940 212 208 221 0 0
-4.2089 -5.3756 -4.7836 0.090 -0.260 0.961 210 197 204 0 0
-4.2186 -5.3901 -4.7883 0.215 -0.108 0.970 211 200 204 0 0
-4.2233 -5.4049 -4.7889 0.215 -0.108 0.970 211 200 204 0 0
-4.2265 -5.4199 -4.7882 0.289 -0.283 0.915 212 202 206 0 0
-4.2331 -5.4347 -4.7903 0.404 -0.368 0.838 217 209 214 0 0
-4.2391 -5.4495 -4.7920 0.441 -0.197 0.875 214 206 212 0 0
-4.2457 -5.4643 -4.7941 0.398 -0.206 0.894 211 201 207 0 0
-4.2557 -5.4789 -4.7990 0.370 -0.469 0.802 210 200 205 0 0
-4.2335 -5.5864 -4.7580 0.089 0.257 0.962 208 195 195 0 0
-4.2263 -5.6018 -4.7488 0.170 0.170 0.971 211 199 202 0 0
-4.2178 -5.7373 -4.7128 0.231 -0.032 0.972 211 200 202 0 0
-4.2298 -5.7670 -4.7160 0.222 -0.104 0.970 213 202 204 0 0
-4.2376 -5.7968 -4.7159 0.175 0.053 0.983 207 195 195 0 0
-4.2423 -5.8117 -4.7165 0.139 0.372 0.918 213 203 202 0 0
-4.2407 -5.8266 -4.7119 0.092 0.008 0.996 213 203 203 0 0
-4.2750 -6.1392 -4.6721 0.439 -0.168 0.883 213 202 200 0 0
-4.2610 -6.1828 -4.6514 0.160 0.451 0.878 211 201 199 0 0
-4.2572 -6.2119 -4.6421 0.265 0.652 0.710 210 198 197 0 0
-4.2577 -6.2266 -4.6393 0.069 0.314 0.947 208 197 196 0 0
-4.2446 -6.2405 -4.6258 0.144 0.088 0.986 208 197 195 0 0
-4.2464 -6.2553 -4.6241 0.190 0.097 0.977 208 197 195 0 0
-4.2484 -6.2700 -4.6225 0.190 0.134 0.973 208 197 195 0 0
-4.2462 -6.2844 -4.6176 0.349 0.532 0.771 207 196 194 0 0
-4.2492 -6.3720 -4.6011 0.204 -0.156 0.966 211 203 202 0 0
-4.2708 -6.5045 -4.5899 0.264 -0.418 0.869 206 195 194 0 0
-4.2725 -6.6345 -4.5632 0.338 0.357 0.871 211 201 199 0 0
-4.2660 -6.6768 -4.5489 0.321 0.321 0.891 215 206 206 0 0
-4.2718 -6.6919 -4.5503 0.239 -0.110 0.965 213 203 202 0 0
-4.2844 -6.7222 -4.5539 0.221 -0.138 0.966 209 197 197 0 0
-4.2907 -6.7374 -4.5557 -0.041 0.288 0.957 210 200 199 0 0
-4.3160 -6.8127 -4.5598 0.191 -0.201 0.961 206 194 192 0 0
-4.3261 -6.8286 -4.5644 0.225 -0.430 0.874 210 200 199 0 0
-4.3287 -6.8434 -4.5634 0.479 0.348 0.806 211 203 201 0 0
-4.3131 -6.8981 -4.5390 0.321 0.220 0.921 208 200 202 0 0
-4.3024 -6.9675 -4.5154 0.303 -0.295 0.906 209 201 204 0 0
-4.3133 -6.9836 -4.5207 0.163 -0.193 0.968 210 201 204 0 0
-4.3512 -7.4838 -4.4433 0.412 0.094 0.906 206 197 199 0 0
-4.3256 -7.6016 -4.3974 0.189 0.198 0.962 205 195 193 0 0
-4.3262 -7.6155 -4.3948 0.175 0.039 0.984 205 195 193 0 0
-4.3350 -7.6867 -4.3865 0.199 0.341 0.919 211 202 200 0 0
-4.3338 -7.7274 -4.3768 0.264 -0.275 0.924 207 197 196 0 0
-4.3504 -7.7871 -4.3772 0.684 -0.280 0.673 202 193 191 0 0
-4.3537 -7.8836 -4.3591 0.213 -0.126 0.969 204 194 192 0 0
-4.3553 -7.8978 -4.3573 0.208 -0.164 0.964 204 194 190 0 0
-4.3567 -7.9118 -4.3554 0.295 -0.056 0.954 205 195 192 0 0
-4.3603 -7.9673 -4.3464 0.230 0.108 0.967 208 200 198 0 0
-4.3309 -8.1056 -4.2929 0.445 0.057 0.894 208 199 196 0 0
-4.3326 -8.1196 -4.2912 0.445 0.057 0.894 207 197 195 0 0
-3.6807 -1.8720 -5.0953 0.249 -0.029 0.968 206 200 205 0 0
-3.6819 -1.8881 -5.0928 0.285 0.127 0.950 204 198 202 0 0
-3.6895 -1.8996 -5.0964 0.222 0.118 0.968 202 196 200 0 0
-3.6958 -1.9291 -5.0951 0.234 -0.046 0.971 203 196 202 0 0
-3.7011 -1.9592 -5.0929 0.488 -0.355 0.797 207 201 207 0 0
-3.7058 -1.9729 -5.0937 0.659 -0.325 0.678 204 198 205 0 0
-3.7118 -1.9857 -5.0957 0.537 -0.510 0.672 200 191 198 0 0
-3.7934 -2.1178 -5.1326 0.615 -0.216 0.759 208 207 214 0 0
-3.7977 -2.1320 -5.1331 0.615 -0.216 0.759 211 211 219 0 0
-3.8021 -2.1461 -5.1336 0.615 -0.216 0.759 213 212 220 0 0
-3.8065 -2.1602 -5.1340 0.615 -0.216 0.759 209 207 213 0 0
-3.8572 -2.4165 -5.1195 -0.007 -0.102 0.995 203 197 201 0 0
-3.8713 -2.5429 -5.1036 0.240 0.479 0.844 206 199 204 0 0
-3.8605 -2.7323 -5.0542 0.511 0.368 0.777 204 192 194 0 0
-3.8705 -2.7601 -5.0562 0.260 -0.064 0.963 204 191 191 0 0
-3.8761 -2.7738 -5.0577 0.291 -0.117 0.950 204 191 191 0 0
-3.8964 -2.7797 -5.0727 0.143 0.125 0.982 207 193 193 0 0
-3.9008 -2.8107 -5.0696 0.089 0.073 0.993 208 196 198 0 0
-3.9916 -3.2632 -5.0449 0.009 -0.619 0.785 213 199 199 0 0
-4.0148 -3.3026 -5.0550 0.509 -0.020 0.860 211 205 212 0 0
-4.0263 -3.3142 -5.0617 0.731 0.181 0.657 214 211 223 0 0
-4.0224 -3.3651 -5.0477 0.802 0.164 0.575 212 210 223 0 0
-4.0427 -3.6998 -4.9919 0.429 -0.108 0.897 219 209 217 0 0
-4.0799 -3.7839 -5.0036 0.185 -0.484 0.855 210 204 215 0 0
-4.0858 -3.7981 -5.0053 0.488 -0.460 0.742 214 211 224 0 0
-4.0979 -3.8588 -5.0019 0.460 0.150 0.875 215 210 221 0 0
-4.1143 -4.3660 -4.9059 0.279 0.155 0.948 214 201 210 0 0
-4.1721 -4.7622 -4.8669 0.285 0.116 0.951 202 199 221 0 0
-4.1729 -4.7777 -4.8642 0.329 0.109 0.938 203 198 219 0 0
-4.1700 -4.7938 -4.8585 0.247 0.193 0.950 202 193 213 0 0
-4.2147 -4.9735 -4.8556 0.000 -0.469 0.883 172 139 158 0 0
-4.2265 -4.9873 -4.8620 0.006 -0.396 0.918 163 126 141 0 0
-4.2367 -5.0015 -4.8672 0.106 0.275 0.956 150 108 120 0 0
-4.2390 -5.0167 -4.8657 0.015 0.206 0.978 141 99 110 0 0
-4.2471 -5.4320 -4.7829 0.332 -0.177 0.927 213 203 207 0 0
-4.2523 -5.4469 -4.7839 0.332 -0.177 0.927 211 200 205 0 0
-4.2605 -5.4616 -4.7872 0.281 -0.315 0.907 210 198 203 0 0
-4.2739 -5.4760 -4.7949 0.158 -0.259 0.953 208 195 198 0 0
-4.2517 -5.4926 -4.7735 0.060 -0.407 0.911 210 198 200 0 0
-4.2552 -5.5835 -4.7567 0.089 0.257 0.962 207 193 193 0 0
-4.2458 -5.5991 -4.7459 0.170 0.170 0.971 211 200 202 0 0
-4.2356 -5.7349 -4.7085 0.231 -0.032 0.972 209 198 199 0 0
-4.2572 -5.7794 -4.7162 0.301 -0.206 0.931 208 196 196 0 0
-4.2592 -5.7944 -4.7146 0.545 -0.000 0.838 206 192 192 0 0
-4.2586 -5.8094 -4.7108 0.760 0.174 0.626 209 198 198 0 0
-4.2692 -5.9141 -4.6969 0.031 0.354 0.935 209 197 197 0 0
-4.2891 -6.1374 -4.6647 0.439 -0.168 0.883 210 199 199 0 0
-4.2756 -6.2105 -4.6382 0.287 0.675 0.679 209 198 198 0 0
-4.2754 -6.2252 -4.6349 0.175 0.277 0.945 206 194 194 0 0
-4.2636 -6.2392 -4.6224 0.190 0.097 0.977 208 196 196 0 0
-4.2720 -6.3712 -4.6007 0.113 -0.203 0.973 209 199 198 0 0
-4.2750 -6.3860 -4.5999 0.079 -0.399 0.914 208 198 196 0 0
-4.2848 -6.6619 -4.5484 0.187 0.316 0.930 207 196 195 0 0
-4.2832 -6.6761 -4.5441 0.237 0.278 0.931 209 198 197 0 0
-4.2935 -6.6918 -4.5490 0.059 -0.147 0.987 208 197 196 0 0
-4.3010 -6.7071 -4.5516 0.076 -0.286 0.955 209 199 198 0 0
-4.3131 -6.7231 -4.5579 -0.034 -0.097 0.995 208 197 196 0 0
-4.3193 -6.7815 -4.5503 0.312 -0.347 0.885 208 196 196 0 0
-4.3305 -6.7975 -4.5558 0.338 -0.456 0.823 207 196 195 0 0
-4.3450 -6.8428 -4.5577 0.754 0.233 0.614 209 203 205 0 0
-4.3440 -6.8570 -4.5538 0.825 0.236 0.513 209 201 205 0 0
-4.3325 -6.9125 -4.5327 0.249 0.289 0.924 210 202 205 0 0
-4.3225 -6.9820 -4.5097 0.432 -0.320 0.843 209 200 203 0 0
-4.3261 -6.9969 -4.5094 0.469 0.019 0.883 210 201 204 0 0
-4.3303 -7.0119 -4.5095 0.390 0.133 0.911 211 204 206 0 0
-4.3294 -7.0259 -4.5058 0.568 0.366 0.737 211 205 207 0 0
-4.3720 -7.1760 -4.5076 0.500 -0.101 0.860 211 203 204 0 0
-4.3656 -7.5117 -4.4303 0.322 0.205 0.924 209 200 201 0 0
-4.3459 -7.6172 -4.3918 0.058 0.035 0.998 205 195 192 0 0
-4.3505 -7.6460 -4.3893 0.175 0.039 0.984 205 195 193 0 0
-4.3490 -7.6731 -4.3822 0.140 0.294 0.945 207 197 195 0 0
-4.3532 -7.6881 -4.3824 0.129 0.321 0.938 210 200 199 0 0
-4.3502 -7.7010 -4.3772 0.177 -0.034 0.984 209 199 197 0 0
-4.3514 -7.7288 -4.3722 0.197 -0.331 0.923 207 197 195 0 0
-4.3570 -7.7715 -4.3674 0.487 0.104 0.867 198 188 185 0 0
-4.3703 -7.8029 -4.3713 0.378 -0.497 0.781 206 197 198 0 0
-4.3784 -7.8191 -4.3744 0.327 -0.148 0.933 209 203 204 0 0
-4.3388 -8.0908 -4.2841 0.434 -0.368 0.822 208 199 198 0 0
-3.5166 -1.3214 -5.0632 0.090 -0.066 0.994 195 187 184 0 0
-3.5290 -1.3282 -5.0716 0.170 -0.178 0.969 197 189 187 0 0
-3.5431 -1.3336 -5.0817 0.404 -0.165 0.900 197 191 193 0 0
-3.5393 -1.3538 -5.0744 0.757 0.340 0.557 203 201 207 0 0
-3.5259 -1.4156 -5.0504 0.605 0.207 0.769 204 203 212 0 0
-3.6723 -1.8125 -5.0820 0.401 -0.489 0.775 205 200 206 0 0
-3.6801 -1.8239 -5.0858 0.482 -0.379 0.790 202 197 203 0 0
-3.6873 -1.8357 -5.0890 0.401 -0.489 0.775 205 199 205 0 0
-3.7158 -1.9682 -5.0833 0.537 -0.358 0.764 204 198 204 0 0
-3.7768 -2.0458 -5.1153 0.200 -0.296 0.934 204 195 197 0 0
-3.8208 -2.1530 -5.1274 0.571 -0.084 0.817 212 210 217 0 0
-3.8239 -2.1680 -5.1267 0.498 -0.306 0.811 209 206 212 0 0
-3.8344 -2.2969 -5.1073 0.084 0.092 0.992 209 204 210 0 0
-3.8618 -2.3985 -5.1074 0.027 -0.241 0.970 203 196 203 0 0
-3.8730 -2.4087 -5.1142 0.035 -0.347 0.937 200 194 198 0 0
-3.8919 -2.6165 -5.0846 0.256 0.099 0.961 204 195 203 0 0
-3.8816 -2.7055 -5.0573 0.310 0.374 0.874 205 193 195 0 0
-3.8782 -2.7240 -5.0506 0.310 0.374 0.874 203 191 192 0 0
-3.8893 -2.7679 -5.0500 0.336 0.043 0.941 206 192 192 0 0
-3.9218 -2.8009 -5.0689 0.061 0.049 0.997 205 190 191 0 0
-3.9291 -2.8304 -5.0684 0.054 -0.018 0.998 208 193 194 0 0
-3.9333 -2.8449 -5.0686 0.046 -0.078 0.996 208 193 194 0 0
-3.9345 -2.8609 -5.0661 0.091 0.065 0.994 210 194 195 0 0
-3.9584 -2.8988 -5.0771 -0.021 -0.048 0.999 206 188 188 0 0
-3.9997 -3.1943 -5.0466 0.137 0.260 0.956 214 199 200 0 0
-4.0130 -3.2545 -5.0443 0.149 -0.077 0.986 213 198 199 0 0
-4.0587 -3.6779 -4.9898 0.389 -0.016 0.921 213 203 211 0 0
-4.0588 -3.6941 -4.9864 0.332 -0.045 0.942 217 207 215 0 0
-4.0626 -3.7089 -4.9863 0.436 0.096 0.895 218 210 217 0 0
-4.0652 -3.7242 -4.9850 0.564 -0.334 0.756 218 209 215 0 0
-4.0708 -3.7384 -4.9865 0.592 -0.293 0.751 216 207 213 0 0
-4.0927 -3.7795 -4.9951 0.373 -0.516 0.771 211 207 219 0 0
-4.1068 -3.8234 -4.9970 0.566 -0.094 0.819 215 214 228 0 0
-4.1324 -4.3450 -4.9054 0.232 0.284 0.930 213 198 207 0 0
-4.1655 -4.6215 -4.8725 -0.052 -0.323 0.945 202 175 180 0 0
-4.1631 -4.6377 -4.8671 -0.068 0.042 0.997 200 170 175 0 0
-4.1706 -4.6676 -4.8666 -0.065 0.037 0.997 193 159 165 0 0
-4.1895 -4.7737 -4.8589 0.329 0.109 0.938 183 172 201 0 0
-4.2019 -4.9119 -4.8392 0.008 0.021 1.000 161 125 148 0 0
-4.2074 -4.9266 -4.8404 -0.055 -0.280 0.958 157 120 144 0 0
-4.2472 -4.9675 -4.8634 0.346 -0.133 0.929 151 116 138 0 0
-4.2590 -4.9971 -4.8664 0.545 0.400 0.737 140 101 121 0 0
-4.2513 -5.0137 -4.8567 0.446 0.396 0.803 140 103 127 0 0
-4.2531 -5.0291 -4.8548 0.282 0.232 0.931 142 108 136 0 0
-4.2580 -5.0440 -4.8556 0.255 0.264 0.930 143 110 137 0 0
-4.2565 -5.0598 -4.8510 0.216 0.281 0.935 146 115 148 0 0
-4.2536 -5.1377 -4.8320 0.202 0.122 0.972 193 171 193 0 0
-4.2382 -5.1550 -4.8160 0.243 0.109 0.964 195 173 194 0 0
-4.2409 -5.1701 -4.8148 0.146 0.179 0.973 188 163 183 0 0
-4.2411 -5.1855 -4.8117 0.152 0.130 0.980 183 155 174 0 0
-4.2602 -5.4140 -4.7779 0.296 0.185 0.937 214 203 207 0 0
-4.2605 -5.4293 -4.7748 0.296 0.185 0.937 213 202 207 0 0
-4.2607 -5.4446 -4.7717 0.296 0.185 0.937 210 198 203 0 0
-4.2754 -5.4588 -4.7804 0.243 -0.312 0.919 209 196 199 0 0
-4.2843 -5.4736 -4.7843 0.269 -0.422 0.865 209 194 196 0 0
-4.2886 -5.5497 -4.7715 0.287 0.797 0.531 213 199 198 0 0
-4.2661 -5.5963 -4.7435 0.319 0.206 0.925 210 196 200 0 0
-4.2606 -5.6419 -4.7293 0.240 0.328 0.914 207 195 197 0 0
-4.2670 -5.7171 -4.7182 0.182 0.130 0.975 211 200 200 0 0
-4.2605 -5.7473 -4.7066 0.451 -0.435 0.779 208 194 197 0 0
-4.2678 -5.7622 -4.7092 0.333 -0.169 0.928 208 194 195 0 0
-4.2731 -5.7922 -4.7070 0.521 0.094 0.849 209 197 198 0 0
-4.2702 -5.8072 -4.7014 0.441 0.003 0.897 209 198 201 0 0
-4.2729 -5.8222 -4.7004 0.392 0.060 0.918 210 201 207 0 0
-4.2803 -5.8970 -4.6902 -0.045 0.062 0.997 212 203 205 0 0
-4.3197 -6.1660 -4.6640 0.862 -0.365 0.352 207 199 202 0 0
-4.3257 -6.1811 -4.6655 0.906 -0.303 0.296 211 206 208 0 0
-4.2967 -6.2239 -4.6332 0.312 0.201 0.928 206 194 194 0 0
-4.2827 -6.2378 -4.6190 0.352 0.193 0.916 208 197 197 0 0
-4.2799 -6.2523 -4.6136 0.289 0.412 0.864 211 201 200 0 0
-4.2749 -6.3105 -4.5971 0.313 0.193 0.930 211 201 200 0 0
-4.2761 -6.3252 -4.5949 0.294 0.052 0.954 212 204 202 0 0
-4.2772 -6.3399 -4.5927 0.260 0.044 0.965 215 206 205 0 0
-4.2805 -6.3547 -4.5921 0.231 0.010 0.973 212 203 201 0 0
-4.2911 -6.3701 -4.5973 0.235 -0.305 0.923 209 198 196 0 0
-4.3118 -6.4010 -4.6071 0.291 -0.485 0.825 209 198 194 0 0
-4.3170 -6.4161 -4.6081 0.381 -0.283 0.880 208 196 191 0 0
-4.3226 -6.4312 -4.6093 0.363 -0.266 0.893 208 196 192 0 0
-4.3361 -6.4471 -4.6167 0.540 -0.303 0.785 209 197 194 0 0
-4.3371 -6.4618 -4.6143 0.434 -0.156 0.887 210 199 197 0 0
-4.3317 -6.4759 -4.6070 0.401 0.381 0.833 208 198 197 0 0
-4.3455 -6.7967 -4.5491 0.338 -0.456 0.823 209 198 198 0 0
-4.3497 -6.8117 -4.5492 0.360 -0.204 0.910 209 200 201 0 0
-4.3546 -6.8268 -4.5499 0.441 -0.208 0.873 212 204 207 0 0
-4.3454 -6.9401 -4.5183 0.188 0.129 0.974 212 203 206 0 0
-4.3533 -7.0981 -4.4906 0.128 -0.336 0.933 209 200 199 0 0
-4.3813 -7.1604 -4.4996 0.357 -0.212 0.910 214 207 209 0 0
-4.3900 -7.1763 -4.5031 0.469 -0.000 0.883 211 205 207 0 0
-4.3906 -7.1907 -4.5005 0.476 0.326 0.817 212 206 208 0 0
-4.3806 -7.2311 -4.4838 0.231 0.554 0.800 212 205 207 0 0
-4.3693 -7.2428 -4.4724 0.246 0.649 0.720 211 202 202 0 0
-4.3869 -7.5135 -4.4283 0.416 -0.092 0.905 207 199 198 0 0
-4.3915 -7.5286 -4.4287 0.336 -0.095 0.937 208 198 198 0 0
-4.3810 -7.5398 -4.4179 0.162 -0.010 0.987 209 199 198 0 0
-4.3740 -7.7040 -4.3771 0.130 0.081 0.988 208 198 196 0 0
-4.3713 -7.7307 -4.3692 0.165 -0.381 0.910 207 197 195 0 0
-4.3743 -7.7728 -4.3625 0.308 0.304 0.901 200 190 188 0 0
-4.3819 -7.7888 -4.3652 0.154 -0.253 0.955 206 196 195 0 0
-4.4021 -7.8361 -4.3711 0.368 -0.368 0.854 208 201 199 0 0
-4.4016 -7.9319 -4.3502 0.493 -0.184 0.850 209 200 199 0 0
-4.3978 -7.9443 -4.3445 0.479 0.171 0.861 208 199 198 0 0
-4.3536 -8.0919 -4.2776 0.406 -0.267 0.874 210 202 199 0 0
-4.3623 -8.1084 -4.2810 0.180 -0.064 0.982 209 200 198 0 0
-3.5073 -1.2810 -5.0454 0.106 -0.217 0.971 188 178 176 0 0
-3.5135 -1.2928 -5.0478 0.005 -0.418 0.908 188 178 176 0 0
-3.5226 -1.3023 -5.0530 0.058 -0.572 0.818 187 177 175 0 0
-3.5324 -1.3113 -5.0589 0.070 -0.572 0.817 192 184 182 0 0
-3.5494 -1.3144 -5.0717 0.257 -0.343 0.903 198 191 192 0 0
-3.6933 -1.8168 -5.0785 0.124 -0.136 0.983 206 201 207 0 0
-3.7179 -1.8504 -5.0908 0.296 -0.127 0.947 208 202 206 0 0
-3.7288 -1.8937 -5.0902 0.451 0.150 0.880 208 202 207 0 0
-3.7861 -2.0246 -5.1077 0.306 -0.514 0.802 205 199 203 0 0
-3.7946 -2.0360 -5.1120 0.435 -0.476 0.764 205 198 201 0 0
-3.8008 -2.0489 -5.1142 0.468 -0.479 0.742 207 200 204 0 0
-3.8056 -2.0627 -5.1151 0.426 -0.264 0.865 210 206 213 0 0
-3.8160 -2.0900 -5.1175 0.627 0.001 0.779 209 211 221 0 0
-3.8509 -2.1867 -5.1245 0.204 -0.104 0.973 205 198 201 0 0
-3.8489 -2.2728 -5.1044 0.157 0.050 0.986 206 201 207 0 0
-3.8551 -2.2859 -5.1066 0.143 0.131 0.981 209 204 210 0 0
-3.8749 -2.3923 -5.0995 0.202 -0.372 0.906 203 197 204 0 0
-3.8953 -2.5489 -5.0822 0.489 0.672 0.556 206 201 207 0 0
-3.9122 -2.6066 -5.0833 0.169 0.259 0.951 204 196 201 0 0
-3.9098 -2.6247 -5.0775 0.231 0.144 0.962 207 198 204 0 0
-3.9019 -2.6791 -5.0596 0.423 0.324 0.847 203 192 196 0 0
-3.8990 -2.6974 -5.0533 0.416 0.352 0.839 202 190 192 0 0
-3.9073 -2.7263 -5.0538 0.256 -0.071 0.964 204 191 192 0 0
-3.9113 -2.7409 -5.0538 0.256 -0.071 0.964 207 192 195 0 0
-3.9119 -2.7572 -5.0508 0.521 0.021 0.853 208 193 195 0 0
-3.9586 -2.8498 -5.0680 0.184 0.032 0.982 209 193 194 0 0
-3.9887 -2.9014 -5.0810 0.417 -0.517 0.747 205 190 193 0 0
-3.9727 -3.0091 -5.0452 0.328 -0.019 0.945 212 205 213 0 0
-4.0291 -3.2150 -5.0459 0.021 -0.011 1.000 211 193 192 0 0
-4.0522 -3.4030 -5.0240 0.641 0.257 0.723 213 207 217 0 0
-4.0610 -3.4487 -5.0212 0.359 0.119 0.926 214 207 215 0 0
-4.0748 -3.5743 -5.0053 0.158 -0.145 0.977 212 202 210 0 0
-4.0701 -3.6738 -4.9802 0.285 -0.041 0.958 212 201 207 0 0
-4.0763 -3.6878 -4.9822 0.377 0.032 0.926 214 203 211 0 0
-4.0800 -3.7028 -4.9818 0.372 -0.056 0.926 217 207 214 0 0
-4.0867 -3.7166 -4.9842 0.305 -0.327 0.895 218 208 214 0 0
-4.0817 -3.7346 -4.9764 0.458 -0.307 0.834 215 205 211 0 0
-4.1044 -3.7754 -4.9857 0.436 -0.488 0.756 216 210 220 0 0
-4.1146 -3.8044 -4.9876 0.739 -0.240 0.629 217 213 226 0 0
-4.1216 -3.8183 -4.9902 0.505 -0.300 0.809 217 212 224 0 0
-4.1292 -3.8483 -4.9898 0.458 -0.010 0.889 211 199 207 0 0
-4.1396 -4.1194 -4.9400 0.204 -0.035 0.978 209 196 207 0 0
-4.1442 -4.1342 -4.9405 0.204 0.006 0.979 209 195 204 0 0
-4.1737 -4.2223 -4.9451 0.477 0.402 0.781 208 192 199 0 0
-4.1582 -4.2743 -4.9216 0.493 0.481 0.725 216 201 207 0 0
-4.1561 -4.2908 -4.9164 0.373 0.344 0.862 214 198 207 0 0
-4.1506 -4.3399 -4.9015 0.218 0.308 0.926 212 196 205 0 0
-4.1522 -4.3713 -4.8961 0.121 0.122 0.985 216 202 209 0 0
-4.1731 -4.5877 -4.8664 0.150 -0.204 0.967 189 159 176 0 0
-4.1769 -4.6026 -4.8662 0.112 -0.553 0.825 190 163 179 0 0
-4.2060 -4.6282 -4.8838 0.054 -0.682 0.729 174 136 150 0 0
-4.2053 -4.7385 -4.8597 0.098 0.241 0.966 169 151 187 0 0
-4.2540 -4.9496 -4.8532 0.083 -0.108 0.991 139 101 126 0 0
-4.2656 -4.9636 -4.8593 0.427 -0.077 0.901 138 100 124 0 0
-4.2721 -4.9939 -4.8580 0.561 0.351 0.750 144 111 138 0 0
-4.2755 -5.0247 -4.8541 0.362 0.153 0.920 150 131 176 0 0
-4.2749 -5.0404 -4.8503 0.351 0.236 0.906 143 127 172 0 0
-4.2757 -5.0559 -4.8476 0.257 0.255 0.932 150 140 187 0 0
-4.3022 -5.4707 -4.7798 0.154 -0.362 0.920 210 195 199 0 0
-4.3174 -5.4850 -4.7888 0.554 -0.645 0.527 210 195 198 0 0
-4.2821 -5.6240 -4.7311 0.422 0.282 0.862 211 200 205 0 0
-4.2791 -5.6393 -4.7254 0.240 0.328 0.914 207 195 198 0 0
-4.2777 -5.6545 -4.7210 0.214 0.348 0.913 211 200 205 0 0
-4.2758 -5.7450 -4.7001 0.472 -0.616 0.631 208 193 196 0 0
-4.2836 -5.7599 -4.7031 0.333 -0.169 0.928 208 194 195 0 0
-4.2890 -5.7748 -4.7042 0.356 -0.178 0.917 210 198 200 0 0
-4.2872 -5.7899 -4.6996 0.747 0.325 0.580 211 199 200 0 0
-4.2869 -5.8049 -4.6961 0.324 0.067 0.944 210 198 201 0 0
-4.3201 -6.1339 -4.6520 0.372 -0.074 0.925 194 185 186 0 0
-4.3328 -6.2086 -4.6462 0.579 0.121 0.806 207 197 196 0 0
-4.3318 -6.2233 -4.6422 0.596 -0.102 0.797 207 195 195 0 0
-4.3243 -6.2672 -4.6268 0.185 0.106 0.977 210 201 199 0 0
-4.3231 -6.2819 -4.6227 0.130 0.241 0.962 209 198 198 0 0
-4.3216 -6.2965 -4.6184 0.200 0.325 0.924 209 197 196 0 0
-4.2934 -6.3092 -4.5933 0.532 0.227 0.816 208 197 196 0 0
-4.3199 -6.3258 -4.6108 0.242 0.220 0.945 209 199 197 0 0
-4.2935 -6.3385 -4.5871 0.541 0.190 0.819 215 205 203 0 0
-4.2984 -6.3535 -4.5878 0.245 -0.187 0.951 216 206 204 0 0
-4.3043 -6.3685 -4.5892 0.171 -0.412 0.895 210 199 197 0 0
-4.3142 -6.3840 -4.5938 0.228 -0.490 0.841 208 197 193 0 0
-4.3275 -6.3997 -4.6010 0.374 -0.506 0.777 209 195 192 0 0
-4.3318 -6.4147 -4.6012 0.381 -0.283 0.880 207 194 192 0 0
-4.3386 -6.4300 -4.6033 0.279 -0.306 0.910 207 196 193 0 0
-4.3507 -6.4457 -4.6096 0.416 -0.022 0.909 208 197 196 0 0
-4.3535 -6.4606 -4.6086 0.527 -0.099 0.844 211 201 202 0 0
-4.3481 -6.4747 -4.6012 0.487 0.256 0.835 208 199 200 0 0
-4.3613 -6.7960 -4.5430 0.520 -0.337 0.785 209 199 199 0 0
-4.3754 -6.9133 -4.5290 0.429 0.384 0.818 210 201 203 0 0
-4.3650 -6.9402 -4.5151 0.373 0.467 0.802 210 201 203 0 0
-4.4083 -7.1909 -4.4958 0.338 0.512 0.789 212 206 208 0 0
-4.4021 -7.2039 -4.4880 0.329 0.469 0.820 212 206 208 0 0
-4.3965 -7.2169 -4.4808 0.371 0.358 0.857 211 204 205 0 0
-4.4047 -7.2328 -4.4839 0.291 0.400 0.869 211 202 203 0 0
-4.3931 -7.2445 -4.4722 0.354 0.387 0.851 211 202 203 0 0
-4.3878 -7.2857 -4.4592 0.148 0.141 0.979 209 200 198 0 0
-4.3779 -7.3258 -4.4427 0.222 0.347 0.911 209 199 198 0 0
-4.3954 -7.6925 -4.3781 0.084 0.376 0.923 208 198 194 0 0
-4.3906 -7.7325 -4.3657 0.443 -0.087 0.892 207 197 195 0 0
-4.3918 -7.7604 -4.3607 0.238 0.350 0.906 206 196 194 0 0
-4.4186 -7.9333 -4.3449 0.646 -0.290 0.706 208 198 198 0 0
-3.4936 -1.2275 -5.0269 0.363 -0.244 0.899 200 195 197 0 0
-3.5048 -1.2351 -5.0342 0.440 -0.107 0.892 199 193 194 0 0
-3.5135 -1.2448 -5.0390 0.379 -0.011 0.925 196 188 187 0 0
-3.5222 -1.2716 -5.0401 0.112 -0.442 0.890 192 184 181 0 0
-3.5573 -1.2938 -5.0632 0.171 -0.335 0.927 193 184 185 0 0
-3.5648 -1.3047 -5.0667 0.399 -0.188 0.898 196 191 196 0 0
-3.6149 -1.5547 -5.0531 0.303 0.012 0.953 201 190 188 0 0
-3.7990 -2.0181 -5.0997 0.219 -0.439 0.872 204 198 202 0 0
-3.8081 -2.0291 -5.1046 0.345 -0.271 0.899 204 198 201 0 0
-3.8196 -2.0555 -5.1081 0.450 -0.179 0.875 212 209 214 0 0
-3.8241 -2.0697 -5.1086 0.414 -0.111 0.903 210 207 215 0 0
-3.8280 -2.0841 -5.1086 0.414 -0.111 0.903 207 206 214 0 0
-3.8335 -2.0976 -5.1101 0.284 -0.214 0.935 209 207 216 0 0
-3.8730 -2.1576 -5.1286 0.120 -0.033 0.992 204 195 195 0 0
-3.8996 -2.3623 -5.1059 0.432 -0.057 0.900 205 200 206 0 0
-3.9172 -2.4197 -5.1076 0.835 -0.399 0.378 198 193 201 0 0
-3.9291 -2.5312 -5.0932 0.543 0.439 0.716 208 203 209 0 0
-3.9233 -2.5513 -5.0843 0.538 0.290 0.791 207 201 206 0 0
-3.9290 -2.5650 -5.0858 0.163 0.231 0.959 208 201 205 0 0
-3.9295 -2.5816 -5.0827 0.071 0.037 0.997 207 198 203 0 0
-3.9298 -2.6486 -5.0686 0.040 0.038 0.998 206 196 201 0 0
-3.9308 -2.6648 -5.0659 0.155 0.172 0.973 204 192 195 0 0
-3.9285 -2.7329 -5.0496 0.183 0.161 0.970 206 191 194 0 0
-3.9975 -2.9648 -5.0547 0.371 0.391 0.842 208 200 211 0 0
-4.0056 -3.0275 -5.0477 0.110 0.016 0.994 212 204 210 0 0
-4.0104 -3.0418 -5.0485 -0.017 -0.051 0.999 211 199 205 0 0
-4.0247 -3.1017 -5.0469 0.016 -0.014 1.000 215 202 202 0 0
-4.0324 -3.1147 -5.0502 0.029 -0.320 0.947 215 201 201 0 0
-4.0517 -3.1392 -5.0603 0.408 -0.030 0.913 213 197 198 0 0
-4.0479 -3.1575 -5.0534 0.252 0.131 0.959 212 195 196 0 0
-4.0438 -3.1760 -5.0462 0.329 0.290 0.899 211 194 194 0 0
-4.0478 -3.1908 -5.0462 0.132 0.055 0.990 211 193 191 0 0
-4.0508 -3.2060 -5.0453 0.038 0.046 0.998 212 194 193 0 0
-4.0552 -3.2207 -5.0457 -0.001 0.101 0.995 212 194 193 0 0
-4.0773 -3.3602 -5.0334 0.604 0.190 0.774 215 209 219 0 0
-4.0827 -3.4404 -5.0205 0.432 0.373 0.821 214 207 215 0 0
-4.1282 -3.7998 -4.9797 0.603 -0.229 0.764 215 206 215 0 0
-4.1348 -3.8138 -4.9820 0.423 -0.186 0.887 216 205 213 0 0
-4.1423 -3.8276 -4.9849 0.357 -0.008 0.934 215 202 210 0 0
-4.1452 -3.8429 -4.9839 0.357 -0.008 0.934 211 193 197 0 0
-4.1639 -4.1282 -4.9379 0.302 -0.077 0.950 207 194 204 0 0
-4.1861 -4.1542 -4.9498 0.747 -0.456 0.483 213 203 215 0 0
-4.1945 -4.1679 -4.9536 0.697 -0.538 0.474 215 208 219 0 0
-4.1944 -4.2002 -4.9466 0.595 0.245 0.766 215 208 220 0 0
-4.1954 -4.2160 -4.9440 0.636 0.483 0.603 210 199 211 0 0
-4.1708 -4.3183 -4.9027 0.296 0.328 0.897 210 195 202 0 0
-4.1702 -4.3344 -4.8988 0.218 0.308 0.926 211 195 204 0 0
-4.1704 -4.3503 -4.8955 0.206 0.319 0.925 212 197 206 0 0
-4.1729 -4.3656 -4.8943 0.121 0.122 0.985 214 199 207 0 0
-4.1911 -4.5515 -4.8689 0.228 0.156 0.961 171 143 169 0 0
-4.1947 -4.5981 -4.8618 0.202 -0.694 0.691 167 137 167 0 0
-4.2090 -4.6109 -4.8704 0.223 -0.712 0.666 155 123 150 0 0
-4.2196 -4.6246 -4.8759 0.215 -0.624 0.752 138 101 125 0 0
-4.2216 -4.6400 -4.8742 0.208 -0.223 0.952 129 93 116 0 0
-4.2220 -4.6557 -4.8712 0.086 -0.067 0.994 136 99 123 0 0
-4.2285 -4.6702 -4.8732 0.019 0.132 0.991 139 105 129 0 0
-4.2336 -4.6850 -4.8740 0.070 0.314 0.947 144 116 148 0 0
-4.2845 -4.9595 -4.8557 0.377 0.207 0.903 134 89 119 0 0
-4.2951 -5.0207 -4.8510 0.449 -0.032 0.893 157 147 201 0 0
-4.2906 -5.1460 -4.8207 0.194 0.209 0.958 162 137 177 0 0
-4.2849 -5.1932 -4.8061 0.106 -0.014 0.994 152 123 157 0 0
-4.2879 -5.2084 -4.8052 0.083 0.099 0.992 154 124 157 0 0
-4.2918 -5.2389 -4.8018 0.068 0.213 0.975 157 123 153 0 0
-4.3053 -5.4533 -4.7667 0.371 -0.059 0.927 212 200 205 0 0
-4.3232 -5.4675 -4.7778 0.680 -0.260 0.685 209 197 203 0 0
-4.2962 -5.6367 -4.7203 0.337 0.262 0.904 209 198 202 0 0
-4.3014 -5.6517 -4.7212 0.246 0.002 0.969 211 200 204 0 0
-4.2941 -5.7426 -4.6960 0.356 -0.178 0.917 210 198 199 0 0
-4.2993 -5.7576 -4.6969 0.356 -0.178 0.917 205 192 193 0 0
-4.2985 -5.7726 -4.6931 0.614 -0.095 0.784 208 196 196 0 0
-4.2977 -5.7877 -4.6892 0.516 0.240 0.822 210 197 197 0 0
-4.3043 -5.8027 -4.6912 0.248 -0.001 0.969 209 196 197 0 0
-4.3145 -5.8176 -4.6961 0.080 -0.125 0.989 210 198 198 0 0
-4.3259 -6.0574 -4.6539 0.098 -0.318 0.943 212 202 201 0 0
-4.3280 -6.0872 -4.6492 0.364 0.086 0.927 207 196 194 0 0
-4.3396 -6.1471 -4.6456 0.305 -0.016 0.952 215 205 204 0 0
-4.3348 -6.1618 -4.6387 0.676 -0.259 0.690 210 201 200 0 0
-4.3404 -6.1769 -4.6398 0.725 -0.339 0.600 202 192 190 0 0
-4.3469 -6.2217 -4.6354 0.409 0.119 0.905 209 199 197 0 0
-4.3433 -6.2659 -4.6231 0.149 0.214 0.965 211 201 200 0 0
-4.3431 -6.2806 -4.6198 0.149 0.214 0.965 209 199 198 0 0
-4.3406 -6.2952 -4.6147 0.200 0.325 0.924 209 198 197 0 0
-4.3397 -6.3099 -4.6109 0.271 0.208 0.940 208 197 195 0 0
-4.3371 -6.3244 -4.6057 0.303 0.239 0.922 208 197 195 0 0
-4.3397 -6.3393 -4.6046 0.147 0.159 0.976 210 199 196 0 0
-4.3172 -6.3669 -4.5808 0.497 -0.706 0.505 210 198 195 0 0
-4.3315 -6.3827 -4.5888 0.497 -0.706 0.505 208 194 191 0 0
-4.3411 -6.3982 -4.5931 0.581 -0.667 0.467 207 193 190 0 0
-4.3472 -6.4134 -4.5947 0.709 -0.501 0.496 209 197 194 0 0
-4.3571 -6.4289 -4.5993 0.591 -0.486 0.644 211 201 200 0 0
-4.3645 -6.4442 -4.6018 0.472 -0.287 0.834 211 202 203 0 0
-4.3660 -6.4884 -4.5936 0.275 0.074 0.959 212 205 207 0 0
-4.3873 -6.8256 -4.5384 0.488 0.549 0.679 211 202 204 0 0
-4.4168 -7.1608 -4.4901 0.289 0.077 0.954 213 205 207 0 0
-4.4227 -7.1763 -4.4915 0.308 0.125 0.943 215 209 210 0 0
-4.4233 -7.1906 -4.4889 0.427 0.399 0.812 214 207 209 0 0
-4.4200 -7.2184 -4.4803 0.292 0.322 0.901 209 200 200 0 0
-4.4155 -7.2459 -4.4709 0.303 0.350 0.886 210 202 201 0 0
-4.4167 -7.2603 -4.4687 0.240 0.631 0.738 209 200 198 0 0
-4.4092 -7.2870 -4.4571 0.199 0.287 0.937 209 199 197 0 0
-4.4071 -7.3007 -4.4525 0.222 0.405 0.887 209 199 197 0 0
-4.4012 -7.3135 -4.4451 0.197 0.415 0.888 210 200 199 0 0
-4.4117 -7.4004 -4.4349 0.189 0.002 0.982 209 199 198 0 0
-4.4378 -7.5473 -4.4241 0.112 0.140 0.984 209 199 197 0 0
-4.4305 -7.9331 -4.3359 0.455 0.058 0.888 206 196 195 0 0
-4.4347 -8.3279 -4.2549 0.347 0.374 0.860 202 191 187 0 0
-4.4275 -8.3519 -4.2440 0.134 0.186 0.973 198 187 180 0 0
-3.5089 -1.2176 -5.0221 0.391 -0.276 0.878 199 194 196 0 0
-3.5213 -1.2242 -5.0305 0.429 -0.061 0.901 197 191 193 0 0
-3.5241 -1.2389 -5.0295 0.384 -0.152 0.911 196 188 189 0 0
-3.5367 -1.2626 -5.0344 0.160 -0.759 0.632 194 186 183 0 0
-3.5445 -1.2731 -5.0383 0.017 -0.554 0.832 200 191 192 0 0
-3.5720 -1.2847 -5.0575 0.226 -0.233 0.946 196 189 190 0 0
-3.5801 -1.2952 -5.0617 0.165 -0.153 0.974 194 190 196 0 0
-3.5812 -1.3113 -5.0591 0.475 0.246 0.845 199 198 209 0 0
-3.7014 -1.7307 -5.0645 0.394 0.339 0.855 197 194 202 0 0
-3.7642 -1.8735 -5.0836 0.151 0.178 0.972 206 198 201 0 0
-3.8356 -2.0641 -5.0993 0.417 0.045 0.908 212 209 215 0 0
-3.8416 -2.0772 -5.1012 0.350 -0.057 0.935 207 203 209 0 0
-3.8483 -2.0899 -5.1038 0.284 -0.214 0.935 206 202 208 0 0
-3.8890 -2.1493 -5.1233 0.147 -0.027 0.989 204 194 192 0 0
-3.8928 -2.1640 -5.1231 0.147 -0.027 0.989 205 194 193 0 0
-4.0348 -3.0478 -5.0467 0.125 0.182 0.975 211 195 198 0 0
-4.0361 -3.0639 -5.0443 0.129 0.220 0.967 214 198 201 0 0
-4.0515 -3.1067 -5.0473 0.048 -0.248 0.968 212 196 197 0 0
-4.0569 -3.1209 -5.0486 0.107 -0.124 0.987 214 198 199 0 0
-4.0657 -3.1502 -5.0493 0.294 0.156 0.943 210 191 190 0 0
-4.0658 -3.1668 -5.0458 0.216 0.130 0.968 210 191 189 0 0
-4.0827 -3.1926 -5.0537 -0.007 -0.144 0.990 214 196 194 0 0
-4.1031 -3.4984 -5.0046 0.362 -0.105 0.926 217 207 215 0 0
-4.1777 -4.1078 -4.9335 0.252 -0.098 0.963 211 197 210 0 0
-4.1966 -4.1508 -4.9392 0.702 -0.312 0.641 210 204 220 0 0
-4.1919 -4.2645 -4.9113 0.199 0.219 0.955 215 200 207 0 0
-4.1916 -4.2806 -4.9076 0.199 0.219 0.955 216 201 209 0 0
-4.1937 -4.3439 -4.8957 0.165 0.188 0.968 212 196 205 0 0
-4.2015 -4.3739 -4.8956 0.308 0.159 0.938 215 199 207 0 0
-4.2172 -4.5925 -4.8613 0.127 -0.419 0.899 160 130 165 0 0
-4.2340 -4.6207 -4.8686 0.215 -0.624 0.752 134 100 128 0 0
-4.2401 -4.6354 -4.8703 0.376 -0.332 0.865 134 102 131 0 0
-4.2454 -4.6501 -4.8713 0.147 -0.185 0.972 139 111 145 0 0
-4.2521 -4.6647 -4.8735 0.238 0.085 0.968 141 118 158 0 0
-4.2736 -4.8344 -4.8543 0.128 0.156 0.979 147 113 151 0 0
-4.3058 -4.9709 -4.8505 0.087 0.478 0.874 133 89 123 0 0
-4.3096 -5.0174 -4.8437 0.449 -0.032 0.893 145 130 187 0 0
-4.3131 -5.0326 -4.8431 0.697 0.094 0.711 148 140 195 0 0
-4.3140 -5.0482 -4.8405 0.773 0.110 0.625 154 151 207 0 0
-4.3152 -5.0636 -4.8382 0.750 0.248 0.613 157 151 205 0 0
-4.3108 -5.0798 -4.8313 0.588 0.345 0.731 154 135 186 0 0
-4.3074 -5.0959 -4.8251 0.713 0.467 0.522 148 122 169 0 0
-4.3069 -5.1271 -4.8181 0.295 0.329 0.897 145 118 159 0 0
-4.3095 -5.1424 -4.8169 0.239 0.241 0.940 149 121 160 0 0
-4.3021 -5.1743 -4.8043 0.122 0.055 0.991 148 119 157 0 0
-4.3056 -5.1895 -4.8038 0.106 -0.014 0.994 149 118 155 0 0
-4.3040 -5.2051 -4.7992 0.160 0.071 0.984 151 121 156 0 0
-4.3110 -5.2199 -4.8016 0.106 0.190 0.976 148 116 148 0 0
-4.3127 -5.2353 -4.7996 0.094 0.228 0.969 149 116 147 0 0
-4.3210 -5.4505 -4.7603 0.371 -0.059 0.927 208 194 199 0 0
-4.3289 -5.4654 -4.7634 0.656 0.047 0.753 209 197 205 0 0
-4.3280 -5.7247 -4.7073 0.133 0.127 0.983 213 203 204 0 0
-4.3293 -5.7398 -4.7052 0.133 0.127 0.983 213 201 204 0 0
-4.3307 -5.7549 -4.7031 0.133 0.127 0.983 210 197 197 0 0
-4.3147 -5.7703 -4.6872 0.410 -0.030 0.912 209 196 197 0 0
-4.3185 -5.7853 -4.6869 0.148 0.109 0.983 208 194 194 0 0
-4.3229 -5.8004 -4.6872 0.155 -0.024 0.988 207 193 193 0 0
-4.3502 -6.0707 -4.6511 0.194 -0.110 0.975 208 197 195 0 0
-4.3455 -6.1003 -4.6411 0.364 0.086 0.927 210 200 199 0 0
-4.3503 -6.1154 -4.6416 0.305 -0.016 0.952 212 204 202 0 0
-4.3534 -6.1304 -4.6409 0.305 -0.016 0.952 214 204 203 0 0
-4.3565 -6.1454 -4.6402 0.305 -0.016 0.952 214 205 203 0 0
-4.3598 -6.1605 -4.6396 0.295 0.014 0.956 213 204 201 0 0
-4.3584 -6.1753 -4.6353 0.432 0.134 0.892 208 198 197 0 0
-4.3591 -6.1902 -4.6327 0.432 0.134 0.892 210 200 199 0 0
-4.3567 -6.3527 -4.5961 -0.146 -0.091 0.985 208 195 191 0 0
-4.3642 -6.3974 -4.5925 0.158 -0.149 0.976 207 194 192 0 0
-4.3647 -6.4122 -4.5898 0.307 -0.038 0.951 208 197 196 0 0
-4.3766 -6.4279 -4.5958 0.591 -0.052 0.805 211 202 202 0 0
-4.3851 -6.4434 -4.5992 0.726 -0.438 0.530 212 203 206 0 0
-4.3792 -6.4722 -4.5884 0.406 0.231 0.884 214 205 208 0 0
-4.3870 -6.4877 -4.5913 0.364 0.016 0.931 213 205 207 0 0
-4.3832 -6.5313 -4.5790 0.340 0.402 0.850 209 199 199 0 0
-4.4289 -7.1313 -4.4871 0.237 -0.101 0.966 215 206 207 0 0
-4.4347 -7.1468 -4.4884 0.342 -0.076 0.937 216 207 208 0 0
-4.4355 -7.1612 -4.4859 0.265 0.071 0.962 213 205 206 0 0
-4.4382 -7.1761 -4.4849 0.202 0.157 0.967 214 207 207 0 0
-4.4411 -7.1909 -4.4841 0.182 0.098 0.978 214 204 204 0 0
-4.4426 -7.2055 -4.4821 0.255 -0.021 0.967 209 198 197 0 0
-4.4461 -7.2205 -4.4816 0.218 -0.038 0.975 209 199 196 0 0
-4.4456 -7.2346 -4.4783 0.267 0.384 0.884 210 199 197 0 0
-4.4336 -7.2605 -4.4633 0.237 0.615 0.752 208 196 193 0 0
-4.4297 -7.2739 -4.4574 0.162 0.333 0.929 206 195 192 0 0
-4.4248 -7.3011 -4.4477 0.220 0.396 0.891 207 196 195 0 0
-4.4209 -7.3144 -4.4418 0.125 0.483 0.866 207 197 195 0 0
-4.4390 -7.4315 -4.4311 0.174 0.247 0.953 206 194 194 0 0
-4.4409 -7.4461 -4.4295 0.205 0.533 0.821 207 197 196 0 0
-4.4350 -7.4587 -4.4221 0.275 0.543 0.793 209 199 198 0 0
-4.4583 -7.8277 -4.3618 0.175 -0.079 0.981 208 200 196 0 0
-4.4441 -8.0020 -4.3135 0.136 0.383 0.914 209 203 201 0 0
-4.4415 -8.0148 -4.3088 0.097 0.431 0.897 210 202 201 0 0
-4.4310 -8.0249 -4.2983 0.053 0.310 0.949 210 202 200 0 0
-4.4508 -8.2623 -4.2633 0.394 0.318 0.862 205 194 191 0 0
-4.4509 -8.2759 -4.2605 0.358 0.144 0.923 206 196 193 0 0
-4.4532 -8.2902 -4.2593 0.421 -0.051 0.906 208 198 196 0 0
-4.4498 -8.3293 -4.2482 0.347 0.374 0.860 206 196 192 0 0
-3.4966 -1.1290 -5.0122 0.307 -0.039 0.951 197 194 201 0 0
-3.5416 -1.2102 -5.0303 0.148 -0.142 0.979 197 191 192 0 0
-3.5468 -1.2230 -5.0317 0.344 0.060 0.937 196 188 188 0 0
-3.5555 -1.2670 -5.0292 0.060 -0.542 0.838 198 190 189 0 0
-3.5744 -1.2685 -5.0437 0.181 -0.306 0.935 200 192 191 0 0
-3.7162 -1.7223 -5.0586 0.577 0.311 0.755 203 198 206 0 0
-3.8541 -2.0539 -5.0964 0.307 0.161 0.938 213 208 212 0 0
-3.8580 -2.0685 -5.0964 0.317 -0.120 0.941 209 204 208 0 0
-3.9741 -2.4918 -5.0976 0.222 0.106 0.969 206 199 205 0 0
-3.9794 -2.5057 -5.0988 0.125 0.109 0.986 205 197 201 0 0
-4.0574 -3.0547 -5.0433 0.091 0.005 0.996 211 193 195 0 0
-4.0673 -3.0835 -5.0450 -0.007 -0.079 0.997 215 197 199 0 0
-4.0862 -3.1250 -5.0510 0.114 0.098 0.989 214 196 196 0 0
-4.0888 -3.1405 -5.0498 0.171 0.167 0.971 210 191 191 0 0
-4.1186 -3.4762 -5.0018 0.292 -0.352 0.889 217 208 216 0 0
-4.1252 -3.4901 -5.0040 0.346 -0.256 0.903 217 206 213 0 0
-4.1314 -3.5042 -5.0059 0.268 -0.272 0.924 213 197 200 0 0
-4.1283 -3.5218 -4.9997 0.072 -0.186 0.980 211 195 194 0 0
-4.1378 -3.5347 -5.0044 0.019 -0.238 0.971 213 197 197 0 0
-4.1416 -3.5497 -5.0042 0.042 -0.130 0.991 213 197 199 0 0
-4.1855 -3.8294 -4.9792 0.035 -0.226 0.973 209 189 191 0 0
-4.1979 -4.0693 -4.9380 0.246 0.196 0.949 214 202 212 0 0
-4.2256 -4.4312 -4.8827 0.225 0.051 0.973 209 190 200 0 0
-4.2494 -4.5850 -4.8688 0.125 0.138 0.983 158 127 165 0 0
-4.2629 -4.6299 -4.8698 0.125 -0.337 0.933 140 114 154 0 0
-4.2645 -4.6454 -4.8678 0.195 -0.220 0.956 150 132 183 0 0
-4.2707 -4.6601 -4.8695 0.288 0.056 0.956 145 133 185 0 0
-4.2624 -4.7249 -4.8492 0.405 0.474 0.782 151 130 180 0 0
-4.3284 -5.0449 -4.8331 0.687 -0.143 0.713 148 131 188 0 0
-4.3322 -5.0601 -4.8328 0.644 -0.209 0.736 154 136 191 0 0
-4.3684 -5.5073 -4.7661 0.591 -0.361 0.721 208 196 206 0 0
-4.3745 -5.5224 -4.7677 0.741 0.053 0.669 205 193 204 0 0
-4.3768 -5.5377 -4.7662 0.673 -0.141 0.727 207 194 204 0 0
-4.3809 -5.5528 -4.7663 0.602 -0.176 0.779 210 198 206 0 0
-4.3452 -6.0085 -4.6413 0.241 0.065 0.968 213 202 201 0 0
-4.3534 -6.0236 -4.6445 0.179 -0.086 0.980 210 198 198 0 0
-4.3585 -6.0387 -4.6454 0.113 -0.176 0.978 207 196 195 0 0
-4.3714 -6.0690 -4.6491 0.071 -0.057 0.996 208 197 195 0 0
-4.3672 -6.1137 -4.6362 0.305 -0.016 0.952 213 203 201 0 0
-4.3767 -6.1290 -4.6404 0.225 0.126 0.966 215 205 203 0 0
-4.3774 -6.1439 -4.6378 0.166 0.146 0.975 214 205 203 0 0
-4.3759 -6.1588 -4.6334 0.166 0.274 0.947 215 205 204 0 0
-4.3807 -6.1888 -4.6309 0.145 0.259 0.955 211 200 198 0 0
-4.3816 -6.2037 -4.6284 0.118 0.056 0.991 209 199 197 0 0
-4.3914 -6.2786 -4.6202 0.150 0.032 0.988 213 203 202 0 0
-4.3850 -6.3522 -4.5995 -0.121 -0.023 0.992 210 198 193 0 0
-4.3890 -6.3673 -4.5994 -0.107 -0.113 0.988 209 197 192 0 0
-4.3911 -6.3822 -4.5979 -0.108 0.048 0.993 210 197 194 0 0
-4.3797 -6.3961 -4.5860 0.281 -0.169 0.945 209 196 193 0 0
-4.3816 -6.4109 -4.5843 0.307 -0.038 0.951 207 196 194 0 0
-4.3866 -6.4261 -4.5851 0.515 -0.244 0.822 209 198 198 0 0
-4.3930 -6.4414 -4.5868 0.726 -0.438 0.530 211 202 202 0 0
-4.4013 -6.4863 -4.5838 0.422 -0.052 0.905 210 200 201 0 0
-4.4204 -6.6643 -4.5609 0.155 -0.295 0.943 209 197 197 0 0
-4.4324 -6.6951 -4.5638 0.159 -0.328 0.931 206 192 191 0 0
-4.4432 -6.7111 -4.5689 0.231 -0.443 0.866 207 193 192 0 0
-4.4514 -6.7268 -4.5720 0.443 -0.316 0.839 209 196 194 0 0
-4.4584 -6.7424 -4.5742 0.661 0.301 0.687 213 204 203 0 0
-4.4151 -6.9391 -4.4983 0.166 0.160 0.973 212 203 204 0 0
-4.4157 -6.9536 -4.4957 0.257 0.136 0.957 211 202 203 0 0
-4.4136 -7.0537 -4.4728 0.073 -0.150 0.986 211 202 201 0 0
-4.4251 -7.0844 -4.4753 0.286 -0.240 0.928 212 205 206 0 0
-4.4472 -7.1316 -4.4826 0.268 -0.034 0.963 213 205 205 0 0
-4.4510 -7.1467 -4.4824 0.342 -0.076 0.937 212 205 206 0 0
-4.4549 -7.1617 -4.4822 0.342 -0.076 0.937 212 204 203 0 0
-4.4573 -7.1765 -4.4810 0.212 -0.008 0.977 210 201 200 0 0
-4.4600 -7.1914 -4.4800 0.211 0.066 0.975 209 199 197 0 0
-4.4611 -7.2059 -4.4777 0.264 0.130 0.956 210 200 197 0 0
-4.4621 -7.2204 -4.4754 0.251 0.035 0.967 210 199 195 0 0
-4.4629 -7.2349 -4.4730 0.221 0.170 0.960 210 198 194 0 0
-4.4502 -7.2607 -4.4576 0.130 0.066 0.989 209 197 194 0 0
-4.4489 -7.2746 -4.4535 0.024 0.155 0.988 207 196 191 0 0
-4.4729 -7.5631 -4.4111 0.089 0.509 0.856 210 203 202 0 0
-4.4736 -7.8145 -4.3582 0.287 0.042 0.957 206 196 194 0 0
-4.4806 -7.8305 -4.3602 0.293 0.104 0.950 205 196 192 0 0
-4.5026 -7.8788 -4.3672 0.517 0.027 0.855 209 200 198 0 0
-4.4603 -7.9484 -4.3192 0.212 0.088 0.973 207 197 195 0 0
-4.4628 -7.9904 -4.3122 0.248 0.222 0.943 208 198 196 0 0
-4.4811 -8.1470 -4.2933 0.081 0.056 0.995 204 193 186 0 0
-4.4826 -8.1611 -4.2915 0.102 0.158 0.982 205 193 188 0 0
-4.4589 -8.3150 -4.2402 0.257 0.045 0.965 208 198 196 0 0
-4.4606 -8.3962 -4.2242 0.113 0.322 0.940 206 195 191 0 0
