ply
format ascii 1.0
element vertex 820
property float x
property float y
property float z
property float nx
property float ny
property float nz
property uchar diffuse_red
property uchar diffuse_green
property uchar diffuse_blue
property uchar class
property uchar detection
end_header
-7.1801 -2.0206 -4.5613 -0.259 0.283 0.923 206 174 152 0 0
-7.1594 -2.0101 -4.5533 0.034 0.215 0.976 205 172 151 0 0
-7.1397 -2.0013 -4.5469 0.572 0.354 0.740 204 171 151 0 0
-7.1279 -2.0064 -4.5536 0.572 0.354 0.740 201 168 150 0 0
-7.1157 -2.0110 -4.5598 0.477 0.027 0.879 208 176 159 0 0
-6.9964 -2.0356 -4.5998 -0.206 0.271 0.940 204 176 169 0 0
-6.9792 -2.0311 -4.5974 -0.206 0.271 0.940 204 176 170 0 0
-6.9606 -2.0236 -4.5922 0.425 -0.006 0.905 199 169 162 0 0
-6.9483 -2.0282 -4.5983 0.203 0.062 0.977 199 169 162 0 0
-6.9369 -2.0346 -4.6063 0.503 0.379 0.776 201 171 161 0 0
-6.9212 -2.0327 -4.6063 0.289 0.482 0.827 207 176 161 0 0
-6.9032 -2.0262 -4.6021 0.330 0.065 0.942 207 175 158 0 0
-6.8490 -2.0352 -4.6180 0.268 0.068 0.961 206 173 155 0 0
-6.8334 -2.0334 -4.6181 0.397 0.135 0.908 204 175 163 0 0
-6.7928 -2.0402 -4.6303 0.331 0.412 0.849 209 183 169 0 0
-6.7793 -2.0425 -4.6342 0.109 0.372 0.922 210 184 169 0 0
-6.7222 -2.0457 -4.6447 -0.140 0.436 0.889 212 185 170 0 0
-6.7027 -2.0356 -4.6369 -0.196 0.445 0.874 212 185 172 0 0
-6.6851 -2.0291 -4.6327 -0.108 0.298 0.949 210 183 170 0 0
-6.6710 -2.0303 -4.6356 -0.109 0.389 0.915 211 184 173 0 0
-6.6237 -2.0225 -4.6337 0.584 0.142 0.799 209 182 173 0 0
-6.6123 -2.0294 -4.6422 0.346 0.166 0.923 208 181 171 0 0
-6.5984 -2.0309 -4.6454 0.034 0.019 0.999 208 181 170 0 0
-6.5834 -2.0300 -4.6464 0.054 -0.013 0.998 207 180 169 0 0
-6.5681 -2.0282 -4.6465 0.034 0.019 0.999 207 181 170 0 0
-6.5546 -2.0306 -4.6507 0.267 0.048 0.963 208 183 174 0 0
-6.5414 -2.0336 -4.6554 0.165 -0.037 0.986 207 179 168 0 0
-6.5273 -2.0347 -4.6582 0.397 -0.181 0.900 208 184 174 0 0
-6.5132 -2.0357 -4.6611 0.284 -0.063 0.957 210 187 179 0 0
-6.4998 -2.0382 -4.6653 0.153 -0.125 0.980 208 183 176 0 0
-6.4826 -2.0321 -4.6613 0.012 -0.099 0.995 207 183 173 0 0
-6.4632 -2.0207 -4.6522 0.163 -0.157 0.974 207 182 175 0 0
-6.4489 -2.0211 -4.6544 0.270 -0.199 0.942 209 183 176 0 0
-6.3745 -2.0512 -4.6943 0.028 -0.180 0.983 205 178 169 0 0
-6.3592 -2.0494 -4.6944 0.028 -0.180 0.983 207 180 172 0 0
-6.3423 -2.0435 -4.6906 0.064 -0.120 0.991 208 183 177 0 0
-6.3266 -2.0404 -4.6895 -0.175 -0.027 0.984 207 179 171 0 0
-6.1711 -2.0494 -4.7182 -0.710 0.383 0.591 202 173 156 0 0
-6.1376 -2.0368 -4.7097 0.276 -0.021 0.961 200 170 157 0 0
-6.1249 -2.0413 -4.7159 0.327 0.020 0.945 202 174 162 0 0
-6.1097 -2.0390 -4.7155 0.589 -0.141 0.796 202 174 160 0 0
-6.0967 -2.0428 -4.7210 0.582 -0.148 0.800 201 173 160 0 0
-6.0543 -2.0449 -4.7285 -0.288 0.024 0.957 201 173 159 0 0
-6.0336 -2.0265 -4.7125 -0.604 0.320 0.730 199 167 153 0 0
-6.0070 -2.0325 -4.7219 0.677 0.067 0.733 200 170 155 0 0
-5.9946 -2.0383 -4.7293 0.543 0.069 0.837 198 167 149 0 0
-5.9823 -2.0444 -4.7371 0.247 0.178 0.953 197 166 148 0 0
-5.9678 -2.0439 -4.7384 0.049 0.234 0.971 196 165 147 0 0
-5.9527 -2.0416 -4.7380 0.054 0.261 0.964 194 166 149 0 0
-5.9382 -2.0408 -4.7391 0.054 0.261 0.964 191 163 151 0 0
-5.9090 -2.0392 -4.7411 0.053 0.128 0.990 177 149 137 0 0
-5.8701 -2.0517 -4.7586 0.373 -0.048 0.926 162 129 117 0 0
-5.8570 -2.0557 -4.7644 0.596 0.129 0.793 156 122 110 0 0
-5.7582 -2.0601 -4.7813 -0.038 -0.071 0.997 154 120 105 0 0
-5.7282 -2.0550 -4.7800 0.221 -0.153 0.963 149 114 104 0 0
-5.7141 -2.0553 -4.7821 0.181 -0.158 0.971 148 114 102 0 0
-5.5624 -2.0741 -4.8202 0.208 0.185 0.960 138 106 99 0 0
-5.5355 -2.0803 -4.8300 -0.027 0.070 0.997 139 107 100 0 0
-5.5045 -2.0702 -4.8237 0.207 -0.067 0.976 139 109 103 0 0
-5.4728 -2.0560 -4.8134 0.681 0.051 0.731 139 109 99 0 0
-5.4283 -2.1092 -4.8728 -0.070 -0.181 0.981 135 103 93 0 0
-5.4127 -2.1033 -4.8688 -0.139 -0.130 0.982 132 99 89 0 0
-5.3988 -2.1052 -4.8725 0.404 0.083 0.911 132 97 87 0 0
-5.3845 -2.1048 -4.8739 -0.035 0.051 0.998 135 98 88 0 0
-5.3711 -2.1086 -4.8794 -0.209 0.283 0.936 134 98 85 0 0
-4.7796 -2.1255 -4.9714 0.290 -0.078 0.954 185 155 165 0 0
-4.7660 -2.1303 -4.9779 0.372 -0.150 0.916 195 170 188 0 0
-4.7388 -2.1397 -4.9909 0.654 0.117 0.748 169 149 176 0 0
-4.6827 -2.1407 -4.9991 -0.245 0.045 0.969 146 112 117 0 0
-4.6680 -2.1336 -4.9937 -0.163 0.077 0.984 166 132 136 0 0
-4.4168 -2.1400 -5.0320 0.243 0.147 0.959 206 186 187 0 0
-4.2084 -2.1367 -5.0551 0.212 -0.235 0.949 207 194 196 0 0
-4.1946 -2.1371 -5.0572 0.324 -0.187 0.927 208 196 198 0 0
-4.1807 -2.1439 -5.0659 0.315 -0.222 0.923 210 198 200 0 0
-4.1668 -2.1458 -5.0695 0.279 -0.204 0.938 208 198 199 0 0
-4.1529 -2.1529 -5.0784 0.527 -0.108 0.843 209 199 200 0 0
-4.0828 -2.1853 -5.1201 0.174 -0.129 0.976 213 198 189 0 0
-4.0690 -2.1812 -5.1176 -0.113 -0.158 0.981 214 196 182 0 0
-4.0553 -2.1772 -5.1154 -0.113 -0.158 0.981 213 195 180 0 0
-3.8890 -2.1786 -5.1378 0.037 0.136 0.990 206 188 174 0 0
-3.8753 -2.1769 -5.1379 0.052 0.207 0.977 208 193 182 0 0
-9.1737 -1.7629 -4.0286 0.260 0.012 0.965 208 187 152 0 0
-9.1599 -1.7641 -4.0315 0.139 0.146 0.979 209 188 154 0 0
-9.1448 -1.7639 -4.0333 0.085 0.241 0.967 210 188 154 0 0
-9.1225 -1.7565 -4.0287 -0.319 0.470 0.823 209 189 154 0 0
-9.0954 -1.7746 -4.0503 0.588 0.011 0.809 213 192 157 0 0
-9.0540 -1.7782 -4.0592 -0.092 0.056 0.994 209 187 149 0 0
-9.0153 -1.7690 -4.0549 -0.040 0.170 0.985 209 186 152 0 0
-9.0061 -1.7750 -4.0621 0.168 0.097 0.981 208 185 151 0 0
-8.9686 -1.7826 -4.0745 0.775 0.126 0.619 207 184 148 0 0
-8.9598 -1.7890 -4.0821 0.716 0.054 0.696 209 186 152 0 0
-8.9513 -1.7958 -4.0900 0.703 0.175 0.689 209 185 151 0 0
-8.8911 -1.8439 -4.1461 0.652 -0.273 0.707 212 189 154 0 0
-8.8574 -1.8729 -4.1796 0.220 -0.126 0.967 212 190 152 0 0
-8.8436 -1.8744 -4.1828 0.078 -0.138 0.987 212 190 152 0 0
-8.8252 -1.8874 -4.1982 0.491 0.265 0.830 206 181 144 0 0
-8.8123 -1.8899 -4.2024 -0.006 0.684 0.729 205 180 142 0 0
-8.8041 -1.8976 -4.2113 0.625 0.298 0.721 208 184 149 0 0
-8.5899 -1.8944 -4.2352 0.097 0.130 0.987 210 187 153 0 0
-8.5751 -1.8947 -4.2373 0.023 0.183 0.983 210 187 153 0 0
-8.5586 -1.8929 -4.2377 0.079 0.114 0.990 211 188 153 0 0
-8.5429 -1.8921 -4.2389 0.138 0.121 0.983 210 188 152 0 0
-8.5278 -1.8921 -4.2408 0.076 0.163 0.984 210 188 151 0 0
-8.5234 -1.9227 -4.2721 0.449 -0.113 0.887 211 188 154 0 0
-8.3509 -1.9706 -4.3423 -0.373 -0.067 0.925 213 191 155 0 0
-8.3333 -1.9675 -4.3414 -0.012 -0.187 0.982 213 190 155 0 0
-8.3201 -1.9699 -4.3455 0.492 -0.186 0.850 213 190 155 0 0
-8.3061 -1.9713 -4.3487 0.367 0.007 0.930 214 192 158 0 0
-8.2833 -1.9808 -4.3612 0.462 -0.017 0.887 216 196 163 0 0
-8.2660 -1.9780 -4.3606 0.255 -0.043 0.966 216 195 161 0 0
-8.2568 -1.9857 -4.3695 0.352 0.019 0.936 214 194 158 0 0
-8.0984 -1.9961 -4.4001 -0.218 0.086 0.972 210 187 153 0 0
-8.0813 -1.9934 -4.3995 -0.031 0.028 0.999 208 184 149 0 0
-8.0620 -1.9877 -4.3962 -0.132 0.005 0.991 209 186 150 0 0
-8.0450 -1.9850 -4.3957 -0.012 0.005 1.000 212 190 154 0 0
-8.0143 -1.9842 -4.3987 -0.085 0.017 0.996 210 187 149 0 0
-8.0032 -1.9896 -4.4056 0.203 0.145 0.968 211 189 152 0 0
-7.9289 -2.0119 -4.4375 0.451 0.774 0.444 214 194 161 0 0
-7.8887 -2.0189 -4.4496 0.301 0.816 0.493 208 182 148 0 0
-7.8748 -2.0206 -4.4531 0.178 0.924 0.339 213 188 155 0 0
-7.8438 -2.0192 -4.4557 -0.286 0.288 0.914 215 192 160 0 0
-7.7366 -1.9941 -4.4440 0.534 0.205 0.820 213 188 152 0 0
-7.7218 -1.9943 -4.4460 0.332 0.298 0.895 210 183 145 0 0
-7.7114 -2.0010 -4.4541 0.192 0.250 0.949 208 180 141 0 0
-7.6966 -2.0012 -4.4562 0.059 0.261 0.963 209 181 142 0 0
-7.6833 -2.0036 -4.4603 0.125 0.036 0.991 210 182 146 0 0
-7.6690 -2.0047 -4.4632 0.348 0.131 0.929 211 184 148 0 0
-7.6232 -2.0260 -4.4905 -0.036 0.192 0.981 211 183 148 0 0
-7.6080 -2.0258 -4.4922 0.015 0.194 0.981 210 180 144 0 0
-7.5860 -2.0147 -4.4838 0.724 0.337 0.602 207 174 138 0 0
-7.5756 -2.0218 -4.4923 0.724 0.337 0.602 203 169 132 0 0
-7.5503 -2.0290 -4.5028 0.422 0.747 0.513 211 180 145 0 0
-7.5389 -2.0345 -4.5098 0.203 0.772 0.603 209 175 140 0 0
-7.5102 -2.0365 -4.5154 -0.040 0.327 0.944 205 169 133 0 0
-7.4940 -2.0345 -4.5155 -0.040 0.327 0.944 208 174 138 0 0
-7.4778 -2.0325 -4.5155 -0.040 0.327 0.944 209 176 142 0 0
-7.4616 -2.0304 -4.5154 -0.111 0.404 0.908 210 178 146 0 0
-7.4473 -2.0314 -4.5182 -0.061 0.375 0.925 210 177 146 0 0
-7.4320 -2.0308 -4.5195 -0.073 0.365 0.928 209 177 147 0 0
-7.4124 -2.0231 -4.5143 0.140 0.445 0.885 211 179 149 0 0
-7.3799 -2.0184 -4.5137 -0.186 0.228 0.956 206 171 140 0 0
-7.3218 -2.0204 -4.5231 0.210 -0.013 0.978 208 175 149 0 0
-7.3078 -2.0219 -4.5264 0.375 0.003 0.927 207 174 150 0 0
-7.2966 -2.0280 -4.5339 0.350 0.142 0.926 208 173 149 0 0
-7.2839 -2.0317 -4.5392 0.325 0.126 0.937 206 173 148 0 0
-7.2700 -2.0333 -4.5427 0.350 0.152 0.924 210 178 153 0 0
-7.2604 -2.0423 -4.5529 -0.121 0.157 0.980 208 174 149 0 0
-7.2451 -2.0416 -4.5542 -0.173 0.225 0.959 208 174 148 0 0
-7.2325 -2.0455 -4.5597 -0.308 0.426 0.851 208 175 149 0 0
-7.2146 -2.0402 -4.5566 -0.358 0.505 0.785 205 172 146 0 0
-7.1961 -2.0336 -4.5524 -0.358 0.505 0.785 203 169 144 0 0
-7.1790 -2.0295 -4.5504 -0.182 0.390 0.903 205 168 144 0 0
-7.1626 -2.0266 -4.5496 0.034 0.215 0.976 203 167 144 0 0
-7.1471 -2.0255 -4.5504 0.034 0.215 0.976 202 166 144 0 0
-7.1327 -2.0260 -4.5527 0.131 0.209 0.969 202 165 145 0 0
-7.1195 -2.0288 -4.5572 0.477 0.027 0.879 208 174 155 0 0
-6.9990 -2.0518 -4.5957 -0.206 0.271 0.940 195 157 147 0 0
-6.9823 -2.0481 -4.5941 -0.243 0.228 0.943 196 160 150 0 0
-6.9662 -2.0456 -4.5936 -0.118 0.287 0.951 192 156 147 0 0
-6.9532 -2.0488 -4.5985 0.153 0.095 0.984 192 159 149 0 0
-6.9378 -2.0476 -4.5993 0.503 0.379 0.776 189 156 145 0 0
-6.9225 -2.0464 -4.6000 0.400 0.278 0.874 191 156 142 0 0
-6.9090 -2.0488 -4.6041 0.414 0.401 0.817 193 156 139 0 0
-6.8062 -2.0491 -4.6174 -0.253 0.133 0.958 209 178 163 0 0
-6.7937 -2.0535 -4.6235 0.331 0.412 0.849 209 180 164 0 0
-6.7774 -2.0501 -4.6222 0.345 0.526 0.778 212 184 169 0 0
-6.7623 -2.0493 -4.6232 0.551 0.417 0.723 205 176 158 0 0
-6.7500 -2.0543 -4.6298 0.551 0.417 0.723 207 176 158 0 0
-6.7208 -2.0544 -4.6337 -0.246 0.509 0.825 208 178 161 0 0
-6.7041 -2.0500 -4.6313 -0.203 0.713 0.671 212 184 170 0 0
-6.5605 -2.0558 -4.6554 0.226 -0.160 0.961 208 181 171 0 0
-6.5470 -2.0581 -4.6594 0.078 -0.208 0.975 204 175 162 0 0
-6.3804 -2.0779 -4.7005 -0.112 -0.065 0.992 203 169 156 0 0
-6.2101 -2.0889 -4.7332 -0.453 0.238 0.860 205 172 149 0 0
-6.1877 -2.0679 -4.7149 -0.372 0.187 0.909 203 169 148 0 0
-6.1691 -2.0566 -4.7058 -0.715 0.377 0.588 204 170 151 0 0
-5.9842 -2.0633 -4.7360 0.340 0.046 0.939 197 164 144 0 0
-5.9261 -2.0610 -4.7411 0.080 0.214 0.974 174 143 132 0 0
-5.9150 -2.0711 -4.7527 0.147 -0.100 0.984 172 140 126 0 0
-5.8995 -2.0676 -4.7512 0.165 -0.127 0.978 168 135 121 0 0
-5.8734 -2.0757 -4.7626 0.328 0.074 0.942 155 121 108 0 0
-5.8579 -2.0722 -4.7611 0.596 0.055 0.801 153 120 106 0 0
-5.8212 -2.0931 -4.7868 -0.346 0.513 0.786 144 112 98 0 0
-5.8073 -2.0947 -4.7901 -0.204 0.510 0.835 142 109 94 0 0
-5.6750 -2.0830 -4.7952 0.184 -0.060 0.981 137 98 87 0 0
-5.5889 -2.0813 -4.8044 0.050 0.391 0.919 129 93 84 0 0
-5.5774 -2.0919 -4.8165 -0.340 0.321 0.884 131 94 84 0 0
-5.5345 -2.0917 -4.8217 0.347 0.388 0.854 133 99 87 0 0
-5.5221 -2.0991 -4.8308 0.318 0.079 0.945 132 98 87 0 0
-5.5086 -2.1024 -4.8359 0.521 0.016 0.853 135 101 91 0 0
-5.4251 -2.1110 -4.8551 0.708 -0.078 0.702 132 99 88 0 0
-5.4101 -2.1076 -4.8536 0.416 -0.158 0.895 132 97 87 0 0
-5.3983 -2.1189 -4.8664 0.390 0.020 0.921 131 94 85 0 0
-5.3852 -2.1240 -4.8733 0.121 0.108 0.987 126 89 79 0 0
-5.3710 -2.1245 -4.8755 0.121 0.138 0.983 128 91 79 0 0
-4.7655 -2.1516 -4.9797 0.492 0.175 0.853 164 142 166 0 0
-4.7517 -2.1545 -4.9843 0.546 0.008 0.838 171 153 182 0 0
-4.5557 -2.1659 -5.0207 0.219 0.405 0.887 178 152 158 0 0
-4.5416 -2.1639 -5.0205 -0.064 0.194 0.979 185 159 163 0 0
-4.5134 -2.1613 -5.0214 0.171 -0.007 0.985 200 178 180 0 0
-4.4993 -2.1610 -5.0229 -0.060 0.041 0.997 201 180 184 0 0
-4.4293 -2.1585 -5.0294 -0.027 0.072 0.997 203 184 185 0 0
-4.4152 -2.1562 -5.0288 -0.024 0.065 0.998 203 183 183 0 0
-4.4012 -2.1542 -5.0286 -0.024 0.065 0.998 201 181 181 0 0
-4.3872 -2.1518 -5.0279 0.050 0.065 0.997 207 188 188 0 0
-4.3593 -2.1517 -5.0314 0.089 0.067 0.994 203 184 183 0 0
-4.0806 -2.2050 -5.1204 0.034 0.140 0.990 213 193 173 0 0
-4.0668 -2.2023 -5.1194 -0.209 0.096 0.973 211 190 165 0 0
-4.0529 -2.1993 -5.1182 -0.076 0.060 0.995 216 194 171 0 0
-4.0390 -2.1979 -5.1186 -0.200 0.066 0.977 213 192 174 0 0
-3.9279 -2.1985 -5.1333 -0.191 0.584 0.789 198 177 161 0 0
-3.9141 -2.1971 -5.1336 -0.027 0.474 0.880 193 174 158 0 0
-3.8727 -2.1946 -5.1364 0.225 0.328 0.917 206 189 178 0 0
-3.8589 -2.1942 -5.1377 0.196 0.279 0.940 206 189 177 0 0
-9.4272 -1.7704 -3.9842 0.558 -0.279 0.782 208 185 144 0 0
-9.2046 -1.7732 -4.0153 0.486 -0.085 0.870 208 185 147 0 0
-9.1949 -1.7785 -4.0219 0.582 -0.080 0.809 208 186 150 0 0
-9.1813 -1.7799 -4.0250 0.374 0.061 0.926 210 189 154 0 0
-9.1673 -1.7809 -4.0278 0.249 0.145 0.957 210 190 156 0 0
-9.1512 -1.7798 -4.0288 0.085 0.241 0.967 210 190 156 0 0
-9.1342 -1.7777 -4.0288 -0.081 0.024 0.996 212 192 157 0 0
-9.0275 -1.7910 -4.0558 0.077 -0.157 0.985 210 189 155 0 0
-9.0164 -1.8107 -4.0770 0.344 -0.127 0.930 212 190 154 0 0
-9.0013 -1.8107 -4.0788 0.418 -0.086 0.904 210 188 153 0 0
-8.9749 -1.7986 -4.0701 0.595 -0.038 0.802 209 187 150 0 0
-8.9684 -1.8076 -4.0799 0.571 0.052 0.820 210 187 153 0 0
-8.9622 -1.8328 -4.1061 0.165 -0.135 0.977 211 189 154 0 0
-8.8670 -1.8931 -4.1786 -0.098 0.164 0.982 216 194 156 0 0
-8.8563 -1.8980 -4.1849 -0.146 0.075 0.986 213 191 152 0 0
-8.8289 -1.9012 -4.1916 0.491 0.265 0.830 210 188 148 0 0
-8.8198 -1.9079 -4.1996 -0.131 0.628 0.767 204 180 140 0 0
-8.6176 -1.9013 -4.2187 0.306 -0.154 0.939 210 188 151 0 0
-8.6049 -1.9041 -4.2231 0.283 -0.180 0.942 210 188 150 0 0
-8.5079 -1.9502 -4.2817 0.579 0.125 0.806 215 193 159 0 0
-8.4093 -1.9967 -4.3409 0.034 -0.151 0.988 214 190 153 0 0
-8.3794 -1.9974 -4.3454 -0.527 0.314 0.790 213 191 154 0 0
-8.3632 -1.9961 -4.3461 -0.371 0.026 0.928 213 191 153 0 0
-8.3427 -1.9894 -4.3421 0.149 -0.118 0.982 213 189 151 0 0
-8.3100 -2.0056 -4.3625 0.382 0.648 0.659 217 195 160 0 0
-8.2826 -2.0096 -4.3699 0.522 0.205 0.828 220 200 164 0 0
-8.2719 -2.0154 -4.3771 0.656 0.162 0.737 219 199 165 0 0
-8.1100 -2.0219 -4.4043 -0.248 0.095 0.964 211 189 151 0 0
-8.0904 -2.0159 -4.4007 -0.116 -0.044 0.992 210 186 149 0 0
-8.0709 -2.0100 -4.3973 -0.132 0.005 0.991 211 187 149 0 0
-8.0560 -2.0103 -4.3995 0.064 -0.029 0.998 212 190 153 0 0
-8.0385 -2.0069 -4.3983 -0.027 0.025 0.999 213 191 154 0 0
-7.9177 -2.0277 -4.4346 -0.193 0.336 0.922 215 191 159 0 0
-7.9034 -2.0288 -4.4375 -0.260 0.338 0.905 211 187 151 0 0
-7.8655 -2.0393 -4.4528 0.295 0.856 0.424 213 190 156 0 0
-7.7809 -2.0037 -4.4278 0.376 0.046 0.926 214 190 155 0 0
-7.7511 -2.0038 -4.4318 0.684 0.213 0.698 212 186 150 0 0
-7.7374 -2.0057 -4.4354 0.415 0.257 0.873 214 188 153 0 0
-7.7247 -2.0091 -4.4404 0.415 0.257 0.873 212 186 149 0 0
-7.7149 -2.0167 -4.4493 0.132 0.185 0.974 211 183 146 0 0
-7.7006 -2.0178 -4.4522 -0.086 0.291 0.953 212 182 144 0 0
-7.6870 -2.0198 -4.4560 0.067 0.090 0.994 210 181 143 0 0
-7.6731 -2.0214 -4.4593 0.348 0.131 0.929 211 182 144 0 0
-7.6761 -2.0487 -4.4864 0.427 0.331 0.842 213 184 148 0 0
-7.6619 -2.0499 -4.4894 0.665 0.045 0.745 214 186 150 0 0
-7.6477 -2.0513 -4.4926 -0.238 0.521 0.819 214 187 151 0 0
-7.5933 -2.0366 -4.4848 0.247 0.561 0.790 212 182 146 0 0
-7.5783 -2.0366 -4.4867 0.426 0.725 0.541 208 176 139 0 0
-7.5633 -2.0366 -4.4885 0.502 0.626 0.597 208 174 137 0 0
-7.5509 -2.0406 -4.4942 0.579 0.653 0.488 207 174 136 0 0
-7.5421 -2.0503 -4.5050 0.555 0.516 0.652 205 169 133 0 0
-7.5286 -2.0527 -4.5092 0.322 0.091 0.942 203 165 129 0 0
-7.5153 -2.0553 -4.5135 0.322 0.091 0.942 204 167 132 0 0
-7.4994 -2.0539 -4.5141 -0.069 0.020 0.997 207 170 135 0 0
-7.4832 -2.0518 -4.5140 -0.100 0.131 0.986 206 171 137 0 0
-7.4670 -2.0499 -4.5142 -0.031 0.065 0.997 207 172 140 0 0
-7.4507 -2.0476 -4.5140 0.004 0.082 0.997 208 173 142 0 0
-7.4359 -2.0478 -4.5160 0.221 -0.037 0.975 208 174 143 0 0
-7.4191 -2.0448 -4.5151 0.240 0.045 0.970 210 177 146 0 0
-7.4052 -2.0464 -4.5186 0.254 0.058 0.966 210 176 144 0 0
-7.3855 -2.0385 -4.5131 0.014 0.291 0.957 206 170 137 0 0
-7.3606 -2.0466 -4.5244 0.045 0.292 0.955 204 165 134 0 0
-7.3421 -2.0405 -4.5206 -0.146 0.311 0.939 206 169 138 0 0
-7.3260 -2.0385 -4.5206 0.022 0.303 0.953 206 171 141 0 0
-7.3113 -2.0387 -4.5227 0.513 0.382 0.769 206 169 140 0 0
-7.2991 -2.0432 -4.5288 0.404 0.289 0.868 205 167 136 0 0
-7.2862 -2.0465 -4.5338 0.420 0.290 0.860 205 165 134 0 0
-7.2728 -2.0490 -4.5380 0.370 0.198 0.908 203 163 133 0 0
-7.2665 -2.0639 -4.5537 -0.058 0.561 0.826 204 165 135 0 0
-7.2505 -2.0620 -4.5538 -0.058 0.561 0.826 204 163 134 0 0
-7.2376 -2.0654 -4.5589 -0.235 0.607 0.759 203 161 134 0 0
-7.2181 -2.0573 -4.5532 -0.250 0.441 0.862 197 155 129 0 0
-7.1833 -2.0483 -4.5486 -0.169 0.343 0.924 201 157 134 0 0
-7.1684 -2.0481 -4.5504 0.139 0.123 0.983 196 153 130 0 0
-7.1534 -2.0477 -4.5519 0.050 0.132 0.990 196 152 131 0 0
-7.1390 -2.0485 -4.5545 0.149 0.092 0.985 193 147 125 0 0
-7.1251 -2.0500 -4.5578 0.391 0.026 0.920 194 150 129 0 0
-7.1163 -2.0609 -4.5699 0.296 -0.167 0.940 195 150 131 0 0
-7.0024 -2.0695 -4.5930 -0.178 0.101 0.979 164 120 109 0 0
-6.9854 -2.0652 -4.5908 -0.243 0.228 0.943 188 145 134 0 0
-6.9712 -2.0663 -4.5937 0.173 0.086 0.981 193 151 141 0 0
-6.9567 -2.0670 -4.5962 0.173 0.086 0.981 191 151 142 0 0
-6.9399 -2.0629 -4.5943 0.430 0.250 0.868 177 136 125 0 0
-6.9242 -2.0611 -4.5945 0.400 0.278 0.874 168 127 117 0 0
-6.8725 -2.0754 -4.6154 0.340 0.379 0.861 188 147 125 0 0
-6.7946 -2.0668 -4.6167 0.331 0.412 0.849 205 169 148 0 0
-6.7810 -2.0692 -4.6208 0.185 0.598 0.780 206 172 153 0 0
-6.7589 -2.0537 -4.6080 0.822 0.371 0.432 204 168 150 0 0
-6.7500 -2.0658 -4.6213 -0.042 0.303 0.952 205 168 150 0 0
-6.7392 -2.0739 -4.6308 0.198 0.224 0.954 206 172 152 0 0
-6.6638 -2.0696 -4.6361 0.169 0.065 0.984 208 177 160 0 0
-6.6493 -2.0698 -4.6382 0.336 -0.025 0.941 206 174 160 0 0
-6.6353 -2.0713 -4.6414 0.261 0.005 0.965 208 176 163 0 0
-6.6186 -2.0667 -4.6390 0.219 0.140 0.966 204 170 155 0 0
-6.6057 -2.0706 -4.6445 0.316 -0.072 0.946 204 169 154 0 0
-6.5918 -2.0722 -4.6479 0.218 -0.138 0.966 203 169 156 0 0
-6.5778 -2.0737 -4.6511 0.172 -0.119 0.978 200 166 151 0 0
-6.3955 -2.0914 -4.6921 0.355 -0.003 0.935 207 171 152 0 0
-6.3502 -2.0875 -4.6940 0.162 -0.005 0.987 201 164 146 0 0
-6.2656 -2.1326 -4.7500 0.149 0.851 0.504 211 179 152 0 0
-6.2349 -2.1290 -4.7503 -0.521 0.710 0.475 212 178 150 0 0
-5.9280 -2.0803 -4.7405 0.207 0.225 0.952 167 132 116 0 0
-5.9157 -2.0869 -4.7486 0.300 -0.030 0.953 162 126 109 0 0
-5.8745 -2.0931 -4.7601 0.170 -0.043 0.985 156 120 105 0 0
-5.6906 -2.1022 -4.7926 0.427 0.115 0.897 130 90 80 0 0
-5.6787 -2.1110 -4.8030 0.113 0.270 0.956 133 95 84 0 0
-5.6638 -2.1089 -4.8027 0.393 0.346 0.852 131 92 82 0 0
-5.6509 -2.1141 -4.8097 0.197 0.788 0.584 131 92 82 0 0
-5.6353 -2.1094 -4.8069 -0.271 0.294 0.916 129 92 81 0 0
-5.6198 -2.1050 -4.8045 -0.196 0.269 0.943 128 90 81 0 0
-5.6055 -2.1049 -4.8062 0.061 0.908 0.414 128 89 80 0 0
-5.5917 -2.1069 -4.8100 0.246 0.953 0.175 128 89 79 0 0
-5.5800 -2.1171 -4.8216 0.104 0.901 0.422 129 90 79 0 0
-5.5633 -2.1075 -4.8141 0.304 0.392 0.868 130 92 81 0 0
-5.5382 -2.1216 -4.8315 -0.123 0.019 0.992 133 95 83 0 0
-5.4749 -2.0959 -4.8137 -0.157 0.476 0.866 132 95 85 0 0
-5.4631 -2.1063 -4.8257 0.532 0.212 0.820 131 95 85 0 0
-5.4231 -2.1183 -4.8429 0.847 0.255 0.466 131 96 84 0 0
-5.4003 -2.1442 -4.8718 0.445 0.469 0.763 129 91 82 0 0
-5.3860 -2.1443 -4.8737 -0.115 0.384 0.916 123 85 75 0 0
-5.3713 -2.1425 -4.8737 -0.073 0.479 0.875 121 82 70 0 0
-4.7646 -2.1684 -4.9769 0.492 0.175 0.853 139 115 138 0 0
-4.7236 -2.1831 -4.9968 0.361 0.171 0.917 133 106 126 0 0
-4.5542 -2.1799 -5.0152 0.302 0.417 0.857 186 164 181 0 0
-4.4702 -2.1856 -5.0316 0.190 0.156 0.969 199 175 179 0 0
-4.0645 -2.2218 -5.1196 0.014 0.268 0.963 213 191 164 0 0
-3.9813 -2.2104 -5.1187 0.181 0.449 0.875 211 198 195 0 0
-3.9535 -2.2114 -5.1233 0.037 0.568 0.822 198 177 161 0 0
-3.9395 -2.2125 -5.1262 -0.206 0.696 0.688 200 180 163 0 0
-3.9258 -2.2094 -5.1247 -0.191 0.584 0.789 200 182 167 0 0
-3.8980 -2.2098 -5.1287 0.269 0.480 0.835 210 193 181 0 0
-3.8703 -2.2102 -5.1326 0.191 0.363 0.912 208 191 181 0 0
-3.8567 -2.2061 -5.1302 0.077 0.459 0.885 208 191 183 0 0
-3.8429 -2.2059 -5.1318 0.084 0.379 0.921 208 193 184 0 0
-3.8153 -2.2050 -5.1343 0.298 0.487 0.821 208 192 183 0 0
-9.4280 -1.7949 -3.9889 0.792 -0.214 0.572 207 183 142 0 0
-9.1575 -1.7955 -4.0240 -0.028 0.036 0.999 211 191 157 0 0
-9.1470 -1.8001 -4.0299 -0.109 0.039 0.993 212 192 157 0 0
-9.0440 -1.8176 -4.0606 0.085 -0.225 0.971 210 189 153 0 0
-9.0309 -1.8196 -4.0643 0.192 -0.188 0.963 210 190 155 0 0
-8.9743 -1.8552 -4.1071 0.165 -0.135 0.977 212 191 157 0 0
-8.8679 -1.9204 -4.1859 -0.007 -0.036 0.999 215 193 153 0 0
-8.8218 -1.9198 -4.1912 -0.213 0.597 0.773 206 182 141 0 0
-8.6026 -1.9289 -4.2282 0.203 0.076 0.976 210 187 149 0 0
-8.5756 -1.9327 -4.2354 0.132 0.214 0.968 209 186 146 0 0
-8.5314 -1.9702 -4.2786 0.514 0.022 0.857 216 193 158 0 0
-8.5134 -1.9668 -4.2775 0.560 0.132 0.818 216 194 157 0 0
-8.4950 -1.9813 -4.2943 0.297 -0.084 0.951 206 180 140 0 0
-8.4842 -1.9866 -4.3010 0.615 -0.068 0.786 205 178 138 0 0
-8.3239 -2.0142 -4.3491 -0.027 0.983 0.184 212 190 150 0 0
-8.3051 -2.0096 -4.3469 -0.591 0.720 0.363 211 188 148 0 0
-8.2986 -2.0207 -4.3588 0.291 0.944 0.154 209 185 145 0 0
-8.2894 -2.0284 -4.3677 0.464 0.860 0.213 214 191 149 0 0
-8.1243 -2.0310 -4.3913 0.227 -0.075 0.971 213 190 154 0 0
-8.1148 -2.0386 -4.4001 0.128 -0.025 0.992 213 191 153 0 0
-8.0982 -2.0368 -4.4004 0.288 -0.146 0.947 213 190 153 0 0
-8.0837 -2.0376 -4.4031 0.011 -0.094 0.996 214 189 151 0 0
-8.0669 -2.0354 -4.4030 0.059 -0.128 0.990 213 189 152 0 0
-7.9250 -2.0484 -4.4341 -0.068 0.108 0.992 213 189 154 0 0
-7.6969 -2.0681 -4.4829 0.605 0.274 0.748 210 180 141 0 0
-7.6848 -2.0727 -4.4890 0.562 0.328 0.760 210 181 142 0 0
-7.6679 -2.0698 -4.4883 -0.039 0.251 0.967 208 177 139 0 0
-7.6514 -2.0676 -4.4882 -0.039 0.251 0.967 209 179 141 0 0
-7.6194 -2.0646 -4.4893 -0.058 0.251 0.966 211 179 142 0 0
-7.5331 -2.0706 -4.5063 0.244 0.011 0.970 207 170 134 0 0
-7.5034 -2.0711 -4.5105 -0.163 0.032 0.986 208 170 134 0 0
-7.4287 -2.0713 -4.5203 0.288 -0.098 0.953 208 172 140 0 0
-7.3780 -2.0616 -4.5171 0.380 0.129 0.916 205 166 133 0 0
-7.3642 -2.0635 -4.5208 -0.004 0.008 1.000 205 165 131 0 0
-7.3481 -2.0615 -4.5207 -0.126 0.020 0.992 205 167 132 0 0
-7.3166 -2.0586 -4.5219 0.075 0.437 0.897 208 169 136 0 0
-7.3038 -2.0621 -4.5270 0.090 0.378 0.922 205 164 132 0 0
-7.2943 -2.0714 -4.5375 0.268 0.141 0.953 202 159 127 0 0
-7.2805 -2.0733 -4.5412 0.268 0.141 0.953 201 156 124 0 0
-7.2694 -2.0799 -4.5492 0.049 0.506 0.861 202 158 126 0 0
-7.2512 -2.0741 -4.5457 -0.058 0.561 0.826 195 150 118 0 0
-7.2376 -2.0764 -4.5498 -0.204 0.648 0.734 193 145 116 0 0
-7.2210 -2.0733 -4.5488 -0.207 0.404 0.891 192 143 116 0 0
-7.0067 -2.0889 -4.5918 -0.178 0.101 0.979 136 91 81 0 0
-6.9893 -2.0840 -4.5890 -0.280 0.231 0.932 141 97 89 0 0
-6.9762 -2.0872 -4.5939 0.341 0.071 0.937 147 103 97 0 0
-6.9612 -2.0869 -4.5955 0.122 0.187 0.975 150 106 99 0 0
-6.8736 -2.0891 -4.6089 0.340 0.379 0.861 164 119 106 0 0
-6.8583 -2.0880 -4.6098 0.346 0.201 0.916 174 129 114 0 0
-6.8154 -2.0908 -4.6180 -0.116 0.322 0.939 192 152 135 0 0
-6.7810 -2.0806 -4.6122 0.189 0.295 0.937 193 153 136 0 0
-6.7666 -2.0814 -4.6148 0.189 0.295 0.937 188 146 130 0 0
-6.7526 -2.0827 -4.6179 -0.005 0.268 0.963 192 150 134 0 0
-6.7413 -2.0900 -4.6266 0.198 0.224 0.954 197 159 141 0 0
-6.6670 -2.0882 -4.6343 0.169 0.065 0.984 207 171 155 0 0
-6.6529 -2.0895 -4.6374 0.336 -0.025 0.941 201 162 147 0 0
-6.6116 -2.0955 -4.6487 0.287 -0.074 0.955 196 156 139 0 0
-6.4265 -2.1080 -4.6848 0.661 0.423 0.620 185 143 126 0 0
-6.3987 -2.1115 -4.6919 0.589 0.327 0.739 195 154 132 0 0
-6.3713 -2.1162 -4.7000 -0.171 0.046 0.984 199 158 133 0 0
-6.2925 -2.1389 -4.7328 0.229 0.834 0.502 173 136 114 0 0
-6.2763 -2.1349 -4.7309 0.069 0.731 0.679 171 134 109 0 0
-6.2615 -2.1345 -4.7323 -0.091 0.775 0.626 188 152 126 0 0
-6.2330 -2.1364 -4.7379 -0.025 0.538 0.842 199 161 134 0 0
-6.2175 -2.1342 -4.7376 0.046 0.400 0.915 201 164 136 0 0
-5.9721 -2.0965 -4.7312 0.413 0.271 0.869 172 132 113 0 0
-5.9448 -2.1011 -4.7393 0.214 0.305 0.928 165 128 109 0 0
-5.9253 -2.0855 -4.7262 0.424 0.273 0.863 166 130 112 0 0
-5.6947 -2.1313 -4.8014 0.217 -0.127 0.968 123 84 74 0 0
-5.6679 -2.1388 -4.8123 -0.448 0.163 0.879 125 83 74 0 0
-5.5930 -2.1270 -4.8100 0.147 0.161 0.976 127 86 75 0 0
-5.5793 -2.1293 -4.8141 0.483 0.321 0.815 125 86 74 0 0
-5.5505 -2.1287 -4.8172 0.443 0.106 0.890 128 86 76 0 0
-5.4759 -2.1159 -4.8138 -0.106 0.262 0.959 126 86 75 0 0
-5.4632 -2.1222 -4.8218 0.664 0.200 0.720 125 83 71 0 0
-4.8906 -2.1813 -4.9540 0.690 0.417 0.592 126 83 92 0 0
-4.8502 -2.1995 -4.9773 0.319 0.065 0.946 121 79 89 0 0
-4.8365 -2.2042 -4.9837 0.224 0.167 0.960 123 81 92 0 0
-4.8226 -2.2073 -4.9886 0.178 0.126 0.976 125 83 96 0 0
-4.8085 -2.2079 -4.9910 0.178 0.126 0.976 125 85 99 0 0
-4.7633 -2.1826 -4.9715 0.511 0.332 0.793 130 102 122 0 0
-4.7495 -2.1854 -4.9760 0.677 0.238 0.696 128 99 123 0 0
-4.5669 -2.1960 -5.0098 0.518 0.348 0.781 173 154 180 0 0
-4.5392 -2.2032 -5.0206 0.221 0.287 0.932 176 153 176 0 0
-4.4688 -2.2025 -5.0289 0.082 0.026 0.996 190 164 170 0 0
-4.2026 -2.2262 -5.0866 -0.273 -0.223 0.936 206 189 184 0 0
-4.1746 -2.2174 -5.0813 0.225 -0.182 0.957 208 192 191 0 0
-4.0903 -2.2392 -5.1139 0.081 0.388 0.918 211 189 162 0 0
-4.0623 -2.2401 -5.1183 0.087 0.584 0.807 212 190 161 0 0
-3.9931 -2.2232 -5.1103 -0.355 0.601 0.717 209 194 187 0 0
-3.9792 -2.2236 -5.1124 0.181 0.449 0.875 209 192 183 0 0
-3.9652 -2.2242 -5.1148 0.256 0.591 0.765 203 183 168 0 0
-3.9375 -2.2222 -5.1164 -0.264 0.662 0.701 197 177 163 0 0
-3.9238 -2.2188 -5.1147 -0.274 0.673 0.687 201 183 169 0 0
-3.8542 -2.2227 -5.1274 0.007 0.327 0.945 208 194 184 0 0
-3.8405 -2.2209 -5.1274 -0.034 0.312 0.949 210 195 187 0 0
-3.7988 -2.2231 -5.1350 0.271 0.659 0.701 211 197 188 0 0
-9.6614 -1.8378 -3.9821 0.094 -0.259 0.961 208 184 145 0 0
-9.6164 -1.8102 -3.9603 0.220 -0.224 0.950 208 185 144 0 0
-9.1526 -1.8151 -4.0245 -0.234 0.132 0.963 213 191 156 0 0
-9.0583 -1.8737 -4.0950 0.479 -0.151 0.865 212 190 152 0 0
-9.0407 -1.8711 -4.0946 0.378 0.022 0.925 211 188 151 0 0
-9.0339 -1.8800 -4.1043 0.166 -0.137 0.977 213 190 154 0 0
-9.0166 -1.8777 -4.1043 0.098 -0.089 0.991 213 191 156 0 0
-9.0092 -1.8858 -4.1133 -0.487 0.236 0.841 212 191 156 0 0
-8.9864 -1.8777 -4.1082 0.165 -0.135 0.977 213 192 156 0 0
-8.9129 -1.9294 -4.1691 0.129 0.172 0.977 214 192 155 0 0
-8.8527 -1.9302 -4.1776 -0.248 0.712 0.657 217 194 153 0 0
-8.8307 -1.9226 -4.1728 0.535 0.455 0.712 211 189 147 0 0
-8.8191 -1.9266 -4.1782 0.147 0.413 0.899 208 183 143 0 0
-8.8122 -1.9359 -4.1884 0.549 0.268 0.792 204 178 137 0 0
-8.6304 -1.9358 -4.2116 0.419 -0.264 0.869 211 188 148 0 0
-8.5911 -1.9789 -4.2595 -0.016 0.211 0.977 209 186 145 0 0
-8.5745 -1.9771 -4.2599 -0.207 0.221 0.953 210 186 146 0 0
-8.5419 -1.9745 -4.2614 0.429 -0.132 0.894 213 191 150 0 0
-8.5360 -1.9856 -4.2733 0.490 0.079 0.868 214 192 152 0 0
-8.4249 -2.0555 -4.3571 0.036 0.035 0.999 215 193 152 0 0
-8.3823 -2.0598 -4.3668 -0.549 0.647 0.530 215 193 155 0 0
-8.3563 -2.0461 -4.3565 -0.549 0.647 0.530 215 193 154 0 0
-8.2748 -2.0394 -4.3602 0.600 0.771 0.214 207 182 136 0 0
-8.2397 -2.0533 -4.3785 0.589 0.572 0.570 213 191 151 0 0
-8.1624 -2.0516 -4.3868 0.414 -0.142 0.899 213 189 149 0 0
-8.1522 -2.0584 -4.3948 0.234 -0.052 0.971 213 189 149 0 0
-8.1390 -2.0611 -4.3992 0.257 -0.068 0.964 214 191 152 0 0
-8.1226 -2.0595 -4.3997 0.061 -0.019 0.998 214 192 154 0 0
-8.1069 -2.0588 -4.4010 0.136 -0.053 0.989 215 193 155 0 0
-8.0906 -2.0573 -4.4016 -0.038 0.027 0.999 214 192 153 0 0
-8.0752 -2.0570 -4.4033 -0.027 0.082 0.996 214 192 153 0 0
-7.9451 -2.0659 -4.4288 0.054 0.017 0.998 214 190 152 0 0
-7.9285 -2.0639 -4.4289 -0.251 0.155 0.956 213 190 151 0 0
-7.8761 -2.0756 -4.4472 0.644 -0.072 0.761 211 188 148 0 0
-7.8515 -2.0839 -4.4587 0.284 0.021 0.958 214 192 155 0 0
-7.8411 -2.0909 -4.4669 0.157 0.164 0.974 215 191 154 0 0
-7.8240 -2.0880 -4.4663 0.092 0.091 0.992 212 187 149 0 0
-7.6728 -2.0880 -4.4856 0.475 0.395 0.786 209 177 137 0 0
-7.6263 -2.0860 -4.4896 0.147 0.067 0.987 206 171 131 0 0
-7.6134 -2.0893 -4.4945 -0.067 0.045 0.997 207 170 129 0 0
-7.5963 -2.0861 -4.4935 -0.067 0.045 0.997 208 170 132 0 0
-7.5797 -2.0838 -4.4933 0.146 -0.009 0.989 207 170 134 0 0
-7.5647 -2.0838 -4.4952 0.060 0.045 0.997 207 171 134 0 0
-7.5493 -2.0832 -4.4966 0.293 -0.028 0.956 209 172 136 0 0
-7.5359 -2.0858 -4.5009 0.234 0.119 0.965 209 173 136 0 0
-7.5223 -2.0881 -4.5049 -0.157 0.236 0.959 207 168 130 0 0
-7.4954 -2.0932 -4.5134 0.014 0.006 1.000 207 168 131 0 0
-7.4018 -2.0873 -4.5195 -0.004 0.010 1.000 206 164 128 0 0
-7.3826 -2.0801 -4.5148 0.170 0.056 0.984 206 164 129 0 0
-7.3677 -2.0802 -4.5168 0.018 0.155 0.988 204 162 127 0 0
-7.3461 -2.0689 -4.5083 0.033 0.059 0.998 205 163 128 0 0
-7.3292 -2.0656 -4.5072 -0.068 0.054 0.996 204 161 126 0 0
-7.2678 -2.0881 -4.5375 0.021 0.225 0.974 189 140 109 0 0
-7.2521 -2.0868 -4.5381 0.021 0.225 0.974 186 134 108 0 0
-7.2384 -2.0889 -4.5420 -0.002 0.172 0.985 177 125 105 0 0
-7.0304 -2.1170 -4.5966 0.136 -0.063 0.989 128 81 73 0 0
-7.0110 -2.1084 -4.5905 -0.178 0.101 0.979 134 88 79 0 0
-6.9915 -2.0995 -4.5841 -0.307 0.270 0.913 132 86 79 0 0
-6.9641 -2.1039 -4.5920 0.122 0.187 0.975 134 87 83 0 0
-6.8867 -2.0973 -4.5953 -0.150 0.424 0.893 141 96 90 0 0
-6.8719 -2.0972 -4.5970 0.329 0.633 0.701 143 98 92 0 0
-6.8555 -2.0940 -4.5960 0.580 0.353 0.734 143 97 91 0 0
-6.8203 -2.0824 -4.5889 -0.267 0.417 0.869 150 106 97 0 0
-6.7858 -2.1023 -4.6131 0.086 0.116 0.990 156 113 105 0 0
-6.7712 -2.1024 -4.6151 0.041 0.059 0.997 155 114 105 0 0
-6.7548 -2.0990 -4.6139 -0.047 0.088 0.995 163 120 111 0 0
-6.7436 -2.1064 -4.6226 -0.066 0.106 0.992 167 125 116 0 0
-6.6705 -2.1076 -4.6332 0.151 0.000 0.989 187 145 131 0 0
-6.6566 -2.1092 -4.6366 0.336 -0.025 0.941 186 141 129 0 0
-6.6293 -2.1139 -4.6448 0.287 -0.074 0.955 177 132 120 0 0
-6.4437 -2.1264 -4.6809 -0.501 0.785 0.365 173 131 117 0 0
-6.4266 -2.1206 -4.6773 0.554 0.530 0.642 168 125 113 0 0
-6.4122 -2.1211 -4.6796 0.645 0.434 0.629 164 124 112 0 0
-6.4002 -2.1275 -4.6876 0.645 0.434 0.629 159 118 103 0 0
-6.2906 -2.1467 -4.7207 0.229 0.834 0.502 175 139 114 0 0
-6.2333 -2.1500 -4.7313 0.015 0.514 0.858 189 149 120 0 0
-6.2180 -2.1482 -4.7315 0.046 0.400 0.915 197 158 129 0 0
-5.7966 -2.1491 -4.7862 0.387 0.070 0.920 130 94 82 0 0
-5.7674 -2.1480 -4.7889 0.189 -0.076 0.979 127 89 78 0 0
-5.7516 -2.1431 -4.7860 0.095 0.059 0.994 115 78 64 0 0
-5.7376 -2.1448 -4.7895 -0.125 0.023 0.992 116 77 64 0 0
-5.6934 -2.1412 -4.7916 0.643 0.084 0.761 121 81 69 0 0
-5.6080 -2.1443 -4.8055 -0.277 -0.109 0.955 127 86 74 0 0
-5.3694 -2.1663 -4.8579 -0.145 0.503 0.852 116 72 56 0 0
-5.3553 -2.1672 -4.8607 0.325 0.546 0.772 113 68 54 0 0
-5.3133 -2.1721 -4.8709 0.392 0.627 0.673 111 63 50 0 0
-5.2591 -2.1878 -4.8935 0.200 0.956 0.215 102 52 42 0 0
-5.2452 -2.1898 -4.8972 0.194 0.980 0.055 101 51 41 0 0
-5.2323 -2.1976 -4.9067 0.656 0.755 -0.015 102 51 42 0 0
-4.9480 -2.2077 -4.9530 0.311 -0.126 0.942 112 60 58 0 0
-4.6077 -2.2098 -4.9987 0.095 0.010 0.995 147 128 168 0 0
-4.5656 -2.2130 -5.0072 0.529 0.179 0.830 152 133 172 0 0
-4.4675 -2.2231 -5.0298 0.131 -0.026 0.991 159 137 157 0 0
-4.3689 -2.2230 -5.0423 0.138 -0.273 0.952 192 176 189 0 0
-4.3549 -2.2232 -5.0443 0.122 -0.265 0.957 196 179 191 0 0
-4.3269 -2.2263 -5.0510 0.066 -0.226 0.972 202 186 192 0 0
-4.0882 -2.2568 -5.1119 0.087 0.447 0.890 206 182 158 0 0
-4.0741 -2.2563 -5.1132 -0.046 0.431 0.901 205 181 157 0 0
-4.0602 -2.2546 -5.1133 -0.046 0.431 0.901 201 177 154 0 0
-4.0048 -2.2380 -5.1037 -0.248 0.460 0.853 207 190 179 0 0
-3.9631 -2.2356 -5.1067 0.256 0.591 0.765 197 178 161 0 0
-3.9492 -2.2357 -5.1086 0.099 0.362 0.927 194 174 157 0 0
-3.9352 -2.2385 -5.1132 0.153 0.375 0.914 199 180 166 0 0
-3.9212 -2.2389 -5.1154 0.153 0.375 0.914 201 184 172 0 0
-3.9073 -2.2393 -5.1175 0.153 0.375 0.914 201 184 173 0 0
-3.8103 -2.2365 -5.1272 -0.041 0.506 0.861 210 196 188 0 0
-3.7963 -2.2382 -5.1306 0.179 0.553 0.814 209 195 187 0 0
-9.6835 -1.8677 -3.9891 -0.034 -0.245 0.969 208 185 144 0 0
-9.3445 -1.8354 -4.0004 -0.155 0.283 0.946 207 183 140 0 0
-9.1239 -1.8570 -4.0501 0.670 -0.129 0.731 215 193 157 0 0
-9.1060 -1.8698 -4.0652 0.199 -0.081 0.977 212 191 155 0 0
-9.0910 -1.8700 -4.0672 0.114 -0.063 0.991 211 188 150 0 0
-9.0737 -1.8677 -4.0671 0.018 -0.012 1.000 211 188 150 0 0
-9.0672 -1.8926 -4.0927 0.429 -0.103 0.897 210 187 148 0 0
-9.0445 -1.9331 -4.1358 -0.241 0.343 0.908 214 191 153 0 0
-9.0228 -1.9262 -4.1318 0.190 0.058 0.980 213 191 153 0 0
-9.0084 -1.9271 -4.1345 0.190 0.058 0.980 213 191 154 0 0
-8.9951 -1.9292 -4.1383 0.290 -0.023 0.957 213 190 152 0 0
-8.9045 -1.9467 -4.1673 0.200 0.315 0.928 214 192 150 0 0
-8.8890 -1.9464 -4.1690 0.066 0.411 0.909 215 194 153 0 0
-8.8751 -1.9479 -4.1722 -0.236 0.564 0.791 216 194 153 0 0
-8.8562 -1.9438 -4.1706 -0.217 0.566 0.795 218 196 154 0 0
-8.8407 -1.9434 -4.1722 0.115 0.479 0.870 213 191 149 0 0
-8.8210 -1.9384 -4.1697 -0.093 0.476 0.874 212 188 144 0 0
-8.8091 -1.9421 -4.1749 0.066 0.479 0.875 211 187 143 0 0
-8.7765 -1.9915 -4.2282 -0.258 0.358 0.897 213 190 147 0 0
-8.7318 -1.9753 -4.2178 -0.254 0.472 0.844 210 186 145 0 0
-8.7138 -1.9721 -4.2169 -0.046 0.552 0.833 212 189 147 0 0
-8.7019 -1.9759 -4.2223 0.049 0.501 0.864 213 190 148 0 0
-8.6816 -1.9700 -4.2190 0.146 0.660 0.737 211 188 146 0 0
-8.4733 -2.0686 -4.3436 0.885 -0.213 0.415 213 190 148 0 0
-8.2740 -2.0485 -4.3491 0.524 0.522 0.673 208 181 134 0 0
-8.2639 -2.0552 -4.3571 0.715 0.471 0.517 208 182 139 0 0
-8.2387 -2.0621 -4.3672 0.570 0.385 0.726 215 192 150 0 0
-8.2272 -2.0671 -4.3736 0.570 0.385 0.726 215 192 153 0 0
-8.2195 -2.0770 -4.3844 0.560 0.406 0.722 215 192 152 0 0
-8.1338 -2.0850 -4.4033 0.153 -0.057 0.987 215 192 151 0 0
-8.1213 -2.0887 -4.4086 0.180 -0.025 0.983 214 192 151 0 0
-8.1027 -2.0842 -4.4065 0.140 -0.147 0.979 215 191 152 0 0
-8.0264 -2.0839 -4.4160 0.130 -0.162 0.978 213 190 149 0 0
-8.0113 -2.0840 -4.4181 0.130 -0.162 0.978 212 188 146 0 0
-7.9529 -2.0874 -4.4289 -0.036 0.098 0.995 215 190 150 0 0
-7.9350 -2.0836 -4.4274 -0.251 0.155 0.956 216 192 153 0 0
-7.9203 -2.0842 -4.4299 -0.068 0.108 0.992 215 191 152 0 0
-7.8283 -2.1049 -4.4622 0.141 0.114 0.983 213 186 146 0 0
-7.7640 -2.0994 -4.4650 -0.052 -0.020 0.998 212 184 145 0 0
-7.7465 -2.0958 -4.4637 -0.082 0.053 0.995 213 184 145 0 0
-7.6891 -2.1005 -4.4757 0.362 -0.076 0.929 212 183 141 0 0
-7.6756 -2.1029 -4.4798 0.695 -0.039 0.718 212 180 137 0 0
-7.5477 -2.1154 -4.5086 0.205 0.031 0.978 204 165 126 0 0
-7.5295 -2.1105 -4.5060 0.209 0.025 0.978 205 162 124 0 0
-7.5168 -2.1142 -4.5114 -0.084 0.088 0.993 200 156 119 0 0
-7.5006 -2.1124 -4.5116 0.248 0.054 0.967 203 160 122 0 0
-7.4867 -2.1144 -4.5154 0.171 0.036 0.985 205 163 124 0 0
-7.4681 -2.1085 -4.5119 -0.209 0.156 0.965 205 163 126 0 0
-7.4541 -2.1102 -4.5154 -0.099 0.184 0.978 205 162 126 0 0
-7.4422 -2.1153 -4.5220 0.047 0.229 0.972 204 159 123 0 0
-7.3709 -2.0966 -4.5125 0.198 0.087 0.976 204 157 123 0 0
-7.0472 -2.1320 -4.5892 0.103 0.619 0.778 125 77 66 0 0
-6.9831 -2.1234 -4.5888 0.413 0.090 0.906 128 78 69 0 0
-6.9669 -2.1207 -4.5882 0.151 0.252 0.956 129 78 71 0 0
-6.9356 -2.1176 -4.5891 0.395 0.029 0.918 131 80 75 0 0
-6.9058 -2.1172 -4.5926 -0.243 0.353 0.903 130 79 75 0 0
-6.8881 -2.1114 -4.5891 -0.295 0.395 0.870 132 81 78 0 0
-6.8715 -2.1078 -4.5876 0.329 0.633 0.701 132 81 78 0 0
-6.8530 -2.1004 -4.5826 0.765 0.175 0.619 131 80 77 0 0
-6.8426 -2.1091 -4.5926 0.747 0.163 0.644 130 80 77 0 0
-6.8226 -2.0984 -4.5845 -0.211 0.418 0.883 132 83 78 0 0
-6.4588 -2.1395 -4.6720 -0.469 0.883 0.026 165 123 110 0 0
-6.4411 -2.1324 -4.6672 -0.513 0.836 0.193 161 118 107 0 0
-6.4257 -2.1306 -4.6673 0.308 0.657 0.688 143 102 93 0 0
-6.4113 -2.1312 -4.6698 0.604 0.648 0.464 146 106 94 0 0
-6.3991 -2.1372 -4.6773 0.604 0.648 0.464 144 104 93 0 0
-6.3878 -2.1455 -4.6870 0.064 0.954 0.292 147 108 95 0 0
-6.3733 -2.1458 -4.6891 0.064 0.954 0.292 149 112 97 0 0
-6.3584 -2.1454 -4.6906 0.251 0.811 0.528 162 123 104 0 0
-6.2879 -2.1523 -4.7066 0.247 0.870 0.426 184 143 118 0 0
-6.2331 -2.1622 -4.7234 -0.022 0.530 0.848 191 152 125 0 0
-6.0124 -2.1573 -4.7468 -0.027 0.194 0.981 166 122 98 0 0
-5.9928 -2.1420 -4.7341 0.344 0.412 0.844 164 118 96 0 0
-5.9557 -2.1172 -4.7143 0.389 0.577 0.718 158 115 94 0 0
-5.9432 -2.1230 -4.7216 0.644 0.530 0.552 158 115 95 0 0
-5.8888 -2.1336 -4.7391 0.855 0.187 0.483 147 108 89 0 0
-5.8112 -2.1635 -4.7787 0.317 0.088 0.944 129 92 78 0 0
-5.6425 -2.1810 -4.8177 -0.358 -0.095 0.929 117 73 60 0 0
-5.2584 -2.2013 -4.8870 0.015 0.885 0.465 99 50 38 0 0
-5.2426 -2.1939 -4.8818 0.200 0.956 0.215 99 49 40 0 0
-5.2294 -2.1998 -4.8893 0.656 0.755 -0.015 102 51 40 0 0
-5.2170 -2.2103 -4.9013 0.426 0.903 -0.060 102 53 42 0 0
-5.2040 -2.2177 -4.9103 0.050 0.988 0.145 105 55 44 0 0
-5.1888 -2.2132 -4.9078 -0.572 0.799 0.186 106 56 45 0 0
-5.1731 -2.2054 -4.9020 -0.833 0.548 0.074 105 53 41 0 0
-5.1599 -2.2120 -4.9103 -0.778 0.461 0.428 105 53 41 0 0
-5.1447 -2.2064 -4.9067 -0.570 0.281 0.772 106 52 40 0 0
-4.9333 -2.2269 -4.9541 0.104 0.080 0.991 109 53 52 0 0
-4.3959 -2.2554 -5.0512 0.317 -0.280 0.906 155 142 177 0 0
-4.3817 -2.2521 -5.0498 0.197 -0.277 0.940 151 137 168 0 0
-4.3677 -2.2558 -5.0552 0.052 -0.263 0.963 156 140 167 0 0
-4.3536 -2.2548 -5.0561 -0.059 -0.246 0.968 164 144 168 0 0
-4.3395 -2.2568 -5.0599 -0.005 -0.204 0.979 181 159 174 0 0
-4.3254 -2.2565 -5.0613 0.051 -0.200 0.978 197 176 185 0 0
-4.2410 -2.2827 -5.0982 0.099 0.152 0.983 208 187 177 0 0
-4.2127 -2.2795 -5.0986 0.105 0.095 0.990 209 182 160 0 0
-4.1141 -2.2728 -5.1046 0.363 0.354 0.862 203 182 169 0 0
-4.0720 -2.2715 -5.1087 -0.130 0.447 0.885 197 174 153 0 0
-4.0580 -2.2696 -5.1086 -0.112 0.283 0.953 199 176 157 0 0
-4.0442 -2.2649 -5.1057 -0.349 0.324 0.879 198 175 156 0 0
-3.9886 -2.2552 -5.1032 -0.004 0.223 0.975 210 191 177 0 0
-3.9749 -2.2491 -5.0989 0.292 0.289 0.912 204 186 172 0 0
-3.9608 -2.2526 -5.1042 -0.079 0.345 0.935 204 186 171 0 0
-3.9469 -2.2519 -5.1053 0.060 0.404 0.913 198 181 165 0 0
-3.9331 -2.2483 -5.1034 -0.079 0.345 0.935 204 187 174 0 0
-3.9193 -2.2461 -5.1031 -0.079 0.345 0.935 208 194 187 0 0
-3.9051 -2.2509 -5.1096 0.272 0.362 0.892 207 192 183 0 0
-3.8357 -2.2502 -5.1178 0.045 0.202 0.978 205 189 179 0 0
-9.6847 -1.8925 -3.9935 -0.069 -0.092 0.993 208 185 144 0 0
-9.6443 -1.8691 -3.9755 -0.144 0.051 0.988 209 186 145 0 0
-9.1368 -1.8642 -4.0358 0.568 -0.197 0.799 214 193 155 0 0
-9.1109 -1.8844 -4.0591 0.479 -0.151 0.865 214 191 155 0 0
-9.0422 -1.9240 -4.1071 -0.188 -0.141 0.972 211 187 146 0 0
-9.0512 -1.9500 -4.1317 -0.159 0.332 0.930 211 188 148 0 0
-9.0298 -1.9434 -4.1279 0.190 0.023 0.981 212 190 149 0 0
-9.0162 -1.9451 -4.1314 0.198 0.121 0.973 213 190 152 0 0
-9.0018 -1.9461 -4.1342 0.198 0.121 0.973 213 190 150 0 0
-8.9743 -1.9494 -4.1410 0.388 -0.040 0.921 211 189 147 0 0
-8.9245 -1.9616 -4.1595 0.409 0.227 0.884 205 180 137 0 0
-8.9083 -1.9606 -4.1605 0.115 0.461 0.880 207 181 137 0 0
-8.8930 -1.9606 -4.1625 0.115 0.461 0.880 209 184 141 0 0
-8.8775 -1.9603 -4.1642 0.046 0.407 0.912 209 184 139 0 0
-8.8619 -1.9598 -4.1657 -0.408 0.661 0.629 209 183 137 0 0
-8.8429 -1.9556 -4.1640 0.013 0.524 0.852 211 186 140 0 0
-8.8266 -1.9545 -4.1649 0.013 0.524 0.852 214 190 144 0 0
-8.8168 -1.9606 -4.1722 0.500 0.579 0.644 210 187 141 0 0
-8.8052 -1.9646 -4.1777 0.500 0.579 0.644 211 187 143 0 0
-8.7918 -1.9667 -4.1815 0.488 0.484 0.726 211 188 144 0 0
-8.7872 -1.9787 -4.1940 0.287 0.408 0.867 211 188 144 0 0
-8.7831 -1.9915 -4.2072 -0.168 0.483 0.859 212 188 146 0 0
-8.7698 -1.9938 -4.2111 -0.074 0.521 0.850 212 189 148 0 0
-8.7525 -1.9914 -4.2110 -0.074 0.521 0.850 213 190 147 0 0
-8.7351 -1.9890 -4.2108 -0.252 0.552 0.795 212 189 145 0 0
-8.7162 -1.9847 -4.2090 -0.140 0.557 0.818 210 187 143 0 0
-8.7029 -1.9870 -4.2130 -0.114 0.463 0.879 211 187 143 0 0
-8.6823 -1.9807 -4.2094 0.111 0.515 0.850 211 186 142 0 0
-8.3747 -2.0900 -4.3571 -0.464 0.511 0.723 215 192 150 0 0
-8.3075 -2.0627 -4.3386 -0.177 0.466 0.867 213 190 146 0 0
-8.2892 -2.0587 -4.3370 0.152 0.470 0.870 211 188 143 0 0
-8.2261 -2.0961 -4.3821 0.493 0.026 0.870 216 193 153 0 0
-8.1982 -2.0998 -4.3894 0.050 -0.007 0.999 213 190 148 0 0
-8.1805 -2.0965 -4.3884 -0.043 0.090 0.995 212 189 147 0 0
-8.0805 -2.1060 -4.4106 -0.087 -0.053 0.995 212 188 145 0 0
-8.0460 -2.1005 -4.4096 0.153 -0.128 0.980 214 191 149 0 0
-8.0307 -2.1003 -4.4114 0.104 -0.102 0.989 215 192 150 0 0
-8.0211 -2.1083 -4.4205 0.105 -0.053 0.993 213 189 147 0 0
-7.9967 -2.1168 -4.4321 -0.123 0.301 0.946 212 189 147 0 0
-7.9726 -2.1043 -4.4228 0.072 -0.034 0.997 214 190 149 0 0
-7.9555 -2.1016 -4.4223 0.387 -0.113 0.915 214 191 150 0 0
-7.8679 -2.1290 -4.4607 -0.039 -0.023 0.999 214 189 148 0 0
-7.8511 -2.1266 -4.4605 0.175 -0.092 0.980 213 187 146 0 0
-7.7258 -2.1442 -4.4939 -0.102 0.007 0.995 211 182 141 0 0
-7.7075 -2.1394 -4.4915 0.145 0.049 0.988 211 179 136 0 0
-7.6812 -2.1222 -4.4779 0.656 -0.090 0.749 208 174 131 0 0
-7.6686 -2.1262 -4.4835 0.475 -0.129 0.871 204 166 125 0 0
-7.6571 -2.1319 -4.4906 0.475 -0.129 0.871 205 166 124 0 0
-7.6273 -2.1327 -4.4952 0.039 0.154 0.987 206 164 125 0 0
-7.6116 -2.1318 -4.4963 0.166 0.009 0.986 203 160 121 0 0
-7.5650 -2.1299 -4.5004 -0.009 -0.012 1.000 204 162 123 0 0
-7.5493 -2.1289 -4.5015 0.101 0.083 0.991 203 159 119 0 0
-7.5382 -2.1353 -4.5093 -0.022 0.180 0.983 202 158 119 0 0
-7.5223 -2.1340 -4.5100 -0.030 0.161 0.987 200 156 117 0 0
-7.5066 -2.1330 -4.5110 0.161 0.058 0.985 201 155 116 0 0
-7.4933 -2.1360 -4.5157 0.199 0.082 0.977 201 155 115 0 0
-7.4757 -2.1319 -4.5139 -0.204 0.297 0.933 204 159 124 0 0
-7.4600 -2.1308 -4.5148 -0.016 0.200 0.980 208 164 126 0 0
-7.4458 -2.1323 -4.5181 0.011 0.254 0.967 206 161 122 0 0
-7.4285 -2.1285 -4.5166 0.373 0.236 0.897 201 154 116 0 0
-7.4102 -2.1231 -4.5136 0.198 0.022 0.980 201 152 116 0 0
-7.3961 -2.1246 -4.5169 0.209 0.002 0.978 203 154 119 0 0
-7.1440 -2.1564 -4.5807 -0.062 0.045 0.997 118 63 51 0 0
-7.0642 -2.1472 -4.5818 -0.069 0.167 0.984 120 67 54 0 0
-7.0511 -2.1508 -4.5870 0.005 0.283 0.959 123 70 59 0 0
-7.0339 -2.1464 -4.5849 -0.093 0.448 0.889 123 71 61 0 0
-7.0176 -2.1437 -4.5844 -0.144 0.436 0.888 123 71 62 0 0
-7.0046 -2.1475 -4.5898 0.291 0.112 0.950 120 68 56 0 0
-6.9904 -2.1489 -4.5930 0.245 0.101 0.964 123 68 58 0 0
-6.9771 -2.1519 -4.5977 0.291 0.112 0.950 123 68 58 0 0
-6.9669 -2.1611 -4.6081 -0.049 0.068 0.996 124 68 58 0 0
-6.9468 -2.1511 -4.6008 -0.425 0.228 0.876 122 67 57 0 0
-6.9140 -2.1450 -4.5989 -0.309 0.294 0.905 124 68 62 0 0
-6.8957 -2.1382 -4.5945 -0.349 0.348 0.870 124 70 64 0 0
-6.8742 -2.1248 -4.5841 0.099 0.680 0.727 124 70 66 0 0
-6.8437 -2.1228 -4.5860 -0.401 0.806 0.435 125 69 65 0 0
-6.8236 -2.1121 -4.5780 -0.221 0.440 0.871 126 72 67 0 0
-6.8245 -2.1443 -4.6097 -0.121 0.127 0.985 126 73 69 0 0
-6.8107 -2.1463 -4.6135 -0.094 0.140 0.986 125 74 70 0 0
-6.7627 -2.1389 -4.6124 -0.088 0.049 0.995 126 75 72 0 0
-6.6840 -2.1284 -4.6121 -0.186 0.065 0.980 132 82 82 0 0
-6.6235 -2.1577 -4.6488 0.196 0.036 0.980 127 79 76 0 0
-6.6092 -2.1588 -4.6517 0.334 0.013 0.942 129 80 76 0 0
-6.4231 -2.1366 -4.6536 0.075 0.997 0.024 132 88 79 0 0
-6.4061 -2.1306 -4.6499 0.374 0.925 0.067 138 96 85 0 0
-6.3978 -2.1463 -4.6665 0.604 0.648 0.464 137 98 86 0 0
-6.3850 -2.1508 -4.6726 0.026 0.916 0.400 137 97 85 0 0
-6.3702 -2.1505 -4.6742 0.064 0.954 0.292 136 95 84 0 0
-6.3568 -2.1536 -4.6790 0.427 0.637 0.642 138 96 85 0 0
-6.3426 -2.1547 -4.6819 0.156 0.874 0.459 152 108 94 0 0
-6.3363 -2.1761 -4.7039 0.248 0.176 0.953 153 107 92 0 0
-6.3224 -2.1783 -4.7078 0.296 0.169 0.940 155 109 95 0 0
-6.3077 -2.1781 -4.7095 0.177 0.135 0.975 166 122 106 0 0
-6.2935 -2.1795 -4.7127 0.219 0.078 0.973 166 124 106 0 0
-6.2783 -2.1781 -4.7133 0.102 0.220 0.970 176 133 114 0 0
-6.0476 -2.1888 -4.7535 -0.191 0.130 0.973 164 119 100 0 0
-6.0285 -2.1753 -4.7425 -0.556 0.765 0.325 159 115 94 0 0
-6.0108 -2.1659 -4.7355 -0.262 0.701 0.663 158 114 91 0 0
-5.9923 -2.1541 -4.7262 0.154 0.814 0.560 157 113 88 0 0
-5.8816 -2.1708 -4.7570 0.451 0.186 0.873 136 97 84 0 0
-5.8375 -2.1687 -4.7606 0.360 0.335 0.871 127 86 74 0 0
-5.8239 -2.1716 -4.7652 0.360 0.335 0.871 125 86 71 0 0
-5.8100 -2.1736 -4.7689 0.345 0.309 0.886 122 81 68 0 0
-5.7155 -2.1979 -4.8051 0.298 0.554 0.777 113 74 56 0 0
-5.6711 -2.1947 -4.8076 0.303 0.249 0.920 109 66 50 0 0
-5.6452 -2.2061 -4.8222 -0.419 0.218 0.881 107 59 45 0 0
-5.4003 -2.2093 -4.8569 -0.234 0.364 0.902 104 56 44 0 0
-5.3841 -2.2010 -4.8507 -0.438 0.390 0.810 104 55 43 0 0
-5.3556 -2.2021 -4.8555 0.519 0.237 0.822 100 52 40 0 0
-5.3423 -2.2074 -4.8624 0.517 0.178 0.837 100 51 42 0 0
-5.3270 -2.2027 -4.8597 0.611 0.248 0.751 100 52 42 0 0
-5.3172 -2.2256 -4.8836 0.541 0.009 0.841 101 53 42 0 0
-5.2010 -2.2195 -4.8925 0.468 0.875 0.122 103 52 41 0 0
-5.1869 -2.2208 -4.8956 -0.411 0.737 0.537 101 51 40 0 0
-5.1745 -2.2317 -4.9080 -0.102 0.147 0.984 98 47 36 0 0
-5.1606 -2.2346 -4.9127 -0.610 0.179 0.772 98 45 34 0 0
-5.1446 -2.2251 -4.9053 -0.503 0.105 0.858 98 44 34 0 0
-5.1058 -2.2505 -4.9354 0.460 -0.021 0.888 100 43 36 0 0
-4.9964 -2.1892 -4.8888 0.608 0.787 0.109 105 46 43 0 0
-4.9568 -2.2108 -4.9153 -0.333 0.187 0.924 107 49 45 0 0
-4.9152 -2.2189 -4.9286 0.583 0.086 0.808 107 49 47 0 0
-4.9014 -2.2225 -4.9339 0.435 0.131 0.891 107 49 47 0 0
-4.8877 -2.2268 -4.9400 0.435 0.131 0.891 109 50 50 0 0
-4.8740 -2.2311 -4.9460 0.435 0.131 0.891 109 51 52 0 0
-4.7904 -2.2487 -4.9741 0.401 0.045 0.915 112 58 71 0 0
-4.7345 -2.2602 -4.9926 0.259 -0.094 0.961 114 67 89 0 0
-4.5918 -2.2547 -5.0055 0.172 -0.072 0.982 132 110 156 0 0
-4.5635 -2.2548 -5.0092 0.137 -0.088 0.987 135 113 160 0 0
-4.5496 -2.2589 -5.0151 0.394 -0.147 0.907 130 108 153 0 0
-4.5216 -2.2656 -5.0254 0.220 -0.163 0.962 134 113 156 0 0
-4.4792 -2.2695 -5.0347 0.180 -0.205 0.962 143 128 172 0 0
-4.4509 -2.2710 -5.0398 0.376 -0.192 0.907 142 131 178 0 0
-4.4369 -2.2752 -5.0457 0.265 -0.219 0.939 143 136 184 0 0
-4.4228 -2.2781 -5.0503 0.196 -0.228 0.954 145 141 188 0 0
-4.4088 -2.2808 -5.0549 0.268 -0.233 0.935 147 144 188 0 0
-4.3948 -2.2867 -5.0625 0.310 -0.210 0.927 143 132 174 0 0
-4.3805 -2.2822 -5.0599 0.205 -0.211 0.956 140 125 158 0 0
-4.3380 -2.2829 -5.0660 -0.131 -0.195 0.972 162 134 149 0 0
-4.1262 -2.2867 -5.0970 0.276 0.304 0.912 204 186 174 0 0
-4.0282 -2.2730 -5.0960 -0.363 0.318 0.876 205 184 170 0 0
-4.0142 -2.2730 -5.0977 -0.226 0.154 0.962 207 188 174 0 0
-4.0002 -2.2735 -5.1001 -0.049 0.224 0.973 208 189 175 0 0
-3.9725 -2.2663 -5.0965 0.198 0.232 0.952 203 184 170 0 0
-3.9585 -2.2683 -5.1002 -0.041 0.190 0.981 201 182 168 0 0
-3.9446 -2.2661 -5.0999 0.092 0.204 0.975 199 180 165 0 0
-3.9308 -2.2636 -5.0992 -0.146 0.141 0.979 206 190 181 0 0
-3.9029 -2.2647 -5.1039 0.225 0.141 0.964 202 185 175 0 0
-3.8887 -2.2681 -5.1091 0.333 0.181 0.926 205 189 180 0 0
-9.6633 -1.8963 -3.9800 0.007 -0.087 0.996 208 185 144 0 0
-9.6529 -1.9011 -3.9860 -0.242 0.053 0.969 207 185 143 0 0
-9.5834 -1.8500 -3.9446 -0.158 -0.033 0.987 208 185 143 0 0
-9.3453 -1.9003 -4.0248 0.380 -0.243 0.892 207 183 139 0 0
-9.3345 -1.9047 -4.0306 0.524 -0.217 0.823 207 181 138 0 0
-9.3245 -1.9100 -4.0371 0.456 -0.068 0.887 205 178 136 0 0
-9.3137 -1.9146 -4.0430 0.456 -0.068 0.887 212 188 146 0 0
-9.2854 -1.9014 -4.0336 0.254 -0.045 0.966 214 192 151 0 0
-9.3086 -1.9404 -4.0690 -0.226 0.928 0.297 212 190 149 0 0
-9.2894 -1.9365 -4.0677 -0.335 0.931 0.148 212 188 147 0 0
-9.2525 -1.9145 -4.0508 -0.547 0.520 0.656 208 184 141 0 0
