ply
format ascii 1.0
element vertex 830
property float x
property float y
property float z
property float nx
property float ny
property float nz
property uchar diffuse_red
property uchar diffuse_green
property uchar diffuse_blue
property uchar class
property uchar detection
end_header
-1.7835 1.4724 0.1015 0.550 -0.202 0.810 192 174 160 0 0
-1.7743 1.4734 0.1021 0.378 -0.238 0.894 189 170 157 0 0
-1.7907 1.5000 0.1089 0.603 -0.315 0.733 183 164 149 0 0
-1.7826 1.5261 0.1164 0.830 0.304 0.468 191 173 159 0 0
-1.7753 1.5277 0.1172 0.538 -0.817 0.210 189 172 156 0 0
-1.7091 1.7892 0.1919 0.378 -0.672 0.637 186 167 152 0 0
-1.7027 1.8108 0.1981 0.706 -0.198 0.680 181 162 147 0 0
-1.6999 1.8143 0.1991 0.827 0.143 0.544 183 165 150 0 0
-1.7013 1.8202 0.2007 0.685 0.188 0.704 182 164 149 0 0
-1.6781 1.9185 0.2288 0.563 -0.822 0.081 178 160 146 0 0
-2.0121 0.0059 -0.3174 0.310 -0.509 0.803 187 169 146 0 0
-2.0113 0.0101 -0.3162 0.328 -0.706 0.628 189 171 149 0 0
-1.9928 0.0576 -0.3024 0.297 -0.678 0.672 202 185 165 0 0
-1.9609 0.1149 -0.2854 0.244 -0.292 0.925 183 164 142 0 0
-1.9463 0.1611 -0.2721 0.396 -0.861 0.320 188 171 149 0 0
-1.9673 0.1908 -0.2646 0.306 -0.927 0.216 185 167 147 0 0
-1.9541 0.1964 -0.2626 0.296 -0.778 0.555 183 165 145 0 0
-1.9507 0.2212 -0.2556 0.536 -0.131 0.834 185 167 145 0 0
-1.9621 0.2241 -0.2552 0.877 -0.079 0.473 186 168 147 0 0
-1.9573 0.2287 -0.2538 0.690 -0.260 0.676 188 171 149 0 0
-1.9524 0.2415 -0.2501 0.738 -0.463 0.491 188 170 149 0 0
-1.9397 0.2591 -0.2447 0.625 -0.391 0.676 173 152 132 0 0
-1.9384 0.2633 -0.2435 0.529 -0.454 0.717 174 153 134 0 0
-1.9364 0.2758 -0.2400 0.599 -0.373 0.709 177 156 136 0 0
-1.9167 0.4052 -0.2035 0.218 -0.291 0.931 196 180 159 0 0
-1.9008 0.4516 -0.1901 0.183 -0.403 0.897 190 169 148 0 0
-1.8375 0.6397 -0.1358 0.304 -0.653 0.693 193 174 150 0 0
-1.8321 0.6520 -0.1322 0.388 0.413 0.824 197 178 156 0 0
-0.8293 0.6810 -0.0894 0.891 -0.428 0.149 170 137 54 0 0
-0.8284 0.6834 -0.0887 0.949 -0.248 -0.197 170 135 54 0 0
-0.8586 0.7240 -0.0785 0.751 0.240 0.615 218 201 99 0 0
-0.8452 0.7244 -0.0779 0.940 -0.011 0.340 215 196 96 0 0
-0.8245 0.7518 -0.0696 0.567 -0.505 0.650 199 184 101 0 0
-0.8261 0.7547 -0.0689 0.417 -0.541 0.731 199 186 104 0 0
-0.7277 0.8216 -0.0469 0.648 -0.306 0.698 251 239 111 0 0
-1.7745 1.2224 0.0278 0.502 -0.024 0.865 198 181 161 0 0
-1.7702 1.2630 0.0392 0.637 -0.196 0.746 198 181 165 0 0
-1.7698 1.3335 0.0587 0.748 0.177 0.639 195 177 162 0 0
-1.7952 1.4298 0.0845 0.752 0.223 0.620 195 179 164 0 0
-1.7915 1.4331 0.0856 0.865 0.107 0.491 198 182 167 0 0
-1.7933 1.4388 0.0871 0.841 -0.054 0.539 199 183 168 0 0
-1.7876 1.4413 0.0880 0.488 -0.157 0.858 198 182 167 0 0
-1.7968 1.4499 0.0900 0.324 -0.709 0.626 199 183 169 0 0
-1.7930 1.4533 0.0911 0.313 -0.724 0.615 199 183 168 0 0
-1.7812 1.4631 0.0942 0.488 -0.113 0.866 202 186 173 0 0
-1.7023 1.8021 0.1909 0.267 -0.636 0.724 182 163 148 0 0
-1.6997 1.8057 0.1919 0.263 -0.549 0.794 181 162 147 0 0
-1.6971 1.8092 0.1930 0.442 -0.479 0.758 183 164 149 0 0
-1.6955 1.8133 0.1942 0.671 -0.124 0.731 187 170 154 0 0
-1.6929 1.8169 0.1953 0.547 0.017 0.837 191 173 159 0 0
-1.9993 0.0051 -0.3217 0.313 -0.494 0.811 189 171 148 0 0
-1.9985 0.0093 -0.3205 0.310 -0.509 0.803 191 174 153 0 0
-1.9982 0.0133 -0.3194 0.328 -0.706 0.628 193 176 155 0 0
-1.9757 0.0653 -0.3042 0.377 -0.810 0.449 192 173 153 0 0
-1.9658 0.0709 -0.3023 0.377 -0.810 0.449 193 177 155 0 0
-1.9474 0.1217 -0.2876 0.298 -0.333 0.895 187 169 147 0 0
-1.9599 0.1520 -0.2796 0.420 -0.716 0.558 185 167 146 0 0
-1.9334 0.2687 -0.2464 0.485 -0.458 0.745 183 163 144 0 0
-1.9299 0.2977 -0.2383 0.651 -0.282 0.705 180 162 142 0 0
-1.9330 0.3016 -0.2373 0.842 -0.326 0.430 183 164 145 0 0
-1.9178 0.3150 -0.2330 0.784 0.487 0.385 193 175 156 0 0
-1.9090 0.3939 -0.2109 0.294 -0.630 0.719 192 173 152 0 0
-1.9098 0.3980 -0.2098 0.248 -0.818 0.519 192 174 153 0 0
-1.9028 0.4066 -0.2072 0.279 -0.285 0.917 193 175 155 0 0
-1.8996 0.4109 -0.2059 0.292 -0.313 0.904 193 176 155 0 0
-1.9001 0.4150 -0.2047 0.335 -0.215 0.917 195 178 157 0 0
-1.8994 0.4192 -0.2036 0.336 -0.083 0.938 196 180 158 0 0
-1.9011 0.4233 -0.2025 0.297 -0.146 0.944 196 180 158 0 0
-1.9016 0.4274 -0.2014 0.337 -0.251 0.907 195 178 158 0 0
-1.9012 0.4358 -0.1990 0.327 -0.241 0.914 191 170 151 0 0
-1.9014 0.4399 -0.1979 0.272 -0.407 0.872 190 169 148 0 0
-0.8623 0.6449 -0.1032 0.262 -0.293 0.920 174 142 65 0 0
-0.7886 0.6811 -0.0905 0.812 -0.578 -0.084 170 137 55 0 0
-0.8506 0.7181 -0.0826 0.378 0.335 0.863 207 185 81 0 0
-0.8445 0.7249 -0.0805 0.961 0.002 0.275 207 188 88 0 0
-0.8334 0.7672 -0.0684 0.424 -0.001 0.906 205 194 115 0 0
-0.7277 0.8148 -0.0513 0.381 -0.302 0.874 251 247 182 0 0
-0.7277 0.8173 -0.0506 0.437 -0.331 0.836 255 254 243 0 0
-0.7160 0.8242 -0.0483 0.752 0.595 -0.284 218 183 80 0 0
-1.7670 1.2680 0.0360 0.585 0.236 0.776 194 177 160 0 0
-1.7957 1.3013 0.0441 0.557 0.215 0.802 192 173 155 0 0
-1.7591 1.3169 0.0498 0.361 -0.177 0.916 196 180 163 0 0
-1.7601 1.3220 0.0512 0.361 -0.177 0.916 195 178 161 0 0
-1.7584 1.3261 0.0524 0.345 -0.259 0.902 195 178 162 0 0
-1.7550 1.3295 0.0534 0.432 -0.165 0.887 195 179 163 0 0
-1.7495 1.3796 0.0675 0.248 -0.160 0.955 194 177 163 0 0
-1.7406 1.3809 0.0682 0.246 -0.083 0.966 195 179 164 0 0
-1.7748 1.4376 0.0826 0.272 -0.337 0.901 196 180 165 0 0
-1.7469 1.5328 0.1099 0.277 -0.632 0.724 188 171 156 0 0
-1.9047 -0.0858 -0.3477 0.758 -0.387 -0.525 174 154 131 0 0
-1.9898 0.0077 -0.3252 0.201 -0.274 0.940 191 173 152 0 0
-1.9852 0.0165 -0.3225 0.328 -0.706 0.628 195 178 158 0 0
-1.9809 0.0492 -0.3134 0.242 -0.330 0.913 174 152 130 0 0
-1.9570 0.0732 -0.3058 0.410 -0.844 0.346 190 173 151 0 0
-1.9330 0.1246 -0.2907 0.307 -0.280 0.909 191 173 152 0 0
-1.9519 0.1418 -0.2867 0.444 -0.400 0.802 200 184 166 0 0
-1.9520 0.1539 -0.2834 0.414 -0.759 0.502 185 167 147 0 0
-1.9098 0.2637 -0.2514 0.702 -0.240 0.671 183 164 145 0 0
-1.9238 0.2705 -0.2501 0.412 -0.530 0.741 193 177 158 0 0
-1.9043 0.3909 -0.2161 0.572 0.089 0.815 183 162 141 0 0
-1.9078 0.3949 -0.2151 0.232 -0.685 0.691 183 162 140 0 0
-1.9044 0.3991 -0.2138 0.205 -0.782 0.588 185 164 142 0 0
-1.8909 0.4286 -0.2052 0.242 -0.212 0.947 193 175 155 0 0
-1.8819 0.4330 -0.2036 0.233 -0.448 0.863 191 170 149 0 0
-1.8794 0.4372 -0.2024 0.230 -0.473 0.851 190 169 148 0 0
-0.8273 0.6795 -0.0950 0.108 -0.963 0.246 165 133 50 0 0
-0.8297 0.7129 -0.0859 0.578 -0.815 -0.027 200 176 77 0 0
-0.8439 0.7255 -0.0830 0.956 0.091 0.278 202 179 78 0 0
-0.8449 0.7283 -0.0823 0.848 0.112 0.517 201 178 77 0 0
-0.8531 0.7322 -0.0815 0.804 -0.362 -0.472 199 177 77 0 0
-0.7805 0.7878 -0.0633 0.446 -0.279 -0.850 205 193 110 0 0
-0.7234 0.8144 -0.0538 0.412 -0.320 0.853 253 251 197 0 0
-0.7233 0.8169 -0.0531 0.437 -0.331 0.836 254 254 248 0 0
-0.7228 0.8192 -0.0525 0.437 -0.331 0.836 253 251 229 0 0
-0.7210 0.8212 -0.0518 0.535 -0.303 0.789 244 226 129 0 0
-0.7249 0.8371 -0.0476 0.977 0.196 -0.081 215 193 102 0 0
-1.7779 1.1705 0.0040 0.586 -0.200 0.785 195 179 154 0 0
-1.7708 1.2332 0.0215 0.448 0.171 0.877 200 185 167 0 0
-1.7603 1.2671 0.0313 0.376 -0.045 0.926 192 174 158 0 0
-1.7663 1.2738 0.0329 0.572 0.505 0.646 196 179 163 0 0
-1.7476 1.3282 0.0487 0.293 -0.401 0.868 194 178 163 0 0
-1.7150 1.4718 0.0895 0.282 -0.053 0.958 197 181 166 0 0
-1.7153 1.5929 0.1230 0.842 -0.535 -0.068 183 166 150 0 0
-1.9602 -0.1403 -0.3693 0.199 -0.356 0.913 173 152 128 0 0
-1.9618 -0.1369 -0.3684 0.626 0.071 0.777 181 161 137 0 0
-1.9628 -0.1334 -0.3675 0.323 -0.683 0.655 188 168 145 0 0
-1.9048 -0.0889 -0.3529 0.797 0.038 0.603 181 162 138 0 0
-1.8958 -0.0493 -0.3416 0.716 -0.651 0.251 168 148 125 0 0
-1.8961 -0.0455 -0.3406 0.860 0.090 0.503 168 146 123 0 0
-1.9717 0.0120 -0.3278 0.201 -0.274 0.940 190 172 151 0 0
-1.9719 0.0198 -0.3256 0.448 -0.795 0.408 193 177 154 0 0
-1.9555 0.0269 -0.3230 0.861 -0.052 0.506 198 183 163 0 0
-1.9474 0.0756 -0.3093 0.481 -0.858 0.181 192 175 154 0 0
-1.9386 0.0810 -0.3074 0.404 -0.754 0.519 191 173 152 0 0
-1.9435 0.1438 -0.2903 0.444 -0.400 0.802 190 173 151 0 0
-1.9115 0.2080 -0.2713 0.436 -0.734 0.521 190 173 153 0 0
-1.9056 0.2609 -0.2565 0.824 0.126 0.553 192 175 156 0 0
-1.9055 0.2649 -0.2554 0.751 -0.118 0.649 196 179 161 0 0
-1.9039 0.2691 -0.2542 0.759 -0.439 0.480 196 180 164 0 0
-1.9133 0.2723 -0.2537 0.675 -0.675 0.299 198 182 166 0 0
-1.8576 0.4634 -0.1988 0.365 0.244 0.898 191 170 150 0 0
-0.8825 0.6302 -0.1135 0.224 -0.974 -0.031 187 155 96 0 0
-0.8686 0.6315 -0.1126 0.367 -0.893 -0.261 190 159 93 0 0
-0.8224 0.6770 -0.0982 0.247 -0.955 0.163 140 113 36 0 0
-0.8548 0.7306 -0.0847 0.981 -0.192 0.024 188 163 72 0 0
-0.8557 0.7334 -0.0840 0.745 -0.160 -0.648 190 163 78 0 0
-0.8280 0.7701 -0.0728 0.890 0.410 -0.198 200 191 111 0 0
-0.7191 0.8165 -0.0556 0.348 -0.299 0.889 246 230 165 0 0
-0.7192 0.8288 -0.0522 0.929 0.318 0.187 214 192 99 0 0
-0.7224 0.8396 -0.0493 0.857 0.459 0.234 211 191 108 0 0
-1.7578 1.1614 -0.0024 0.428 0.296 0.854 201 185 164 0 0
-1.7586 1.2307 0.0166 0.373 0.095 0.923 202 187 169 0 0
-1.7557 1.2762 0.0293 0.452 0.416 0.789 203 187 171 0 0
-1.7781 1.2933 0.0331 0.615 0.135 0.777 202 186 170 0 0
-1.7689 1.2948 0.0339 0.472 -0.207 0.857 201 185 170 0 0
-1.7375 1.3072 0.0386 0.852 -0.341 0.397 198 181 166 0 0
-1.7389 1.3171 0.0413 0.887 -0.064 0.458 195 178 159 0 0
-1.7230 1.4719 0.0846 0.642 -0.212 0.737 197 180 168 0 0
-1.7169 1.4836 0.0880 0.997 0.037 0.061 196 180 165 0 0
-1.6885 1.6202 0.1268 0.332 -0.628 0.704 188 170 157 0 0
-1.8946 -0.0483 -0.3456 0.628 -0.680 0.380 168 147 123 0 0
-1.9400 0.0697 -0.3151 0.306 -0.571 0.761 188 168 147 0 0
-1.9463 0.0765 -0.3135 0.480 -0.871 -0.108 190 172 151 0 0
-1.9371 0.0820 -0.3115 0.527 -0.840 -0.126 191 172 150 0 0
-1.9362 0.0861 -0.3104 0.712 -0.702 -0.020 189 170 148 0 0
-1.9049 0.2618 -0.2607 0.966 -0.239 0.099 203 188 172 0 0
-1.9051 0.2658 -0.2596 0.954 0.060 -0.295 206 191 175 0 0
-1.9032 0.2740 -0.2573 0.666 -0.721 0.192 200 185 169 0 0
-1.9011 0.2823 -0.2549 0.664 0.246 0.706 202 188 171 0 0
-0.9177 0.6315 -0.1174 0.022 -0.907 0.420 187 155 102 0 0
-0.8803 0.6307 -0.1160 0.223 -0.913 -0.342 173 141 83 0 0
-0.8691 0.6322 -0.1151 0.354 -0.884 -0.305 151 120 59 0 0
-0.8179 0.6770 -0.1006 0.246 -0.925 0.289 153 124 50 0 0
-0.8280 0.7012 -0.0944 0.931 0.212 0.297 180 148 66 0 0
-0.8369 0.7076 -0.0930 0.957 -0.038 0.287 186 159 72 0 0
-0.8363 0.7101 -0.0923 0.900 -0.367 -0.236 188 160 74 0 0
-0.8576 0.7423 -0.0844 0.747 -0.311 -0.588 178 157 81 0 0
-0.8269 0.7706 -0.0753 0.817 0.469 0.334 200 192 114 0 0
-0.8360 0.7750 -0.0744 0.529 0.704 0.474 201 191 112 0 0
-0.7805 0.7892 -0.0682 0.548 -0.799 -0.247 207 199 118 0 0
-0.7718 0.7923 -0.0670 0.736 0.662 -0.141 206 193 105 0 0
-0.7133 0.8108 -0.0594 0.481 -0.244 0.842 211 175 80 0 0
-0.7129 0.8131 -0.0588 0.395 -0.412 0.821 217 175 93 0 0
-0.7123 0.8228 -0.0561 0.690 0.228 0.686 204 164 90 0 0
-0.7137 0.8256 -0.0554 0.739 0.201 0.643 200 172 94 0 0
-0.7211 0.8325 -0.0538 0.776 0.053 0.629 203 183 102 0 0
-0.7219 0.8352 -0.0531 0.740 -0.078 0.668 204 185 105 0 0
-1.7488 1.2939 0.0298 0.264 -0.525 0.809 200 184 168 0 0
-1.7353 1.3078 0.0342 0.852 -0.341 0.397 199 183 167 0 0
-1.7262 1.3232 0.0388 0.586 -0.029 0.810 191 173 157 0 0
-1.7294 1.4906 0.0847 0.925 0.309 -0.221 196 179 165 0 0
-1.7006 1.5985 0.1156 0.441 -0.746 0.499 189 171 158 0 0
-1.6956 1.6058 0.1178 0.615 -0.654 0.440 191 173 160 0 0
-1.6952 1.6105 0.1192 0.496 -0.440 0.749 189 171 158 0 0
-1.7317 1.7695 0.1614 0.424 -0.656 0.624 187 170 155 0 0
-1.9031 -0.0946 -0.3630 0.271 -0.709 0.651 185 167 144 0 0
-1.9442 -0.0240 -0.3455 0.135 -0.291 0.947 196 180 156 0 0
-1.9347 0.0479 -0.3253 0.284 -0.444 0.850 188 167 146 0 0
-1.9315 0.0524 -0.3239 0.338 -0.615 0.713 188 167 145 0 0
-1.9344 0.0557 -0.3231 0.253 -0.234 0.939 188 168 146 0 0
-1.9341 0.0597 -0.3220 0.324 -0.312 0.893 187 168 146 0 0
-1.9113 0.1460 -0.2973 0.280 -0.288 0.916 183 163 139 0 0
-1.9117 0.1499 -0.2963 0.291 -0.336 0.896 186 166 144 0 0
-1.8986 0.2632 -0.2646 0.654 -0.743 -0.139 205 190 174 0 0
-1.8931 0.2678 -0.2631 0.654 -0.743 -0.139 207 194 179 0 0
-1.8990 0.2753 -0.2613 0.615 -0.557 0.558 203 188 171 0 0
-1.8362 0.4532 -0.2096 0.601 0.541 0.588 187 166 146 0 0
-1.8372 0.4573 -0.2086 0.616 0.613 0.494 185 165 142 0 0
-1.8416 0.4613 -0.2076 0.580 0.452 0.678 186 165 145 0 0
-1.8480 0.4694 -0.2057 0.875 0.103 0.472 192 171 151 0 0
-0.7914 0.6569 -0.1076 0.431 -0.400 0.809 197 169 70 0 0
-0.8133 0.6770 -0.1031 0.216 -0.847 0.486 161 131 56 0 0
-0.8368 0.7160 -0.0934 0.909 -0.417 0.015 183 156 70 0 0
-0.8354 0.7183 -0.0927 0.847 -0.531 -0.040 182 156 70 0 0
-0.8339 0.7207 -0.0920 0.847 -0.531 -0.040 178 152 67 0 0
-0.8466 0.7280 -0.0906 0.685 0.582 0.439 147 121 54 0 0
-0.8613 0.7383 -0.0884 0.948 -0.167 0.272 149 124 56 0 0
-0.8610 0.7409 -0.0876 0.948 -0.167 0.272 160 137 65 0 0
-0.8283 0.7533 -0.0828 0.976 -0.117 0.185 184 167 89 0 0
-0.8262 0.7633 -0.0799 0.924 -0.382 0.011 193 180 100 0 0
-0.8239 0.7655 -0.0793 0.810 -0.587 -0.008 199 190 110 0 0
-0.7093 0.8080 -0.0625 0.481 -0.244 0.842 188 140 61 0 0
-0.7092 0.8104 -0.0619 0.481 -0.244 0.842 193 141 70 0 0
-0.7095 0.8129 -0.0612 0.623 -0.332 0.708 185 126 66 0 0
-0.7188 0.8326 -0.0562 0.835 0.139 0.532 192 169 96 0 0
-0.7196 0.8353 -0.0555 0.778 0.038 0.627 197 178 103 0 0
-1.7251 1.2547 0.0154 0.752 -0.220 0.621 195 177 160 0 0
-1.7182 1.3170 0.0328 0.650 -0.129 0.749 188 170 154 0 0
-1.7256 1.3290 0.0358 0.191 -0.668 0.719 188 171 154 0 0
-1.6968 1.3647 0.0469 0.491 -0.221 0.842 202 189 174 0 0
-1.6927 1.6059 0.1133 0.429 -0.852 0.299 188 170 157 0 0
-1.6288 1.8870 0.1933 0.510 0.134 0.849 176 157 143 0 0
-1.6336 1.8951 0.1953 0.461 0.051 0.886 177 158 143 0 0
-1.6338 1.9003 0.1967 0.208 -0.314 0.926 179 161 146 0 0
-1.9623 -0.0543 -0.3590 0.538 -0.195 0.820 177 156 132 0 0
-1.9466 -0.0277 -0.3510 0.315 -0.850 0.422 195 177 157 0 0
-1.9525 -0.0017 -0.3442 0.250 -0.527 0.813 189 171 150 0 0
-1.9363 0.0093 -0.3404 0.232 -0.659 0.716 183 165 142 0 0
-1.9358 0.0172 -0.3382 0.254 -0.257 0.933 187 167 145 0 0
-1.9302 0.0260 -0.3355 0.251 -0.140 0.958 186 167 144 0 0
-1.9200 0.0357 -0.3324 0.206 -0.133 0.969 183 163 140 0 0
-1.9227 0.0820 -0.3198 0.290 -0.575 0.765 188 168 147 0 0
-1.8406 0.4377 -0.2185 0.479 -0.738 0.475 186 165 143 0 0
-1.8309 0.4461 -0.2158 0.357 -0.788 0.502 188 167 145 0 0
-1.8248 0.4503 -0.2144 0.387 -0.728 0.565 188 167 146 0 0
-1.7857 0.5154 -0.1947 0.320 -0.910 0.264 188 167 146 0 0
-0.7840 0.6542 -0.1106 0.319 -0.496 0.807 195 166 67 0 0
-0.8370 0.7141 -0.0966 0.797 0.187 0.575 179 153 68 0 0
-0.8352 0.7164 -0.0959 0.946 0.229 0.230 180 153 69 0 0
-0.8360 0.7191 -0.0952 0.925 0.175 0.338 175 148 64 0 0
-0.8595 0.7413 -0.0902 0.748 -0.443 0.494 157 134 63 0 0
-0.8629 0.7446 -0.0895 0.763 0.311 0.567 172 150 76 0 0
-0.8604 0.7468 -0.0888 0.963 0.240 0.127 177 155 80 0 0
-0.8617 0.7523 -0.0873 0.841 -0.529 0.114 176 157 82 0 0
-0.8253 0.7534 -0.0853 0.918 0.104 -0.383 181 163 85 0 0
-0.8261 0.7562 -0.0846 0.999 0.001 0.051 183 166 88 0 0
-0.8261 0.7588 -0.0839 0.989 -0.067 0.131 186 170 91 0 0
-0.8273 0.7616 -0.0832 0.737 -0.665 -0.120 189 173 96 0 0
-0.8252 0.7638 -0.0825 0.737 -0.665 -0.120 192 178 98 0 0
-0.7903 0.8004 -0.0708 0.155 -0.814 -0.560 191 175 87 0 0
-0.6950 0.8148 -0.0625 0.652 -0.346 0.675 175 118 63 0 0
-0.6797 0.8228 -0.0596 0.958 0.222 0.179 182 155 83 0 0
-0.7201 0.8461 -0.0551 0.622 -0.223 0.751 194 176 98 0 0
-1.7216 1.2548 0.0110 0.850 -0.053 0.523 197 179 163 0 0
-1.7222 1.2873 0.0198 0.369 -0.666 0.648 200 184 168 0 0
-1.7195 1.2956 0.0222 0.701 -0.275 0.658 203 187 171 0 0
-1.7284 1.3034 0.0240 0.584 -0.494 0.644 201 187 170 0 0
-1.6894 1.3633 0.0422 0.491 -0.221 0.842 203 188 175 0 0
-1.6925 1.3738 0.0449 0.352 -0.640 0.683 196 179 164 0 0
-1.6857 1.3850 0.0483 0.367 -0.505 0.781 199 182 167 0 0
-1.7064 1.4595 0.0678 0.320 -0.903 -0.287 191 173 158 0 0
-1.7002 1.4902 0.0765 0.973 -0.222 0.068 197 181 166 0 0
-1.7105 1.4996 0.0786 0.680 -0.731 -0.046 195 179 164 0 0
-1.7086 1.5036 0.0798 0.507 -0.826 0.245 193 175 162 0 0
-1.7265 1.6740 0.1257 0.579 -0.205 0.789 183 165 151 0 0
-1.6819 1.8867 0.1860 0.570 0.000 0.822 186 168 154 0 0
-1.9291 -0.0233 -0.3534 0.283 -0.776 0.564 193 175 154 0 0
-1.9224 0.0128 -0.3432 0.265 -0.625 0.734 182 161 140 0 0
-1.9148 0.0181 -0.3414 0.265 -0.625 0.734 181 161 137 0 0
-1.9219 0.0206 -0.3411 0.254 -0.257 0.933 180 159 135 0 0
-1.9155 0.0257 -0.3394 0.242 -0.131 0.961 180 158 135 0 0
-1.9184 0.0290 -0.3386 0.318 0.010 0.948 181 160 138 0 0
-1.8997 0.0364 -0.3357 0.171 -0.278 0.945 182 160 138 0 0
-1.8989 0.0558 -0.3303 0.294 -0.546 0.785 179 159 136 0 0
-1.8925 0.0608 -0.3286 0.241 -0.623 0.744 178 158 134 0 0
-1.8861 0.0774 -0.3238 0.201 -0.061 0.978 185 166 142 0 0
-1.8930 0.0917 -0.3202 0.278 -0.590 0.758 188 167 145 0 0
-1.8769 0.1059 -0.3156 0.381 -0.399 0.834 187 168 146 0 0
-1.8735 0.1725 -0.2972 0.966 -0.009 0.257 193 176 157 0 0
-1.8803 0.1794 -0.2956 0.622 -0.429 0.656 190 173 152 0 0
-1.8811 0.1872 -0.2935 0.342 -0.232 0.911 177 157 135 0 0
-1.9025 0.2363 -0.2811 0.452 -0.757 0.472 182 161 140 0 0
-1.8964 0.2410 -0.2795 0.452 -0.826 0.337 181 160 140 0 0
-1.8197 0.4472 -0.2194 0.553 -0.769 0.322 186 165 144 0 0
-1.8171 0.4513 -0.2181 0.514 -0.673 0.533 186 165 144 0 0
-0.7839 0.6548 -0.1130 0.465 -0.273 0.842 193 165 63 0 0
-0.7844 0.6573 -0.1124 0.568 -0.257 0.782 197 170 63 0 0
-0.7621 0.6908 -0.1021 0.338 -0.801 0.493 169 140 63 0 0
-0.7761 0.6953 -0.1016 0.764 -0.642 0.071 170 141 65 0 0
-0.8338 0.7117 -0.0998 0.976 -0.152 -0.155 179 150 71 0 0
-0.8597 0.7473 -0.0913 0.831 -0.493 0.256 172 149 78 0 0
-0.8564 0.7494 -0.0906 0.706 -0.592 0.388 174 152 78 0 0
-0.8343 0.7506 -0.0892 0.852 -0.509 0.123 175 155 80 0 0
-0.8267 0.7518 -0.0885 0.836 0.036 -0.548 176 157 80 0 0
-0.8287 0.7626 -0.0857 0.662 -0.702 -0.261 186 171 93 0 0
-0.8247 0.7644 -0.0850 0.596 -0.755 -0.274 190 175 97 0 0
-0.6833 0.8124 -0.0651 0.844 -0.294 0.449 171 121 68 0 0
-0.6798 0.8211 -0.0625 0.985 0.145 0.092 162 131 64 0 0
-0.6840 0.8295 -0.0604 0.666 0.638 0.386 198 181 100 0 0
-0.7173 0.8460 -0.0575 0.566 -0.255 0.784 201 183 105 0 0
-1.7306 1.3102 0.0211 0.846 0.213 0.488 203 188 171 0 0
-1.6845 1.3720 0.0402 0.259 -0.760 0.595 194 177 161 0 0
-1.6778 1.3833 0.0436 0.388 -0.543 0.745 198 182 168 0 0
-1.7310 1.5541 0.0878 0.329 -0.102 0.939 192 174 160 0 0
-1.7200 1.6573 0.1166 0.631 -0.310 0.711 183 165 151 0 0
-1.6833 1.9202 0.1903 0.163 -0.615 0.771 183 167 152 0 0
-1.9084 0.0162 -0.3460 0.456 -0.679 0.575 182 161 139 0 0
-1.9009 0.0254 -0.3431 0.244 -0.482 0.841 173 151 129 0 0
-1.9002 0.0293 -0.3420 0.208 -0.210 0.955 173 152 129 0 0
-1.8838 0.0593 -0.3330 0.787 -0.597 0.157 180 159 136 0 0
-1.8899 0.0929 -0.3241 0.346 -0.334 0.877 185 165 143 0 0
-1.8872 0.1011 -0.3218 0.648 -0.501 0.574 185 164 142 0 0
-1.8753 0.1069 -0.3196 0.769 -0.639 -0.034 186 165 144 0 0
-1.8612 0.1130 -0.3172 0.555 -0.821 -0.135 186 165 143 0 0
-1.8664 0.1742 -0.3007 0.938 0.201 0.282 199 185 166 0 0
-1.8734 0.1811 -0.2992 0.905 -0.302 -0.299 200 185 166 0 0
-1.8890 0.2346 -0.2854 0.751 0.122 0.649 187 169 147 0 0
-1.8960 0.2378 -0.2848 0.452 -0.757 0.472 186 168 146 0 0
-1.8954 0.2419 -0.2837 0.311 -0.833 0.457 185 165 143 0 0
-1.8120 0.4483 -0.2231 0.858 -0.511 0.050 184 163 142 0 0
-1.8097 0.4524 -0.2219 0.858 -0.511 0.050 186 166 145 0 0
-1.8185 0.4563 -0.2213 0.595 -0.080 0.800 184 163 141 0 0
-0.9107 0.6335 -0.1277 0.391 -0.920 0.015 189 157 102 0 0
-0.8023 0.6453 -0.1191 0.875 -0.393 0.284 165 132 51 0 0
-0.7985 0.6473 -0.1184 0.522 -0.845 -0.114 169 137 55 0 0
-0.8055 0.6779 -0.1104 0.107 -0.809 0.578 150 120 47 0 0
-0.7799 0.6965 -0.1040 0.840 -0.493 -0.228 168 138 64 0 0
-0.8338 0.7124 -0.1023 0.962 -0.243 -0.125 173 144 68 0 0
-0.8567 0.7501 -0.0932 0.585 -0.406 0.702 169 147 73 0 0
-0.8352 0.7488 -0.0925 0.764 -0.541 0.352 169 147 73 0 0
-0.8282 0.7553 -0.0903 0.993 0.094 -0.069 175 154 78 0 0
-0.8295 0.7608 -0.0889 0.941 -0.326 -0.088 180 160 81 0 0
-0.7797 0.8045 -0.0745 0.172 -0.963 -0.207 246 243 196 0 0
-0.6829 0.8130 -0.0674 0.829 -0.491 -0.267 164 118 64 0 0
-0.6815 0.8222 -0.0648 0.908 0.420 0.009 156 127 70 0 0
-0.7135 0.8506 -0.0586 0.657 0.673 0.339 205 189 133 0 0
-1.7047 1.2518 0.0017 0.511 0.080 0.856 197 180 164 0 0
-1.7161 1.3017 0.0148 0.424 -0.430 0.797 205 190 177 0 0
-1.6599 1.4941 0.0702 0.788 -0.604 0.121 189 171 157 0 0
-1.6580 1.5074 0.0739 0.666 0.178 0.725 190 172 159 0 0
-1.6531 1.5525 0.0865 0.675 0.154 0.721 191 173 160 0 0
-1.6562 1.5588 0.0880 0.675 0.154 0.721 191 174 162 0 0
-1.6723 1.5762 0.0920 0.804 0.367 0.467 187 170 154 0 0
-1.6754 1.5825 0.0936 0.885 0.318 0.341 185 168 152 0 0
-1.6593 1.5794 0.0935 0.660 -0.186 0.728 184 167 151 0 0
-1.6525 1.5809 0.0943 0.486 0.009 0.874 183 166 151 0 0
-1.6774 1.9233 0.1866 0.409 0.103 0.907 189 171 157 0 0
-1.8893 -0.0059 -0.3555 0.254 -0.206 0.945 192 174 151 0 0
-1.9018 0.0183 -0.3495 0.520 -0.709 0.476 182 161 139 0 0
-1.8832 0.0295 -0.3455 0.289 -0.711 0.641 176 154 132 0 0
-1.8846 0.0330 -0.3446 0.208 -0.210 0.955 174 152 129 0 0
-1.8585 0.0836 -0.3294 0.648 -0.272 0.712 182 161 139 0 0
-1.8794 0.0954 -0.3273 0.339 -0.253 0.906 179 158 136 0 0
-1.8751 0.1000 -0.3258 0.382 -0.162 0.910 178 158 135 0 0
-1.8777 0.1034 -0.3250 0.380 0.024 0.925 178 157 133 0 0
-1.8611 0.1138 -0.3213 0.555 -0.821 -0.135 179 158 136 0 0
-1.8665 0.1906 -0.3007 0.536 -0.782 0.319 196 181 161 0 0
-1.8606 0.1953 -0.2991 0.536 -0.782 0.319 198 181 163 0 0
-1.8747 0.2251 -0.2917 0.915 0.046 0.402 185 164 144 0 0
-1.8582 0.2863 -0.2741 0.323 -0.587 0.742 196 180 162 0 0
-1.8549 0.2905 -0.2728 0.280 -0.497 0.821 198 181 165 0 0
-1.8109 0.4492 -0.2273 0.853 -0.509 0.113 180 158 136 0 0
-1.8085 0.4533 -0.2260 0.947 -0.321 -0.003 185 164 141 0 0
-1.8339 0.4774 -0.2208 0.741 -0.527 0.416 192 172 153 0 0
-1.8299 0.4815 -0.2194 0.513 -0.698 0.500 191 170 150 0 0
-0.7975 0.6478 -0.1208 0.632 -0.774 -0.041 181 150 66 0 0
-0.7966 0.6773 -0.1127 0.103 -0.557 0.824 150 120 47 0 0
-0.7883 0.6984 -0.1065 0.759 0.050 -0.649 163 133 59 0 0
-0.8339 0.7130 -0.1049 0.951 -0.256 0.175 170 140 67 0 0
-0.8548 0.7505 -0.0957 0.563 -0.313 0.765 165 141 71 0 0
-0.8276 0.7585 -0.0921 0.927 -0.040 -0.374 171 146 64 0 0
-0.8114 0.7657 -0.0893 0.597 -0.802 0.037 191 176 94 0 0
-0.7790 0.8050 -0.0769 0.377 -0.876 -0.301 243 241 191 0 0
-0.6840 0.8091 -0.0709 0.897 0.131 0.423 153 102 50 0 0
-0.6814 0.8229 -0.0670 0.887 0.398 0.235 156 128 69 0 0
-0.6820 0.8254 -0.0664 0.857 0.298 0.420 175 151 81 0 0
-0.7105 0.8455 -0.0624 0.980 0.030 -0.197 167 145 81 0 0
-1.6658 1.3998 0.0395 0.294 -0.955 0.042 194 175 160 0 0
-1.6693 1.4059 0.0410 0.164 -0.936 0.312 193 175 160 0 0
-1.6568 1.5654 0.0852 0.469 0.082 0.879 188 170 156 0 0
-1.6455 1.5741 0.0881 0.444 -0.236 0.864 185 167 153 0 0
-1.7041 1.6325 0.1010 0.575 0.106 0.811 191 174 161 0 0
-1.7051 1.6429 0.1038 0.499 -0.084 0.863 193 179 167 0 0
-1.6964 1.7984 0.1467 0.222 -0.447 0.866 187 170 154 0 0
-1.6530 1.8686 0.1681 0.546 -0.542 0.639 184 167 153 0 0
-1.6626 1.9104 0.1790 0.459 0.249 0.853 183 165 150 0 0
-1.6609 1.9144 0.1802 0.425 0.066 0.903 189 172 158 0 0
-1.6629 1.9260 0.1832 0.427 -0.212 0.879 196 180 167 0 0
-1.6618 1.9304 0.1845 0.674 0.071 0.735 194 178 165 0 0
-1.6734 1.9432 0.1874 0.457 0.221 0.862 190 174 160 0 0
-1.8811 -0.1009 -0.3852 0.297 -0.822 0.486 175 151 128 0 0
-1.8617 -0.0924 -0.3819 0.249 -0.783 0.570 174 150 127 0 0
-1.9043 -0.0502 -0.3727 0.207 -0.681 0.702 186 168 145 0 0
-1.8907 -0.0131 -0.3619 0.445 -0.870 0.213 190 172 150 0 0
-1.8728 -0.0056 -0.3588 0.441 -0.764 0.471 190 173 150 0 0
-1.8746 -0.0022 -0.3580 0.313 -0.235 0.920 188 170 146 0 0
-1.8714 0.0022 -0.3566 0.361 -0.098 0.928 187 169 145 0 0
-1.8900 0.0213 -0.3524 0.400 -0.684 0.610 181 159 138 0 0
-1.8741 0.0358 -0.3476 0.261 -0.314 0.913 176 154 131 0 0
-1.8613 0.1030 -0.3287 0.557 0.395 0.731 174 152 129 0 0
-1.8684 0.1057 -0.3283 0.541 0.077 0.837 174 153 130 0 0
-1.8689 0.1094 -0.3273 0.467 0.298 0.833 175 154 131 0 0
-1.8648 0.1139 -0.3259 0.511 -0.746 0.428 179 157 134 0 0
-1.8652 0.1681 -0.3111 0.838 0.188 0.513 197 181 162 0 0
-1.8758 0.1745 -0.3100 0.828 0.258 -0.499 194 178 158 0 0
-1.8739 0.1787 -0.3087 0.840 0.172 -0.515 194 177 159 0 0
-1.8713 0.1829 -0.3074 0.777 -0.593 0.208 194 178 159 0 0
-1.8623 0.1919 -0.3045 0.536 -0.782 0.319 194 178 157 0 0
-1.8565 0.1966 -0.3029 0.536 -0.782 0.319 195 178 158 0 0
-1.8526 0.2010 -0.3015 0.585 -0.706 0.399 196 179 160 0 0
-1.8624 0.2273 -0.2949 0.345 -0.309 0.886 185 167 145 0 0
-1.8689 0.2305 -0.2943 0.270 0.001 0.963 186 169 149 0 0
-1.8306 0.2974 -0.2741 0.453 -0.314 0.835 201 184 168 0 0
-1.8077 0.4502 -0.2312 0.849 -0.448 0.281 178 155 134 0 0
-1.8036 0.4543 -0.2299 0.972 -0.014 0.235 182 160 140 0 0
-1.7300 0.5543 -0.1987 0.274 -0.281 0.920 190 169 147 0 0
-1.7585 0.6242 -0.1812 0.492 0.856 0.159 191 170 146 0 0
-1.7548 0.6281 -0.1800 0.855 0.358 -0.375 188 166 142 0 0
-1.7598 0.6325 -0.1790 0.992 0.061 0.106 187 165 142 0 0
-0.8808 0.6371 -0.1308 0.208 -0.796 0.569 185 150 87 0 0
-0.8741 0.6390 -0.1299 0.211 -0.849 0.485 179 130 74 0 0
-0.8385 0.6480 -0.1255 0.465 -0.883 0.068 173 140 60 0 0
-0.8103 0.6773 -0.1160 0.536 -0.100 0.838 151 121 47 0 0
-0.7907 0.7019 -0.1083 0.899 -0.033 -0.437 165 137 63 0 0
-0.8300 0.7105 -0.1080 0.589 0.418 0.692 167 137 64 0 0
-0.8429 0.7333 -0.1025 0.826 0.339 0.449 145 120 58 0 0
-0.8459 0.7364 -0.1018 0.577 -0.304 0.758 156 132 64 0 0
-0.8467 0.7392 -0.1011 0.608 -0.020 0.793 161 138 70 0 0
-0.8460 0.7443 -0.0997 0.807 -0.306 0.504 161 138 70 0 0
-0.8499 0.7476 -0.0990 0.636 -0.136 0.760 163 139 70 0 0
-0.8500 0.7503 -0.0983 0.557 -0.262 0.788 162 137 68 0 0
-0.8105 0.7662 -0.0918 0.532 -0.846 0.010 185 165 82 0 0
-0.7794 0.8058 -0.0794 0.267 -0.902 -0.340 233 229 162 0 0
-0.6816 0.8068 -0.0739 0.976 -0.220 -0.001 156 106 49 0 0
-0.6808 0.8090 -0.0732 0.959 -0.183 0.218 152 102 46 0 0
-0.7102 0.8436 -0.0654 0.848 -0.208 0.488 181 157 83 0 0
-0.7116 0.8465 -0.0647 0.978 0.106 -0.178 188 163 89 0 0
-1.6832 1.1530 -0.0332 0.150 -0.717 0.681 192 172 148 0 0
-1.7005 1.2804 0.0006 0.213 -0.512 0.832 207 194 179 0 0
-1.7099 1.3254 0.0123 0.771 -0.069 0.634 199 182 167 0 0
-1.7120 1.3308 0.0137 0.836 -0.022 0.549 203 188 172 0 0
-1.6766 1.3407 0.0183 0.894 -0.267 0.361 194 177 161 0 0
-1.6366 1.3755 0.0299 0.766 -0.188 0.615 196 178 163 0 0
-1.6443 1.4339 0.0454 0.326 -0.654 0.683 189 172 155 0 0
-1.6475 1.5243 0.0698 0.583 0.175 0.794 188 170 155 0 0
-1.6464 1.5618 0.0801 0.395 -0.038 0.918 192 174 160 0 0
-1.7102 1.6818 0.1094 0.664 0.275 0.696 184 166 152 0 0
-1.7170 1.6954 0.1127 0.689 -0.040 0.724 190 173 158 0 0
-1.6893 1.7405 0.1265 0.215 -0.329 0.920 188 171 155 0 0
-1.6873 1.7745 0.1358 0.351 -0.326 0.878 192 174 160 0 0
-1.6837 1.7826 0.1382 0.243 -0.378 0.893 191 175 159 0 0
-1.6403 1.8623 0.1623 0.768 -0.598 0.230 188 170 156 0 0
-1.6380 1.8660 0.1634 0.641 -0.767 0.024 181 163 148 0 0
-1.6520 1.9104 0.1747 0.201 -0.280 0.939 189 171 157 0 0
-1.6561 1.9336 0.1808 0.413 0.114 0.904 190 173 159 0 0
-1.6724 1.9547 0.1857 0.127 -0.401 0.907 188 170 156 0 0
-1.6445 1.9930 0.1976 0.510 0.261 0.820 178 160 145 0 0
-1.8806 -0.1001 -0.3893 0.341 -0.889 0.306 185 164 142 0 0
-1.8629 -0.0921 -0.3861 0.339 -0.881 0.329 184 165 143 0 0
-1.8452 -0.0841 -0.3830 0.339 -0.881 0.329 186 165 145 0 0
-1.8971 -0.0705 -0.3822 0.164 -0.243 0.956 184 165 145 0 0
-1.8813 -0.0481 -0.3752 0.158 -0.587 0.794 189 170 148 0 0
-1.8594 -0.0357 -0.3706 0.279 -0.677 0.682 189 172 150 0 0
-1.8443 -0.0287 -0.3679 0.380 -0.724 0.576 192 174 153 0 0
-1.8203 -0.0197 -0.3641 0.622 -0.342 -0.705 186 168 146 0 0
-1.8227 -0.0166 -0.3634 0.963 -0.087 -0.257 185 167 143 0 0
-1.8656 -0.0034 -0.3622 0.482 -0.665 0.570 188 171 146 0 0
-1.8656 0.0003 -0.3612 0.388 -0.533 0.752 189 171 148 0 0
-1.8629 0.0047 -0.3598 0.379 -0.127 0.917 188 170 148 0 0
-1.8476 0.0831 -0.3377 0.402 -0.382 0.832 179 159 135 0 0
-1.8491 0.0905 -0.3357 0.300 0.147 0.943 175 154 132 0 0
-1.8580 0.1043 -0.3325 0.589 0.307 0.748 181 161 139 0 0
-1.8632 0.1073 -0.3320 0.551 0.045 0.833 183 164 142 0 0
-1.8591 0.1156 -0.3295 0.453 -0.687 0.567 187 166 145 0 0
-1.8534 0.1203 -0.3279 0.405 -0.861 0.308 182 162 139 0 0
-1.8519 0.1630 -0.3162 0.657 0.017 0.754 192 175 156 0 0
-1.8431 0.1681 -0.3143 0.822 -0.388 -0.417 191 174 154 0 0
-1.8571 0.1739 -0.3135 0.651 -0.304 0.696 189 171 150 0 0
-1.8593 0.1775 -0.3127 0.704 0.392 0.593 185 167 143 0 0
-1.8628 0.1848 -0.3108 0.733 -0.078 0.676 188 168 146 0 0
-1.8634 0.1887 -0.3098 0.670 -0.578 0.465 189 169 145 0 0
-1.8564 0.1935 -0.3081 0.532 -0.792 0.300 187 168 145 0 0
-1.8523 0.1979 -0.3067 0.483 -0.802 0.350 185 168 145 0 0
-1.8483 0.2023 -0.3053 0.559 -0.722 0.408 186 169 147 0 0
-1.8262 0.2947 -0.2790 0.400 -0.388 0.830 202 186 169 0 0
-1.8224 0.2989 -0.2776 0.599 -0.188 0.779 200 185 168 0 0
-1.8196 0.3110 -0.2742 0.519 0.505 0.689 200 185 167 0 0
-1.8258 0.4062 -0.2486 0.367 -0.836 0.409 190 171 152 0 0
-1.7052 0.5625 -0.1994 0.147 -0.685 0.714 189 169 146 0 0
-0.8718 0.6343 -0.1338 0.322 -0.371 0.871 188 153 91 0 0
-0.8640 0.6361 -0.1329 0.637 -0.452 0.624 185 143 85 0 0
-0.8603 0.6382 -0.1321 0.398 -0.893 0.209 175 113 62 0 0
-0.8574 0.6405 -0.1313 0.548 -0.735 0.400 177 107 61 0 0
-0.8302 0.6578 -0.1251 0.506 -0.840 0.195 201 175 65 0 0
-0.7920 0.6656 -0.1208 0.812 0.576 0.095 162 131 51 0 0
-0.8048 0.6747 -0.1191 0.459 -0.814 0.355 148 120 46 0 0
-0.8344 0.7093 -0.1113 0.917 -0.266 0.298 164 135 63 0 0
-0.8395 0.7204 -0.1086 0.908 -0.369 -0.198 150 122 58 0 0
-0.8422 0.7365 -0.1043 0.647 -0.283 0.708 163 139 67 0 0
-0.8408 0.7388 -0.1036 0.797 0.001 0.604 161 137 68 0 0
-0.8431 0.7419 -0.1029 0.772 -0.621 0.137 160 135 67 0 0
-0.8422 0.7443 -0.1022 0.810 -0.446 0.382 158 134 64 0 0
-0.8086 0.7665 -0.0943 0.631 -0.772 -0.077 180 157 76 0 0
-0.6801 0.8094 -0.0755 0.882 -0.323 0.342 151 99 44 0 0
-0.7044 0.8402 -0.0685 0.709 0.093 0.699 196 165 83 0 0
-0.7076 0.8436 -0.0678 0.767 -0.403 0.500 196 167 86 0 0
-0.7120 0.8473 -0.0670 0.981 0.183 -0.066 191 161 80 0 0
-1.6719 1.2267 -0.0171 0.586 -0.371 0.720 194 176 157 0 0
-1.6651 1.2513 -0.0100 0.360 -0.634 0.684 201 183 169 0 0
-1.6790 1.3292 0.0104 0.981 -0.011 0.196 202 186 171 0 0
-1.6741 1.3319 0.0114 0.751 -0.652 0.107 200 183 169 0 0
-1.6567 1.3711 0.0231 0.400 -0.661 0.635 194 177 161 0 0
-1.6080 1.4334 0.0427 0.758 -0.221 0.614 189 172 156 0 0
-1.6636 1.4859 0.0539 0.436 0.272 0.858 188 170 155 0 0
-1.6371 1.5683 0.0777 0.266 -0.206 0.942 193 177 162 0 0
-1.6950 1.6114 0.0862 0.493 -0.336 0.803 187 169 155 0 0
-1.6939 1.6157 0.0875 0.351 -0.839 0.416 185 167 153 0 0
-1.6873 1.6222 0.0896 0.779 -0.018 0.627 193 177 163 0 0
-1.6895 1.6429 0.0951 0.531 -0.132 0.837 194 180 167 0 0
-1.7068 1.6966 0.1088 0.373 -0.353 0.858 190 173 158 0 0
-1.6638 1.7927 0.1373 0.602 0.606 0.520 191 174 158 0 0
-1.6072 1.9590 0.1856 0.160 -0.870 0.465 178 161 146 0 0
-1.6505 2.0197 0.1997 0.465 0.153 0.872 177 158 141 0 0
-1.8717 -0.0973 -0.3923 0.368 -0.891 0.265 185 165 142 0 0
-1.8574 -0.0901 -0.3895 0.383 -0.910 -0.157 187 167 143 0 0
-1.8323 -0.0803 -0.3854 0.373 -0.925 -0.079 186 166 142 0 0
-1.8936 -0.0727 -0.3869 0.337 -0.743 0.579 194 176 156 0 0
-1.8935 -0.0652 -0.3849 0.358 -0.240 0.902 195 178 158 0 0
-1.8653 -0.0475 -0.3785 0.191 -0.371 0.909 191 173 149 0 0
-1.8515 -0.0407 -0.3758 0.263 -0.711 0.652 192 176 154 0 0
-1.8554 -0.0379 -0.3753 0.260 -0.675 0.691 199 184 163 0 0
-1.8439 -0.0316 -0.3729 0.322 -0.743 0.586 199 184 164 0 0
-1.8348 -0.0259 -0.3708 0.385 -0.760 0.524 196 180 157 0 0
-1.8267 -0.0205 -0.3689 0.567 -0.787 0.243 189 170 149 0 0
-1.8233 -0.0160 -0.3675 0.852 -0.128 0.507 189 169 146 0 0
-1.8554 -0.0006 -0.3651 0.524 -0.607 0.598 185 167 144 0 0
-1.8546 0.0033 -0.3640 0.686 -0.297 0.664 190 172 151 0 0
-1.8494 0.0419 -0.3533 0.826 -0.391 0.407 174 154 130 0 0
-1.8419 0.0471 -0.3514 0.809 -0.318 0.495 176 155 131 0 0
-1.8443 0.0958 -0.3383 0.408 0.262 0.875 169 149 125 0 0
-1.8538 0.1057 -0.3362 0.427 0.227 0.875 192 175 153 0 0
-1.8576 0.1089 -0.3355 0.386 0.078 0.919 196 179 159 0 0
-1.8534 0.1173 -0.3330 0.522 -0.607 0.599 192 173 151 0 0
-1.8344 0.1317 -0.3280 0.496 -0.832 0.248 183 162 140 0 0
-1.8480 0.1643 -0.3200 0.766 0.043 0.641 186 169 148 0 0
-1.8421 0.1690 -0.3184 0.883 -0.210 -0.421 186 169 148 0 0
-1.8499 0.1718 -0.3181 0.717 -0.394 0.575 186 167 144 0 0
-1.8516 0.1754 -0.3172 0.556 -0.227 0.800 183 164 142 0 0
-1.8562 0.1787 -0.3165 0.448 -0.258 0.856 179 159 135 0 0
-1.8590 0.1861 -0.3147 0.505 -0.003 0.863 182 162 138 0 0
-1.8584 0.1901 -0.3136 0.667 -0.620 0.413 183 163 140 0 0
-1.8435 0.2037 -0.3090 0.569 -0.530 0.629 185 167 142 0 0
-1.8189 0.2922 -0.2836 0.441 -0.371 0.817 196 179 159 0 0
-1.8188 0.3079 -0.2793 0.872 0.078 0.483 194 177 158 0 0
-1.8180 0.3119 -0.2782 0.767 0.131 0.628 197 180 163 0 0
-1.8205 0.3157 -0.2773 0.705 0.268 0.657 201 185 168 0 0
-1.8122 0.3796 -0.2595 0.326 -0.490 0.809 184 163 143 0 0
-1.8201 0.4073 -0.2524 0.421 -0.842 0.338 193 174 156 0 0
-1.6920 0.5434 -0.2082 0.425 -0.425 0.799 193 172 152 0 0
-1.7245 0.6202 -0.1892 0.322 0.337 0.885 190 169 144 0 0
-0.8704 0.6322 -0.1370 0.333 -0.937 -0.110 189 154 96 0 0
-0.8619 0.6339 -0.1360 0.629 -0.254 0.734 186 150 88 0 0
-0.8615 0.6364 -0.1353 0.691 -0.206 0.693 183 139 79 0 0
-0.8350 0.6539 -0.1291 0.425 -0.859 -0.285 202 173 68 0 0
-0.8283 0.6582 -0.1275 0.454 -0.848 0.271 201 173 67 0 0
-0.7800 0.6941 -0.1150 0.781 0.195 0.593 161 131 58 0 0
-0.8386 0.7209 -0.1111 0.988 -0.091 0.123 143 116 55 0 0
-0.8386 0.7235 -0.1104 0.863 -0.495 0.098 132 107 48 0 0
-0.8373 0.7259 -0.1097 0.863 -0.495 0.098 139 113 56 0 0
-0.8361 0.7283 -0.1089 0.863 -0.495 0.098 153 125 68 0 0
-0.8393 0.7367 -0.1069 0.647 -0.283 0.708 168 144 74 0 0
-0.8389 0.7392 -0.1062 0.797 0.001 0.604 166 142 74 0 0
-0.8311 0.7586 -0.1004 0.990 0.128 -0.056 156 129 52 0 0
-0.8194 0.7668 -0.0975 0.963 -0.077 -0.258 173 147 69 0 0
-1.6673 1.3215 0.0044 0.768 0.045 0.639 197 181 164 0 0
-1.6391 1.3427 0.0118 0.831 -0.545 0.110 195 176 160 0 0
-1.6390 1.3655 0.0180 0.878 0.304 -0.369 192 174 156 0 0
-1.6741 1.3980 0.0248 0.403 -0.545 0.736 188 169 152 0 0
-1.6413 1.4308 0.0356 0.419 -0.285 0.862 189 172 156 0 0
-1.6398 1.4348 0.0367 0.326 -0.766 0.554 192 174 159 0 0
-1.6703 1.4667 0.0437 0.708 0.200 0.677 188 169 153 0 0
-1.6173 1.5600 0.0720 0.214 -0.334 0.918 193 177 162 0 0
-1.6880 1.6094 0.0814 0.637 -0.295 0.712 187 169 155 0 0
-1.6865 1.6136 0.0826 0.883 -0.362 0.300 184 167 152 0 0
-1.6855 1.6180 0.0838 0.992 -0.094 0.079 188 170 156 0 0
-1.6826 1.6214 0.0849 0.957 0.002 0.292 191 174 161 0 0
-1.6827 1.6263 0.0863 0.960 -0.015 0.281 190 173 159 0 0
-1.6831 1.6314 0.0876 0.960 -0.015 0.281 186 169 155 0 0
-1.6876 1.6386 0.0893 0.787 0.227 0.573 183 165 152 0 0
-1.6945 1.6471 0.0912 0.715 -0.030 0.698 183 166 151 0 0
-1.6864 1.6972 0.1053 0.219 -0.226 0.949 195 179 164 0 0
-1.6900 1.7091 0.1083 0.442 0.313 0.840 195 179 164 0 0
-1.6844 1.7210 0.1119 0.415 -0.143 0.898 194 177 163 0 0
-1.6668 1.7411 0.1183 0.528 0.074 0.846 187 169 153 0 0
-1.6208 1.8686 0.1555 0.680 0.009 0.734 184 167 151 0 0
-1.6416 1.9429 0.1745 0.394 0.086 0.915 186 169 153 0 0
-1.6276 1.9439 0.1756 0.528 -0.168 0.833 188 171 155 0 0
-1.6287 1.9497 0.1771 0.396 -0.561 0.727 190 173 158 0 0
-1.6148 1.9455 0.1768 0.086 -0.995 -0.053 191 174 159 0 0
-1.6558 2.0356 0.1989 0.486 -0.044 0.873 184 166 153 0 0
-1.8619 -0.0905 -0.3942 0.417 -0.894 -0.162 187 166 145 0 0
-1.8426 -0.0821 -0.3908 0.417 -0.894 -0.162 188 168 147 0 0
-1.8232 -0.0738 -0.3874 0.434 -0.837 -0.333 187 169 147 0 0
-1.8461 -0.0757 -0.3892 0.893 0.306 0.331 188 168 146 0 0
-1.8418 -0.0342 -0.3777 0.359 -0.798 0.485 194 177 157 0 0
-1.8393 -0.0299 -0.3764 0.401 -0.870 0.286 194 178 158 0 0
-1.8291 -0.0240 -0.3742 0.572 -0.797 0.196 191 174 152 0 0
-1.8239 -0.0192 -0.3726 0.765 -0.640 -0.076 188 170 148 0 0
-1.8212 -0.0149 -0.3713 0.980 -0.130 0.153 188 170 147 0 0
-1.8406 0.0106 -0.3655 0.443 -0.547 0.710 187 169 146 0 0
-1.8373 0.0150 -0.3641 0.425 -0.544 0.723 185 167 145 0 0
-1.8425 0.0439 -0.3566 0.871 0.471 0.136 172 151 128 0 0
-1.8418 0.0516 -0.3545 0.669 -0.490 0.559 176 155 132 0 0
-1.8331 0.0909 -0.3433 0.498 0.083 0.863 182 164 140 0 0
-1.8476 0.1074 -0.3397 0.427 0.227 0.875 189 171 148 0 0
-1.8503 0.1108 -0.3390 0.397 0.047 0.917 195 178 158 0 0
-1.8509 0.1184 -0.3369 0.278 -0.356 0.892 192 173 154 0 0
-1.8434 0.1657 -0.3237 0.657 0.017 0.754 178 158 136 0 0
-1.8470 0.1691 -0.3230 0.805 -0.388 0.450 179 158 137 0 0
-1.8464 0.1730 -0.3219 0.673 -0.498 0.547 181 161 137 0 0
-1.8465 0.1769 -0.3208 0.590 -0.254 0.766 183 164 141 0 0
-1.8493 0.1804 -0.3201 0.593 0.328 0.735 182 162 139 0 0
-1.8519 0.1839 -0.3192 0.514 0.452 0.729 181 162 140 0 0
-1.8483 0.1883 -0.3179 0.623 0.041 0.781 184 165 142 0 0
-1.8370 0.2052 -0.3126 0.553 -0.682 0.479 184 167 143 0 0
-1.8342 0.2095 -0.3113 0.482 -0.032 0.876 188 170 146 0 0
-1.8202 0.4042 -0.2577 0.347 -0.595 0.725 190 170 151 0 0
-1.8238 0.4081 -0.2569 0.425 -0.882 0.205 192 173 153 0 0
-1.8160 0.4124 -0.2552 0.536 -0.826 0.173 194 176 156 0 0
-1.8039 0.4208 -0.2522 0.683 -0.481 0.550 190 171 150 0 0
-1.6809 0.5480 -0.2105 0.414 -0.336 0.846 188 168 145 0 0
-1.7203 0.6209 -0.1931 0.327 0.309 0.893 189 168 144 0 0
-0.8377 0.6498 -0.1330 0.428 -0.854 -0.294 155 126 58 0 0
-0.8319 0.6567 -0.1308 0.459 -0.813 -0.359 195 166 66 0 0
-0.8696 0.6663 -0.1304 0.414 0.048 -0.909 165 137 52 0 0
-0.8878 0.7082 -0.1202 0.001 -0.944 0.329 160 128 58 0 0
-0.8718 0.7085 -0.1191 -0.017 -0.987 0.158 161 129 59 0 0
-0.8376 0.7189 -0.1143 0.945 0.064 0.320 146 121 62 0 0
-0.8314 0.7542 -0.1044 0.780 0.215 0.588 142 113 49 0 0
-0.8328 0.7570 -0.1037 0.820 0.284 0.497 146 116 47 0 0
-0.8266 0.7585 -0.1029 0.891 -0.296 0.344 158 127 53 0 0
-0.8329 0.7623 -0.1023 0.993 -0.098 0.068 159 130 54 0 0
-0.8098 0.7733 -0.0979 0.618 -0.770 0.161 144 108 28 0 0
-0.8093 0.7810 -0.0958 0.639 0.676 0.367 161 119 35 0 0
-0.7052 0.8295 -0.0765 0.623 0.004 0.782 180 137 56 0 0
-0.7067 0.8323 -0.0758 0.748 0.015 0.663 182 140 56 0 0
-0.7132 0.8440 -0.0730 0.933 -0.215 -0.290 184 143 63 0 0
-0.7101 0.8456 -0.0724 0.841 0.017 -0.541 183 143 63 0 0
-1.6449 1.1454 -0.0465 0.226 -0.464 0.856 192 171 148 0 0
-1.6552 1.2506 -0.0186 0.544 0.004 0.839 194 177 160 0 0
-1.6502 1.2893 -0.0079 0.520 -0.013 0.854 192 174 157 0 0
-1.6366 1.3431 0.0075 0.926 -0.056 0.374 195 177 160 0 0
-1.6383 1.3483 0.0088 0.995 0.019 0.100 193 175 156 0 0
-1.6376 1.3617 0.0125 0.743 -0.488 -0.458 191 170 152 0 0
-1.6674 1.3921 0.0190 0.739 -0.224 0.636 187 168 152 0 0
-1.6625 1.3994 0.0212 0.131 -0.822 0.554 188 168 150 0 0
-1.6483 1.4306 0.0305 0.883 0.297 0.362 186 167 150 0 0
-1.6470 1.4347 0.0317 0.837 -0.216 0.502 188 170 154 0 0
-1.6516 1.4413 0.0332 0.950 0.056 0.307 192 173 158 0 0
-1.6379 1.4447 0.0350 0.687 0.117 0.717 191 174 158 0 0
-1.6671 1.4668 0.0392 0.643 0.191 0.741 188 169 152 0 0
-1.6082 1.5570 0.0671 0.258 -0.329 0.908 192 174 159 0 0
-1.6830 1.6085 0.0767 0.509 -0.359 0.783 187 169 156 0 0
-1.6804 1.6120 0.0778 0.717 -0.399 -0.571 185 167 153 0 0
-1.6775 1.6203 0.0802 0.967 0.235 -0.094 190 173 160 0 0
-1.6784 1.6257 0.0816 0.974 0.200 0.106 188 171 158 0 0
-1.6804 1.6316 0.0831 0.961 0.211 0.178 186 169 155 0 0
-1.6743 1.6874 0.0986 0.310 -0.196 0.930 197 181 167 0 0
-1.6726 1.6914 0.0997 0.238 -0.229 0.944 196 180 166 0 0
-1.6629 1.7405 0.1136 0.659 -0.015 0.752 191 174 159 0 0
-1.6522 1.7593 0.1193 -0.022 -0.798 0.602 191 174 158 0 0
-1.6156 1.8669 0.1507 0.612 -0.112 0.782 187 170 155 0 0
-1.6138 1.9415 0.1710 0.774 -0.018 0.633 189 171 156 0 0
-1.6379 2.0301 0.1936 0.310 -0.214 0.926 189 171 156 0 0
-1.6385 2.0358 0.1951 0.299 -0.168 0.939 190 172 158 0 0
-1.6334 2.0374 0.1958 0.184 -0.356 0.916 190 173 159 0 0
-1.6463 2.0518 0.1989 0.389 -0.336 0.857 191 174 160 0 0
-1.8498 -0.0796 -0.3948 0.211 -0.427 0.879 188 167 147 0 0
-1.8453 -0.0601 -0.3892 0.228 -0.391 0.892 189 172 151 0 0
-1.8392 -0.0550 -0.3875 0.235 -0.534 0.813 186 168 145 0 0
-1.8313 -0.0495 -0.3855 0.225 -0.670 0.707 185 167 144 0 0
-1.8317 -0.0349 -0.3816 0.495 -0.614 0.615 183 165 141 0 0
-1.8256 -0.0299 -0.3799 0.820 0.451 0.351 185 167 145 0 0
-1.8206 -0.0251 -0.3783 0.666 -0.222 0.712 188 170 148 0 0
-1.8305 0.0134 -0.3685 0.397 -0.488 0.777 185 167 144 0 0
-1.8325 0.0167 -0.3677 0.347 -0.394 0.851 185 167 145 0 0
-1.8366 0.0420 -0.3611 0.418 -0.515 0.749 176 155 132 0 0
-1.8364 0.0458 -0.3600 0.619 0.142 0.772 174 152 131 0 0
-1.8398 0.0489 -0.3594 0.607 0.237 0.759 174 152 130 0 0
-1.8428 0.0521 -0.3587 0.684 -0.440 0.581 178 157 135 0 0
-1.8380 0.0605 -0.3562 0.396 -0.676 0.622 189 170 148 0 0
-1.8301 0.0959 -0.3461 0.484 0.015 0.875 183 163 140 0 0
-1.8341 0.0990 -0.3455 0.584 0.223 0.780 177 155 134 0 0
-1.8396 0.1057 -0.3440 0.475 0.451 0.756 178 158 135 0 0
-1.8448 0.1086 -0.3436 0.521 0.406 0.751 185 166 144 0 0
-1.8396 0.1133 -0.3420 0.313 -0.048 0.948 189 171 151 0 0
-1.8383 0.1211 -0.3398 0.278 -0.356 0.892 188 169 148 0 0
-1.8319 0.1260 -0.3381 0.411 -0.820 0.400 184 166 144 0 0
-1.8378 0.1982 -0.3189 0.313 -0.712 0.629 188 170 147 0 0
-1.7994 0.3860 -0.2658 0.749 0.067 0.659 193 176 156 0 0
-1.8062 0.4096 -0.2598 0.487 -0.551 0.677 192 172 153 0 0
-1.7975 0.4419 -0.2505 0.423 -0.754 0.502 190 170 148 0 0
-0.8509 0.6443 -0.1380 0.586 -0.689 -0.425 123 92 40 0 0
-0.8526 0.6623 -0.1332 0.565 0.615 -0.550 155 127 47 0 0
-0.8408 0.6660 -0.1315 0.520 0.310 -0.796 143 116 44 0 0
-0.8161 0.6730 -0.1281 0.491 -0.518 0.700 142 115 47 0 0
-0.8605 0.7048 -0.1222 0.103 -0.976 -0.192 155 123 54 0 0
-0.8496 0.7058 -0.1213 0.103 -0.976 -0.192 159 127 58 0 0
-0.8388 0.7068 -0.1204 0.089 -0.969 -0.231 160 129 63 0 0
-0.8357 0.7141 -0.1182 0.989 0.013 -0.151 146 120 61 0 0
-0.8292 0.7414 -0.1104 0.965 -0.154 -0.211 171 148 63 0 0
-0.8163 0.7675 -0.1026 0.771 -0.629 0.103 146 119 49 0 0
-0.8144 0.7697 -0.1018 0.989 -0.145 -0.041 148 116 40 0 0
-0.8033 0.7701 -0.1011 0.287 -0.837 -0.467 142 107 26 0 0
-0.7973 0.7714 -0.1003 0.415 -0.690 -0.593 154 115 34 0 0
-0.8049 0.7756 -0.0997 0.557 0.710 0.431 158 116 35 0 0
-0.7023 0.8392 -0.0762 0.957 0.214 -0.198 180 139 59 0 0
-1.6353 1.1875 -0.0390 0.326 0.349 0.878 189 168 145 0 0
-1.6475 1.2224 -0.0303 0.292 -0.325 0.900 197 179 161 0 0
-1.6493 1.2498 -0.0230 0.524 -0.096 0.847 198 181 165 0 0
-1.6496 1.3131 -0.0059 0.371 0.012 0.929 200 184 169 0 0
-1.6427 1.3150 -0.0050 0.302 0.009 0.953 202 186 170 0 0
-1.6462 1.3209 -0.0036 0.246 -0.312 0.918 202 186 170 0 0
-1.6327 1.3294 -0.0005 0.673 0.192 0.714 198 182 167 0 0
-1.6333 1.3341 0.0008 0.963 -0.136 0.230 197 180 165 0 0
-1.6310 1.3605 0.0080 0.742 -0.654 -0.149 186 165 145 0 0
-1.6592 1.3948 0.0156 0.290 -0.528 0.798 188 169 152 0 0
-1.6381 1.4276 0.0258 0.825 0.552 -0.123 187 169 153 0 0
-1.6418 1.4338 0.0272 0.891 0.399 -0.217 189 171 154 0 0
-1.6381 1.4369 0.0283 0.909 -0.332 0.251 191 173 158 0 0
-1.6710 1.6872 0.0940 0.404 -0.283 0.870 199 183 170 0 0
-1.6640 1.6883 0.0947 0.534 -0.208 0.820 199 183 170 0 0
-1.6056 1.8076 0.1305 0.290 -0.228 0.929 192 176 160 0 0
-1.6050 1.9475 0.1684 0.285 -0.923 -0.259 185 168 152 0 0
-1.5930 1.9545 0.1710 0.456 -0.797 -0.396 177 159 143 0 0
-1.5759 1.9529 0.1716 0.461 0.098 0.882 185 168 153 0 0
-1.5819 1.9621 0.1737 0.461 0.098 0.882 186 170 153 0 0
-1.8378 -0.0760 -0.3973 0.747 -0.201 0.634 184 163 142 0 0
-1.8390 -0.0690 -0.3955 0.688 0.068 0.723 178 156 134 0 0
-1.8271 -0.0443 -0.3881 0.680 -0.649 0.340 180 160 138 0 0
-1.8260 -0.0403 -0.3869 0.363 -0.539 0.760 181 160 138 0 0
-1.8252 0.0449 -0.3639 0.421 -0.003 0.907 180 159 136 0 0
-1.8359 0.0503 -0.3631 0.574 -0.001 0.819 178 159 136 0 0
-1.8328 0.0584 -0.3607 0.444 -0.602 0.664 185 167 144 0 0
-1.8291 0.0629 -0.3593 0.396 -0.676 0.622 188 171 149 0 0
-1.8240 0.1014 -0.3485 0.464 0.024 0.885 188 168 146 0 0
-1.8335 0.1036 -0.3485 0.633 0.238 0.736 187 167 145 0 0
-1.8341 0.1149 -0.3455 0.482 0.250 0.840 191 173 153 0 0
-1.8273 0.1312 -0.3407 0.488 -0.626 0.609 186 167 145 0 0
-1.8177 0.1823 -0.3263 0.181 -0.209 0.961 191 173 153 0 0
-1.8137 0.1866 -0.3249 0.311 -0.148 0.939 189 171 147 0 0
-1.8274 0.2002 -0.3221 0.264 -0.731 0.629 183 165 141 0 0
-1.7761 0.3801 -0.2703 0.301 -0.434 0.849 200 184 168 0 0
-1.7923 0.4429 -0.2543 0.384 -0.739 0.553 193 174 155 0 0
-0.8744 0.6760 -0.1336 0.162 -0.739 0.654 133 108 46 0 0
-0.8280 0.7084 -0.1220 0.183 -0.787 -0.589 152 125 63 0 0
-0.8357 0.7173 -0.1200 0.875 0.046 0.482 131 113 67 0 0
-0.8326 0.7271 -0.1172 0.656 -0.722 0.220 123 103 57 0 0
-0.8322 0.7297 -0.1165 0.714 -0.515 0.474 131 110 60 0 0
-0.8353 0.7406 -0.1137 0.534 0.811 0.239 184 161 67 0 0
-0.8369 0.7618 -0.1081 0.255 0.102 0.962 125 102 40 0 0
-0.8093 0.7694 -0.1043 0.241 -0.838 -0.490 148 116 36 0 0
-0.8135 0.7911 -0.0987 0.970 -0.021 0.242 152 113 30 0 0
-1.6454 1.1655 -0.0500 0.648 0.522 -0.554 174 150 127 0 0
-1.6452 1.2497 -0.0273 0.850 -0.120 0.513 196 178 162 0 0
-1.6329 1.2947 -0.0144 0.469 -0.031 0.883 198 180 164 0 0
-1.6332 1.2993 -0.0131 0.624 -0.135 0.770 199 182 166 0 0
-1.6269 1.3014 -0.0122 0.561 -0.402 0.724 198 182 165 0 0
-1.6340 1.3086 -0.0107 0.762 0.459 0.457 200 184 168 0 0
-1.6324 1.3125 -0.0095 0.711 0.193 0.676 201 185 169 0 0
-1.6322 1.3169 -0.0083 0.494 -0.647 0.581 199 183 168 0 0
-1.6275 1.3287 -0.0048 0.714 0.186 0.675 202 185 173 0 0
-1.6321 1.3350 -0.0034 0.963 -0.136 0.230 197 181 166 0 0
-1.6281 1.3425 -0.0011 0.888 0.452 -0.082 192 173 156 0 0
-1.6410 1.3566 0.0019 0.995 0.084 0.057 192 173 155 0 0
-1.6308 1.3572 0.0026 0.680 -0.576 0.455 189 169 151 0 0
-1.6306 1.4258 0.0212 0.860 0.262 0.438 195 178 163 0 0
-1.6349 1.4323 0.0227 0.993 -0.115 -0.028 193 176 160 0 0
-1.6301 1.4348 0.0237 0.870 -0.378 -0.318 192 175 159 0 0
-1.6504 1.5808 0.0618 0.277 -0.043 0.960 197 181 167 0 0
-1.6504 1.5856 0.0631 0.349 0.053 0.935 196 180 166 0 0
-1.6754 1.6126 0.0688 0.635 -0.331 0.698 191 175 160 0 0
-1.6659 1.6516 0.0799 0.324 -0.302 0.897 184 166 151 0 0
-1.6711 1.6593 0.0817 0.388 -0.255 0.886 186 168 153 0 0
-1.6500 1.6823 0.0892 0.226 -0.653 0.723 198 182 168 0 0
-1.6415 1.6826 0.0898 0.828 0.260 0.497 198 182 167 0 0
-1.6203 1.7687 0.1144 0.488 0.120 0.864 192 174 160 0 0
-1.5764 1.7816 0.1207 0.367 -0.636 0.679 191 174 158 0 0
-1.5741 1.7851 0.1217 0.467 -0.559 0.686 190 174 159 0 0
-1.5611 1.9444 0.1656 0.701 0.278 0.657 194 178 161 0 0
-1.5438 2.0327 0.1905 0.955 -0.107 0.278 191 176 161 0 0
-1.8072 -0.0135 -0.3827 0.650 -0.609 0.454 170 149 127 0 0
-1.8164 0.0287 -0.3719 0.648 -0.593 0.477 190 172 150 0 0
-1.8207 0.0465 -0.3674 0.690 0.222 0.689 182 162 141 0 0
-1.8290 0.0524 -0.3664 0.502 0.032 0.864 183 164 142 0 0
-1.8293 0.0560 -0.3654 0.361 -0.665 0.654 184 166 144 0 0
-1.8203 0.0652 -0.3624 0.376 -0.710 0.596 187 169 146 0 0
-1.8149 0.0699 -0.3607 0.274 -0.268 0.924 184 165 142 0 0
-1.8084 0.1047 -0.3509 0.300 -0.163 0.940 192 174 154 0 0
-1.8163 0.1072 -0.3508 0.369 0.015 0.929 192 174 154 0 0
-1.8300 0.1087 -0.3513 0.569 0.184 0.802 191 174 154 0 0
-1.8147 0.1150 -0.3486 0.354 -0.290 0.889 192 175 155 0 0
-1.8137 0.1189 -0.3474 0.268 -0.027 0.963 192 176 157 0 0
-1.8141 0.1302 -0.3444 0.356 -0.360 0.862 193 175 154 0 0
-1.7697 0.3734 -0.2760 0.263 -0.708 0.656 199 182 165 0 0
-1.7705 0.3773 -0.2750 0.334 -0.626 0.705 200 184 166 0 0
-1.7670 0.3814 -0.2737 0.418 -0.561 0.715 201 184 168 0 0
-1.7708 0.3851 -0.2729 0.590 -0.498 0.635 200 183 165 0 0
-1.7852 0.4440 -0.2580 0.316 -0.642 0.698 194 175 158 0 0
-1.7520 0.4883 -0.2439 0.296 -0.604 0.740 190 171 150 0 0
-1.7475 0.4923 -0.2425 0.300 -0.576 0.760 195 177 157 0 0
-1.7416 0.5002 -0.2400 0.417 -0.359 0.835 199 183 163 0 0
-0.8537 0.6458 -0.1432 0.784 -0.113 -0.611 150 117 54 0 0
-0.8528 0.6483 -0.1425 0.795 -0.111 -0.596 167 133 61 0 0
-0.8448 0.6678 -0.1367 0.774 0.500 0.389 143 118 51 0 0
-0.8591 0.6721 -0.1364 0.152 -0.642 0.751 131 106 47 0 0
-0.9018 0.7043 -0.1306 0.089 -0.978 0.191 163 128 60 0 0
-0.8469 0.7067 -0.1263 0.161 -0.918 -0.362 167 136 70 0 0
-0.8371 0.7078 -0.1254 0.135 -0.902 -0.411 156 128 64 0 0
-0.8360 0.7154 -0.1233 0.934 -0.117 -0.337 119 100 58 0 0
