ply
format ascii 1.0
element vertex 828
property float x
property float y
property float z
property float nx
property float ny
property float nz
property uchar diffuse_red
property uchar diffuse_green
property uchar diffuse_blue
property uchar class
property uchar detection
end_header
-0.5698 1.6189 -0.3134 0.411 0.365 0.835 164 143 124 0 0
-0.5735 1.6229 -0.3138 0.430 0.362 0.827 166 145 127 0 0
-0.5759 1.6263 -0.3139 0.449 0.655 0.608 168 148 129 0 0
-0.5732 1.6272 -0.3122 0.295 -0.819 0.492 170 150 132 0 0
-0.5658 1.6323 -0.3066 0.109 -0.010 0.994 172 153 137 0 0
-0.5650 1.6406 -0.3032 0.651 0.754 0.082 170 150 133 0 0
-0.5708 1.6457 -0.3044 0.651 0.754 0.082 169 148 133 0 0
-0.5534 1.7180 -0.2698 0.545 0.465 0.698 156 135 117 0 0
-0.5571 1.7222 -0.2702 0.404 0.374 0.834 158 138 118 0 0
-0.5583 1.7251 -0.2698 0.435 0.631 0.643 158 137 117 0 0
-0.5515 1.7275 -0.2655 0.619 0.720 -0.314 149 131 110 0 0
-0.5623 1.7358 -0.2680 0.628 0.739 -0.243 153 132 114 0 0
-0.5425 0.4306 -0.7249 0.934 -0.353 0.050 173 152 129 0 0
-0.5540 0.4719 -0.7161 0.251 -0.504 0.826 167 142 122 0 0
-0.5368 0.5631 -0.6749 0.766 0.084 -0.637 185 166 149 0 0
-0.5485 0.6042 -0.6662 0.962 -0.081 0.260 199 183 168 0 0
-0.5500 0.6090 -0.6653 0.634 0.500 0.590 203 189 175 0 0
-0.5455 0.6555 -0.6465 0.862 0.399 0.313 184 165 148 0 0
-0.5470 0.6577 -0.6464 0.917 0.168 0.362 186 167 150 0 0
-0.5479 0.6600 -0.6461 0.885 0.099 0.454 191 172 155 0 0
-0.5484 0.6652 -0.6445 0.864 -0.047 0.501 192 174 154 0 0
-0.5467 0.6709 -0.6416 0.458 0.821 0.342 189 171 150 0 0
-0.5566 0.7936 -0.6030 0.975 0.191 0.118 192 174 158 0 0
-0.5572 0.7961 -0.6024 0.971 -0.120 0.205 193 175 159 0 0
-0.5574 0.7987 -0.6016 0.864 0.255 0.435 191 172 157 0 0
-0.5631 0.8080 -0.6012 0.902 0.417 0.116 174 153 133 0 0
-0.5721 0.8479 -0.5916 0.768 0.433 0.473 195 176 159 0 0
-0.5648 0.8874 -0.5739 0.684 0.563 0.464 192 175 159 0 0
-0.5687 0.8921 -0.5742 0.933 0.029 0.359 190 172 152 0 0
-0.5747 0.8991 -0.5747 0.713 -0.618 -0.331 188 167 148 0 0
-0.5706 0.9251 -0.5634 0.731 -0.519 -0.442 177 151 130 0 0
-0.5594 0.9562 -0.5466 0.842 0.537 -0.053 182 160 139 0 0
-0.5598 0.9586 -0.5460 0.863 0.433 0.260 177 155 132 0 0
-0.5592 0.9862 -0.5359 0.702 0.703 0.112 190 171 150 0 0
-0.5661 0.9959 -0.5359 0.273 0.106 0.956 187 166 146 0 0
-0.5691 0.9983 -0.5366 0.210 0.291 0.933 188 170 151 0 0
-0.5642 1.0431 -0.5181 0.920 0.177 0.350 179 156 136 0 0
-0.5647 1.0456 -0.5175 0.887 0.078 0.455 174 150 130 0 0
-0.5681 1.0925 -0.5026 0.805 -0.185 0.563 180 159 141 0 0
-0.5671 1.0949 -0.5012 0.765 0.344 0.545 176 154 136 0 0
-0.5585 1.0993 -0.4952 0.958 0.094 -0.271 168 145 125 0 0
-0.5502 1.1754 -0.4640 0.323 0.936 0.139 172 148 129 0 0
-0.5548 1.1784 -0.4652 0.359 0.821 0.444 171 147 127 0 0
-0.5556 1.1809 -0.4648 0.219 0.349 0.911 174 152 132 0 0
-0.5568 1.1834 -0.4645 0.821 0.071 0.567 181 160 143 0 0
-0.5586 1.1860 -0.4645 0.861 -0.103 0.498 187 168 152 0 0
-0.5631 1.2034 -0.4606 0.776 -0.613 0.150 170 150 132 0 0
-0.5562 1.2047 -0.4566 0.846 0.319 0.427 172 152 134 0 0
-0.5583 1.2074 -0.4567 0.930 0.068 0.361 173 153 136 0 0
-0.5573 1.2096 -0.4554 0.969 0.240 0.062 177 157 142 0 0
-0.5580 1.2145 -0.4540 0.965 0.138 0.223 178 157 139 0 0
-0.5601 1.2172 -0.4542 0.991 -0.135 0.002 177 155 138 0 0
-0.5656 1.2252 -0.4541 0.645 0.669 0.369 181 160 140 0 0
-0.5476 1.2550 -0.4343 0.682 -0.006 0.731 169 148 131 0 0
-0.5482 1.2575 -0.4337 0.721 -0.170 0.672 174 152 137 0 0
-0.5486 1.2599 -0.4331 0.987 -0.090 0.136 173 153 137 0 0
-0.5489 1.2623 -0.4324 1.000 -0.023 0.009 169 149 131 0 0
-0.5703 1.2712 -0.4401 0.544 -0.474 0.693 166 144 128 0 0
-0.5721 1.3468 -0.4142 0.717 0.495 0.491 158 136 123 0 0
-0.5669 1.3640 -0.4054 0.999 0.036 0.034 156 135 118 0 0
-0.5816 1.4263 -0.3907 0.813 -0.548 0.196 171 153 134 0 0
-0.5624 1.5215 -0.3471 0.814 -0.548 0.195 165 144 127 0 0
-0.5622 1.5236 -0.3462 0.573 0.065 0.817 162 141 124 0 0
-0.5631 1.5263 -0.3458 0.375 0.007 0.927 161 140 123 0 0
-0.5763 1.5497 -0.3442 0.501 0.129 0.856 163 144 126 0 0
-0.5774 1.5524 -0.3438 0.783 -0.064 0.618 165 145 127 0 0
-0.5582 1.5903 -0.3205 0.607 0.229 0.761 148 126 111 0 0
-0.5649 1.5956 -0.3220 0.860 0.435 0.267 155 134 117 0 0
-0.5636 1.6191 -0.3130 0.539 0.733 0.415 165 143 125 0 0
-0.5621 1.6315 -0.3078 0.090 -0.036 0.995 173 154 138 0 0
-0.5533 1.7211 -0.2714 0.512 0.465 0.722 161 140 121 0 0
-0.5554 1.7244 -0.2713 0.472 0.615 0.632 162 141 122 0 0
-0.5632 1.7310 -0.2729 0.421 0.701 0.575 165 145 125 0 0
-0.5731 1.7390 -0.2752 0.366 0.683 0.632 162 144 122 0 0
-0.5620 1.7346 -0.2711 0.616 0.768 -0.174 161 142 121 0 0
-0.5734 1.7434 -0.2738 0.635 0.744 -0.208 158 138 117 0 0
-0.5679 1.7508 -0.2683 0.586 0.768 0.261 142 122 102 0 0
-0.5446 0.4301 -0.7293 0.786 -0.608 -0.117 174 154 131 0 0
-0.5495 0.4799 -0.7141 0.264 -0.752 0.604 160 137 116 0 0
-0.5561 0.5480 -0.6933 0.587 -0.807 -0.063 182 163 144 0 0
-0.5385 0.5603 -0.6798 0.865 -0.124 -0.487 187 166 148 0 0
-0.5475 0.6396 -0.6562 0.832 -0.461 0.308 188 171 155 0 0
-0.5449 0.6563 -0.6490 0.862 0.399 0.313 187 168 150 0 0
-0.5523 0.7900 -0.6051 0.835 0.550 0.019 186 166 147 0 0
-0.5531 0.7924 -0.6047 0.932 0.344 -0.118 191 172 155 0 0
-0.5545 0.7947 -0.6046 0.981 -0.107 0.159 190 171 156 0 0
-0.5363 0.9138 -0.5529 0.791 0.588 0.169 185 162 144 0 0
-0.5474 0.9177 -0.5572 0.370 -0.016 0.929 185 163 142 0 0
-0.5405 0.9728 -0.5340 0.203 -0.209 0.957 166 140 119 0 0
-0.5592 1.0142 -0.5289 0.937 0.301 -0.179 191 173 157 0 0
-0.5597 1.0192 -0.5273 0.808 0.507 0.302 199 185 170 0 0
-0.5636 1.0464 -0.5197 0.720 0.105 0.686 168 141 119 0 0
-0.5607 1.0488 -0.5173 0.749 -0.611 0.258 167 140 119 0 0
-0.5515 1.1764 -0.4672 0.369 0.929 -0.036 181 163 145 0 0
-0.5556 1.1793 -0.4682 0.439 0.888 0.137 182 163 145 0 0
-0.5534 1.1814 -0.4664 0.178 0.260 0.949 183 165 148 0 0
-0.5528 1.2004 -0.4593 0.770 -0.558 0.311 168 147 131 0 0
-0.5572 1.2081 -0.4588 0.928 0.371 -0.045 163 140 122 0 0
-0.5573 1.2105 -0.4580 0.930 0.193 -0.313 167 145 127 0 0
-0.5573 1.2129 -0.4572 0.999 0.025 0.026 168 145 128 0 0
-0.5592 1.2203 -0.4555 0.825 0.015 0.565 173 150 132 0 0
-0.5617 1.2538 -0.4448 0.754 -0.290 -0.590 172 153 134 0 0
-0.5467 1.2557 -0.4365 0.949 -0.125 0.291 173 155 138 0 0
-0.5488 1.2584 -0.4366 0.995 -0.023 -0.098 175 157 141 0 0
-0.5486 1.2607 -0.4357 0.995 -0.023 -0.098 176 158 142 0 0
-0.5484 1.2630 -0.4347 0.975 -0.153 -0.162 174 153 139 0 0
-0.5478 1.2653 -0.4337 0.975 -0.153 -0.162 170 149 134 0 0
-0.5493 1.2725 -0.4318 0.918 0.116 0.379 169 147 130 0 0
-0.5567 1.3229 -0.4177 0.728 -0.514 0.454 172 151 134 0 0
-0.5684 1.3468 -0.4152 0.987 0.157 0.043 161 141 127 0 0
-0.5690 1.3493 -0.4146 0.989 0.030 0.143 160 139 123 0 0
-0.5650 1.3667 -0.4063 0.957 -0.208 0.200 160 141 123 0 0
-0.5668 1.3696 -0.4063 0.811 0.571 0.128 166 148 130 0 0
-0.5725 1.3735 -0.4078 0.680 0.680 0.274 172 153 137 0 0
-0.5638 1.3963 -0.3952 0.733 0.273 0.623 185 168 152 0 0
-0.5582 1.5230 -0.3472 0.348 0.136 0.928 162 141 124 0 0
-0.5599 1.5259 -0.3471 0.375 0.007 0.927 162 141 124 0 0
-0.5504 1.5242 -0.3428 0.553 -0.833 -0.022 165 144 127 0 0
-0.5677 1.5336 -0.3483 0.258 0.091 0.962 164 143 126 0 0
-0.5691 1.5364 -0.3481 0.190 -0.007 0.982 164 144 126 0 0
-0.5727 1.5469 -0.3462 0.220 0.581 0.784 168 149 133 0 0
-0.5743 1.5498 -0.3459 0.418 0.139 0.898 169 151 135 0 0
-0.5766 1.5530 -0.3460 0.510 -0.174 0.842 171 153 137 0 0
-0.5592 1.6289 -0.3101 0.007 -0.123 0.992 176 158 141 0 0
-0.5497 1.7201 -0.2727 0.528 0.367 0.766 160 140 119 0 0
-0.5571 1.7286 -0.2735 0.372 0.669 0.643 163 143 123 0 0
-0.5689 1.7525 -0.2710 0.577 0.779 0.245 148 127 108 0 0
-0.5146 0.3258 -0.7542 0.671 0.123 -0.732 183 164 145 0 0
-0.5160 0.3277 -0.7542 0.625 0.266 -0.734 183 164 144 0 0
-0.5160 0.4205 -0.7211 0.247 0.488 0.837 165 143 120 0 0
-0.5182 0.4221 -0.7217 0.165 0.433 0.886 167 145 125 0 0
-0.5361 0.4266 -0.7293 0.511 0.843 0.169 176 157 133 0 0
-0.5359 0.4321 -0.7273 0.807 -0.572 -0.148 175 155 132 0 0
-0.5412 0.4322 -0.7299 0.596 -0.789 0.146 173 154 132 0 0
-0.5545 0.5438 -0.6971 0.725 -0.680 -0.109 176 154 134 0 0
-0.5380 0.5584 -0.6833 0.748 0.127 0.652 183 163 141 0 0
-0.5424 0.5593 -0.6853 0.987 0.153 -0.039 183 163 144 0 0
-0.5470 0.6404 -0.6588 0.822 -0.525 0.221 185 166 150 0 0
-0.5422 0.6472 -0.6539 0.913 -0.155 0.378 185 168 149 0 0
-0.5420 0.6499 -0.6528 0.870 0.456 0.188 187 169 149 0 0
-0.5362 0.9145 -0.5556 0.917 0.232 0.325 188 167 148 0 0
-0.5378 0.9168 -0.5555 0.757 0.620 0.208 186 165 145 0 0
-0.5436 0.9511 -0.5463 0.905 -0.402 0.141 184 161 141 0 0
-0.5545 0.9953 -0.5362 0.240 0.616 0.750 186 167 148 0 0
-0.5580 0.9977 -0.5371 0.234 0.044 0.971 186 166 148 0 0
-0.5567 1.0126 -0.5312 0.950 -0.251 0.186 188 168 150 0 0
-0.5565 1.0150 -0.5302 0.971 -0.183 -0.152 189 170 155 0 0
-0.5542 1.0200 -0.5272 0.580 -0.144 0.802 196 181 166 0 0
-0.5604 1.0447 -0.5216 0.635 -0.332 0.697 178 155 136 0 0
-0.5602 1.0471 -0.5206 0.635 -0.332 0.697 169 143 123 0 0
-0.5464 1.1719 -0.4691 0.823 0.368 0.432 184 165 147 0 0
-0.5458 1.1742 -0.4680 0.336 0.936 0.103 189 173 157 0 0
-0.5543 1.1776 -0.4711 0.362 0.932 0.029 194 180 164 0 0
-0.5562 1.1802 -0.4712 0.429 0.886 0.178 196 180 166 0 0
-0.5547 1.2038 -0.4620 0.833 -0.036 0.552 162 137 121 0 0
-0.5577 1.2090 -0.4617 0.928 0.371 -0.045 158 132 115 0 0
-0.5577 1.2114 -0.4608 0.888 -0.459 0.009 158 133 115 0 0
-0.5555 1.2134 -0.4590 0.898 0.049 0.437 163 136 120 0 0
-0.5561 1.2159 -0.4584 0.916 0.099 0.390 164 138 121 0 0
-0.5572 1.2185 -0.4581 0.826 -0.208 0.523 165 139 123 0 0
-0.5577 1.2209 -0.4574 0.788 -0.143 0.599 167 142 124 0 0
-0.5636 1.2551 -0.4483 0.792 -0.160 -0.589 178 160 145 0 0
-0.5478 1.2661 -0.4362 0.929 -0.367 0.054 172 151 136 0 0
-0.5563 1.3284 -0.4184 0.884 -0.401 0.242 160 139 124 0 0
-0.5552 1.3327 -0.4163 0.949 -0.161 0.272 163 143 129 0 0
-0.5528 1.3344 -0.4145 0.976 -0.138 0.170 165 144 130 0 0
-0.5679 1.3452 -0.4184 0.666 0.333 0.667 167 147 133 0 0
-0.5674 1.3474 -0.4174 0.877 0.337 0.342 165 147 132 0 0
-0.5624 1.3484 -0.4144 0.977 0.028 -0.210 165 145 131 0 0
-0.5595 1.3500 -0.4124 0.992 -0.118 0.038 161 141 127 0 0
-0.5630 1.3648 -0.4089 0.797 -0.570 -0.197 163 142 125 0 0
-0.5643 1.3675 -0.4086 0.975 -0.197 0.099 168 150 132 0 0
-0.5695 1.3713 -0.4100 0.804 0.594 0.041 173 156 139 0 0
-0.5623 1.3968 -0.3972 0.733 0.273 0.623 182 164 149 0 0
-0.5659 1.4025 -0.3970 0.627 0.452 0.635 183 165 150 0 0
-0.5672 1.4052 -0.3967 0.613 0.558 0.560 185 167 153 0 0
-0.5702 1.4084 -0.3971 0.597 0.592 0.541 185 168 153 0 0
-0.5673 1.4691 -0.3739 0.875 -0.077 0.477 183 164 150 0 0
-0.5479 1.4977 -0.3538 0.745 0.523 0.415 179 162 147 0 0
-0.5555 1.5229 -0.3487 0.352 -0.014 0.936 161 140 123 0 0
-0.5521 1.5237 -0.3467 0.984 0.178 0.030 168 148 131 0 0
-0.5492 1.5247 -0.3448 0.771 -0.613 -0.174 169 149 132 0 0
-0.5417 1.5304 -0.3390 0.163 0.656 0.737 169 150 133 0 0
-0.5574 1.5392 -0.3439 0.115 0.558 0.822 168 150 131 0 0
-0.5688 1.5484 -0.3465 -0.046 -0.162 0.986 173 156 139 0 0
-0.5701 1.5512 -0.3461 -0.019 -0.179 0.984 176 158 143 0 0
-0.5473 1.5633 -0.3301 0.924 -0.162 -0.346 179 163 145 0 0
-0.5585 1.5749 -0.3317 0.937 0.348 0.018 163 147 129 0 0
-0.5353 1.6009 -0.3105 0.525 0.787 0.325 140 120 99 0 0
-0.5430 1.6068 -0.3124 0.527 0.780 0.336 145 124 103 0 0
-0.5503 1.6125 -0.3141 0.527 0.780 0.336 151 130 110 0 0
-0.5634 1.6211 -0.3178 0.541 0.726 0.425 160 140 120 0 0
-0.5548 1.6665 -0.2972 0.697 0.689 0.197 151 128 110 0 0
-0.5665 1.6770 -0.2995 0.707 0.698 0.112 154 133 113 0 0
-0.5502 1.7214 -0.2753 0.652 0.099 0.752 158 137 116 0 0
-0.5577 1.7279 -0.2768 0.981 0.180 -0.069 161 140 120 0 0
-0.5703 1.7437 -0.2777 0.853 0.451 -0.263 163 144 122 0 0
-0.5695 1.7454 -0.2767 0.605 -0.783 -0.144 162 142 120 0 0
-0.5595 1.7459 -0.2713 0.581 0.770 0.263 156 136 116 0 0
-0.5114 0.4180 -0.7227 0.861 -0.084 0.501 161 139 116 0 0
-0.5117 0.4205 -0.7220 0.532 0.649 0.544 165 143 121 0 0
-0.5135 0.4223 -0.7223 0.532 0.649 0.544 171 149 128 0 0
-0.5165 0.4235 -0.7234 0.373 0.444 0.815 175 156 133 0 0
-0.5362 0.4325 -0.7304 0.753 -0.654 -0.071 179 161 139 0 0
-0.5418 0.4953 -0.7109 0.725 -0.492 0.483 174 153 134 0 0
-0.5536 0.5447 -0.6994 0.745 -0.635 -0.203 173 151 129 0 0
-0.5450 0.9219 -0.5604 0.486 0.197 0.852 187 165 144 0 0
-0.5416 0.9247 -0.5577 0.871 -0.069 0.486 184 161 141 0 0
-0.5437 0.9270 -0.5579 0.579 -0.176 0.796 182 160 137 0 0
-0.5548 0.9336 -0.5613 0.780 0.171 0.602 183 161 139 0 0
-0.5541 0.9387 -0.5592 0.809 -0.464 0.359 189 167 145 0 0
-0.5584 0.9459 -0.5588 0.895 -0.423 0.142 184 163 141 0 0
-0.5421 0.9520 -0.5482 0.893 -0.329 0.306 184 162 141 0 0
-0.5506 0.9539 -0.5519 0.960 -0.277 -0.034 182 160 140 0 0
-0.5437 0.9938 -0.5341 0.476 0.488 0.732 182 161 140 0 0
-0.5570 1.0158 -0.5332 0.953 0.159 0.259 186 165 147 0 0
-0.5629 1.0504 -0.5239 -0.091 0.178 0.980 169 142 123 0 0
-0.5685 1.1560 -0.4891 0.598 0.683 0.420 177 158 141 0 0
-0.5711 1.1587 -0.4895 0.711 0.619 0.334 181 162 144 0 0
-0.5748 1.1616 -0.4904 0.658 0.732 0.178 179 160 140 0 0
-0.5445 1.1725 -0.4708 0.875 0.077 0.479 189 173 155 0 0
-0.5423 1.1746 -0.4689 0.234 0.865 0.443 194 180 163 0 0
-0.5495 1.1779 -0.4715 0.234 0.865 0.443 199 185 171 0 0
-0.5553 1.2166 -0.4606 0.750 -0.022 0.661 162 136 119 0 0
-0.5565 1.2192 -0.4603 0.743 -0.413 0.527 163 137 121 0 0
-0.5650 1.2562 -0.4516 0.797 -0.329 -0.506 183 165 150 0 0
-0.5542 1.3334 -0.4185 0.873 -0.364 0.324 157 135 121 0 0
-0.5515 1.3350 -0.4165 0.990 0.033 0.137 161 139 126 0 0
-0.5504 1.3393 -0.4144 0.731 -0.650 0.209 165 144 130 0 0
-0.5631 1.3495 -0.4173 0.982 -0.151 0.114 173 156 140 0 0
-0.5653 1.3687 -0.4116 0.942 -0.085 0.326 173 156 139 0 0
-0.5584 1.4871 -0.3658 0.647 0.678 -0.349 161 139 124 0 0
-0.5633 1.4912 -0.3669 0.647 0.678 -0.349 161 140 124 0 0
-0.5502 1.5217 -0.3492 0.873 -0.411 0.262 161 140 123 0 0
-0.5508 1.5241 -0.3487 0.879 0.476 0.016 166 147 130 0 0
-0.5503 1.5261 -0.3477 0.968 0.086 -0.235 172 152 135 0 0
-0.5602 1.5391 -0.3482 0.029 -0.070 0.997 173 156 139 0 0
-0.5478 1.5623 -0.3335 0.855 -0.462 0.235 183 166 151 0 0
-0.5353 1.6019 -0.3129 0.525 0.787 0.325 133 112 92 0 0
-0.5429 1.6077 -0.3148 0.527 0.780 0.336 138 118 97 0 0
-0.5499 1.6133 -0.3164 0.592 0.761 0.266 145 125 104 0 0
-0.5626 1.6217 -0.3200 0.505 0.753 0.422 154 133 111 0 0
-0.5436 1.6467 -0.3012 0.661 0.736 0.142 165 144 129 0 0
-0.5529 1.6536 -0.3036 0.583 0.732 0.352 164 144 129 0 0
-0.5601 1.6595 -0.3052 0.592 0.779 0.206 164 145 129 0 0
-0.5554 1.6679 -0.2998 0.697 0.689 0.197 160 140 123 0 0
-0.5629 1.6740 -0.3015 0.731 0.670 0.129 162 143 124 0 0
-0.5442 1.6980 -0.2833 0.271 0.628 0.730 131 110 93 0 0
-0.5824 1.7302 -0.2916 0.655 0.566 0.500 136 115 95 0 0
-0.5564 1.7281 -0.2788 0.773 0.071 0.631 156 135 116 0 0
-0.5601 1.7473 -0.2739 0.661 0.750 0.002 160 139 120 0 0
-0.5138 0.4090 -0.7303 0.820 -0.473 0.321 163 139 117 0 0
-0.5101 0.4164 -0.7257 0.861 -0.048 0.506 163 142 118 0 0
-0.5101 0.4191 -0.7247 0.861 -0.084 0.501 167 143 120 0 0
-0.5104 0.4216 -0.7240 0.812 0.488 0.321 168 147 124 0 0
-0.5117 0.4237 -0.7239 0.812 0.488 0.321 175 155 136 0 0
-0.5043 0.4302 -0.7177 0.879 0.358 -0.314 180 162 141 0 0
-0.5206 0.4515 -0.7186 0.615 -0.697 0.369 173 152 130 0 0
-0.5609 0.4984 -0.7229 -0.092 0.215 0.972 190 173 154 0 0
-0.5328 0.6540 -0.6527 0.838 0.211 0.504 185 167 147 0 0
-0.5251 0.7440 -0.6165 0.444 0.878 0.179 193 177 160 0 0
-0.5389 0.8505 -0.5858 0.980 -0.115 -0.163 193 175 157 0 0
-0.5351 0.8561 -0.5818 0.578 0.776 -0.252 200 183 166 0 0
-0.5340 0.8587 -0.5803 0.717 0.681 -0.146 201 184 168 0 0
-0.5368 0.9258 -0.5578 0.826 0.560 0.062 180 158 137 0 0
-0.5395 0.9281 -0.5584 0.821 0.541 0.182 181 159 136 0 0
-0.5593 0.9365 -0.5656 0.797 0.337 0.501 187 166 145 0 0
-0.5504 0.9547 -0.5546 0.836 -0.506 -0.212 180 158 136 0 0
-0.5489 0.9573 -0.5528 0.778 -0.628 0.002 179 157 133 0 0
-0.5422 0.9823 -0.5404 0.444 -0.731 0.519 179 158 137 0 0
-0.5344 1.0627 -0.5077 0.933 0.207 -0.295 176 153 136 0 0
-0.5648 1.1029 -0.5091 0.836 0.449 -0.317 147 123 105 0 0
-0.5658 1.1054 -0.5087 0.720 0.691 -0.055 155 131 113 0 0
-0.5656 1.1079 -0.5078 0.976 0.186 0.114 159 136 117 0 0
-0.5663 1.1226 -0.5029 0.492 -0.322 0.809 156 132 114 0 0
-0.5696 1.1570 -0.4923 0.674 0.636 0.375 183 162 145 0 0
-0.5721 1.1597 -0.4927 0.681 0.669 0.298 186 167 152 0 0
-0.5750 1.1624 -0.4932 0.658 0.732 0.178 186 168 152 0 0
-0.5400 1.1704 -0.4721 0.451 -0.657 0.605 184 167 149 0 0
-0.5405 1.1728 -0.4715 0.564 -0.275 0.778 189 173 156 0 0
-0.5495 1.1835 -0.4724 0.283 0.468 0.837 195 180 165 0 0
-0.5640 1.2356 -0.4614 0.418 -0.479 0.772 192 175 158 0 0
-0.5715 1.2488 -0.4605 0.865 -0.192 0.464 194 177 161 0 0
-0.5711 1.2511 -0.4595 0.894 -0.352 0.276 194 176 161 0 0
-0.5705 1.2534 -0.4584 0.893 -0.451 0.012 194 175 160 0 0
-0.5702 1.2557 -0.4574 0.950 -0.311 0.015 186 169 152 0 0
-0.5392 1.3122 -0.4211 0.489 0.807 0.332 175 153 137 0 0
-0.5512 1.3358 -0.4189 0.951 -0.167 0.259 149 128 113 0 0
-0.5496 1.3377 -0.4174 0.956 -0.245 0.162 152 131 117 0 0
-0.5626 1.3503 -0.4197 0.773 -0.487 0.405 179 164 150 0 0
-0.5587 1.3516 -0.4172 0.966 -0.157 -0.203 180 165 152 0 0
-0.5541 1.4528 -0.3787 0.597 0.078 0.799 170 148 134 0 0
-0.5569 1.4560 -0.3790 0.835 -0.312 0.453 166 144 128 0 0
-0.5570 1.4583 -0.3782 0.772 -0.308 0.556 159 136 119 0 0
-0.5665 1.5024 -0.3674 0.746 -0.338 -0.574 177 160 144 0 0
-0.5497 1.5246 -0.3507 0.923 -0.350 0.163 168 149 132 0 0
-0.5490 1.5266 -0.3497 0.740 -0.592 0.321 171 153 137 0 0
-0.5464 1.5277 -0.3480 0.613 -0.738 -0.282 175 158 140 0 0
-0.5546 1.5377 -0.3486 0.066 0.080 0.995 178 160 145 0 0
-0.5722 1.6186 -0.3289 0.521 -0.756 0.396 121 100 81 0 0
-0.5362 1.6033 -0.3156 0.618 0.779 0.103 126 105 84 0 0
-0.5428 1.6087 -0.3171 0.597 0.783 0.175 132 112 92 0 0
-0.5503 1.6145 -0.3190 0.606 0.769 0.206 139 119 100 0 0
-0.5660 1.6244 -0.3236 0.663 0.732 0.158 147 126 105 0 0
-0.5463 1.6512 -0.3038 0.455 0.757 0.470 168 149 131 0 0
-0.5560 1.6584 -0.3063 0.497 0.791 0.356 165 146 128 0 0
-0.5517 1.6648 -0.3018 0.702 0.710 0.061 167 148 133 0 0
-0.5560 1.6692 -0.3024 0.697 0.689 0.197 168 150 134 0 0
-0.5601 1.6736 -0.3030 0.697 0.689 0.197 169 152 134 0 0
-0.5619 1.7196 -0.2875 0.554 -0.066 -0.830 133 112 94 0 0
-0.5548 1.7283 -0.2807 0.773 0.071 0.631 152 131 114 0 0
-0.5664 1.7415 -0.2821 0.399 0.649 0.648 160 139 119 0 0
-0.5638 1.7506 -0.2774 0.661 0.750 0.002 155 136 116 0 0
-0.5119 0.4105 -0.7318 0.748 -0.495 0.441 161 139 115 0 0
-0.5113 0.4136 -0.7304 0.832 -0.358 0.424 161 139 116 0 0
-0.5105 0.4167 -0.7289 0.781 -0.313 0.541 163 141 118 0 0
-0.5089 0.4202 -0.7268 0.760 -0.213 0.614 167 145 122 0 0
-0.5066 0.4696 -0.7079 0.811 -0.551 0.198 177 158 136 0 0
-0.5465 0.5513 -0.6996 0.630 -0.772 -0.086 182 163 141 0 0
-0.5285 0.6114 -0.6687 0.459 0.166 0.873 182 163 142 0 0
-0.5288 0.6139 -0.6680 0.393 0.711 0.583 182 162 143 0 0
-0.5317 0.6155 -0.6689 0.467 0.657 0.591 183 165 145 0 0
-0.5348 0.6171 -0.6700 0.609 0.356 0.708 185 168 149 0 0
-0.5300 0.6528 -0.6547 0.737 0.605 0.301 187 170 149 0 0
-0.5483 0.6735 -0.6569 0.871 0.357 0.338 192 173 156 0 0
-0.5443 0.7348 -0.6329 0.406 -0.914 0.005 195 177 160 0 0
-0.5197 0.7434 -0.6169 0.642 0.764 0.058 198 182 167 0 0
-0.5254 0.7446 -0.6195 0.476 0.875 0.087 200 185 170 0 0
-0.5292 0.7462 -0.6210 0.362 0.914 0.181 202 187 172 0 0
-0.5350 0.8189 -0.5980 0.433 0.725 0.536 202 187 172 0 0
-0.5362 0.8566 -0.5852 0.849 0.512 -0.125 200 183 166 0 0
-0.5244 0.8757 -0.5721 0.407 0.897 -0.171 200 183 166 0 0
-0.5286 0.8777 -0.5736 0.473 0.880 -0.040 196 179 161 0 0
-0.5360 0.9216 -0.5618 0.269 0.106 0.957 183 161 141 0 0
-0.5394 0.9288 -0.5611 0.821 0.541 0.182 178 156 133 0 0
-0.5585 0.9373 -0.5680 0.676 0.566 0.472 190 169 149 0 0
-0.5547 0.9476 -0.5623 0.788 -0.616 -0.005 187 165 146 0 0
-0.5517 0.9553 -0.5580 0.522 -0.785 0.332 179 157 135 0 0
-0.5353 1.0635 -0.5108 0.940 0.096 0.328 175 155 136 0 0
-0.5382 1.0708 -0.5097 0.850 -0.033 0.526 169 148 130 0 0
-0.5380 1.0732 -0.5087 0.920 0.249 0.303 170 150 135 0 0
-0.5383 1.0757 -0.5080 0.833 0.395 0.387 170 150 134 0 0
-0.5664 1.1038 -0.5126 0.882 0.412 -0.230 157 131 114 0 0
-0.5668 1.1137 -0.5093 0.374 -0.634 0.678 166 140 123 0 0
-0.5649 1.1160 -0.5075 0.407 -0.486 0.773 159 134 116 0 0
-0.5376 1.1804 -0.4702 0.603 -0.414 0.682 186 170 154 0 0
-0.5373 1.1827 -0.4692 0.629 -0.082 0.773 187 170 154 0 0
-0.5656 1.2319 -0.4664 0.145 -0.157 0.977 190 171 154 0 0
-0.5650 1.2342 -0.4653 0.152 -0.040 0.988 191 174 158 0 0
-0.5641 1.2364 -0.4641 0.277 -0.177 0.944 192 175 159 0 0
-0.5358 1.3099 -0.4230 0.413 0.864 0.289 172 150 133 0 0
-0.5433 1.3140 -0.4255 0.450 0.807 0.382 170 147 131 0 0
-0.5484 1.3383 -0.4195 0.862 -0.014 0.507 144 122 109 0 0
-0.5489 1.3407 -0.4189 0.810 -0.504 0.299 153 131 116 0 0
-0.5598 1.3528 -0.4203 0.991 -0.124 0.047 184 170 158 0 0
-0.5542 1.4560 -0.3804 0.844 -0.358 0.400 164 141 125 0 0
-0.5561 1.4589 -0.3804 0.944 -0.313 0.107 158 135 119 0 0
-0.5578 1.4618 -0.3802 0.991 0.124 -0.051 149 126 109 0 0
-0.5635 1.4661 -0.3817 0.836 0.385 -0.391 149 125 108 0 0
-0.5686 1.5042 -0.3707 0.754 -0.261 -0.603 169 148 130 0 0
-0.5362 1.6044 -0.3180 0.693 0.582 -0.426 122 101 82 0 0
-0.5569 1.6188 -0.3237 0.721 0.672 -0.169 133 111 93 0 0
-0.5359 1.6405 -0.3050 0.785 0.464 0.411 170 152 136 0 0
-0.5396 1.6467 -0.3047 0.516 0.807 0.285 169 152 135 0 0
-0.5477 1.6530 -0.3067 0.496 0.773 0.396 168 150 132 0 0
-0.5551 1.6590 -0.3084 0.465 0.783 0.413 168 149 133 0 0
-0.5434 1.6571 -0.3029 0.367 0.312 0.877 165 147 129 0 0
-0.5620 1.6971 -0.2984 0.882 -0.461 0.097 154 133 114 0 0
-0.5775 1.7274 -0.2957 0.520 0.590 0.618 129 108 89 0 0
-0.5660 1.7252 -0.2905 0.507 -0.229 -0.831 133 113 93 0 0
-0.5630 1.7256 -0.2888 0.507 -0.229 -0.831 136 115 98 0 0
-0.5554 1.7297 -0.2833 0.951 0.139 0.276 145 124 106 0 0
-0.5706 1.7428 -0.2865 0.935 0.355 0.006 151 130 113 0 0
-0.5109 0.4115 -0.7340 0.962 -0.192 0.193 165 143 119 0 0
-0.5098 0.4148 -0.7322 0.832 -0.358 0.424 164 142 119 0 0
-0.5092 0.4178 -0.7308 0.832 -0.358 0.424 166 144 123 0 0
-0.5086 0.4208 -0.7295 0.832 -0.358 0.424 175 154 133 0 0
-0.5085 0.4236 -0.7284 0.844 -0.175 0.507 179 160 138 0 0
-0.5085 0.4262 -0.7275 0.844 -0.175 0.507 180 162 142 0 0
-0.4983 0.4741 -0.7050 0.690 -0.343 0.637 170 149 128 0 0
-0.5294 0.6169 -0.6703 0.441 0.820 0.363 186 168 150 0 0
-0.5358 0.6226 -0.6716 0.924 0.362 0.128 191 174 156 0 0
-0.5337 0.6444 -0.6627 0.537 -0.810 -0.235 184 166 147 0 0
-0.5146 0.7427 -0.6176 0.759 0.582 -0.291 195 179 161 0 0
-0.5192 0.7441 -0.6194 0.709 0.683 -0.175 197 183 165 0 0
-0.5247 0.7453 -0.6219 0.508 0.861 -0.010 201 187 172 0 0
-0.5298 0.7467 -0.6241 0.375 0.925 0.071 202 188 174 0 0
-0.5337 0.7483 -0.6255 0.311 0.922 0.229 202 188 175 0 0
-0.5277 0.7854 -0.6091 0.961 -0.115 -0.250 198 181 163 0 0
-0.5391 0.8214 -0.6023 0.450 0.818 0.360 202 186 171 0 0
-0.5274 0.8760 -0.5766 0.397 0.916 -0.052 200 183 166 0 0
-0.5307 0.8781 -0.5776 0.642 0.760 -0.096 199 183 167 0 0
-0.5376 0.8797 -0.5806 0.379 0.790 0.481 197 179 163 0 0
-0.5412 0.8818 -0.5818 0.395 0.709 0.584 195 177 160 0 0
-0.5356 0.9890 -0.5405 0.244 -0.651 0.719 183 165 148 0 0
-0.5353 1.0739 -0.5100 0.892 0.305 0.334 161 139 125 0 0
-0.5363 1.0860 -0.5062 0.973 0.040 0.225 168 145 131 0 0
-0.5364 1.0884 -0.5054 0.897 0.228 0.380 168 145 129 0 0
-0.5373 1.0908 -0.5050 0.864 0.444 0.238 173 152 135 0 0
-0.5636 1.1045 -0.5139 0.886 0.376 0.271 165 140 122 0 0
-0.5621 1.1166 -0.5088 0.524 -0.736 0.429 164 140 122 0 0
-0.5357 1.1810 -0.4719 0.539 -0.475 0.696 178 157 141 0 0
-0.5294 1.1895 -0.4656 0.630 0.493 0.600 184 167 150 0 0
-0.5422 1.1960 -0.4700 0.837 0.350 0.421 178 158 139 0 0
-0.5640 1.2254 -0.4709 0.386 -0.055 0.921 175 152 134 0 0
-0.5359 1.3108 -0.4256 0.413 0.864 0.289 167 145 127 0 0
-0.5427 1.3148 -0.4278 0.450 0.807 0.382 167 143 126 0 0
-0.5464 1.3387 -0.4212 0.638 -0.108 0.763 143 122 107 0 0
-0.5462 1.3409 -0.4203 0.588 -0.670 0.454 149 128 112 0 0
-0.5588 1.3535 -0.4224 0.993 0.105 0.043 182 168 155 0 0
-0.5546 1.4073 -0.4009 0.786 -0.151 0.600 156 135 119 0 0
-0.5548 1.4595 -0.3824 0.857 -0.507 0.090 162 139 123 0 0
-0.5581 1.4629 -0.3829 0.995 0.088 0.056 153 129 112 0 0
-0.5687 1.4939 -0.3773 0.747 0.562 -0.354 141 117 102 0 0
-0.5698 1.5057 -0.3737 0.852 -0.169 -0.496 160 138 121 0 0
-0.5471 1.5255 -0.3547 0.742 -0.618 0.259 161 141 125 0 0
-0.5449 1.5378 -0.3492 0.890 0.075 -0.449 177 159 144 0 0
-0.5453 1.5401 -0.3485 0.829 0.265 -0.493 177 159 143 0 0
-0.5388 1.6045 -0.3221 0.694 0.579 -0.426 115 94 74 0 0
-0.5423 1.6083 -0.3226 0.726 0.468 -0.503 119 98 78 0 0
-0.5594 1.6210 -0.3271 0.723 0.591 -0.358 127 104 86 0 0
-0.5418 1.6467 -0.3086 0.724 0.558 -0.405 173 155 138 0 0
-0.5362 1.6459 -0.3060 0.598 0.797 0.079 172 153 137 0 0
-0.5448 1.6525 -0.3081 0.574 0.802 0.163 170 152 134 0 0
-0.5619 1.6981 -0.3008 0.975 -0.211 -0.062 158 137 120 0 0
-0.5623 1.7005 -0.3001 0.723 -0.687 -0.070 159 138 120 0 0
-0.5769 1.7281 -0.2979 0.382 0.669 0.638 131 110 91 0 0
-0.5728 1.7301 -0.2951 0.563 -0.252 -0.787 133 113 92 0 0
-0.5555 1.7308 -0.2857 0.995 0.059 0.078 144 123 104 0 0
-0.4941 0.4739 -0.7059 0.995 -0.082 0.050 169 149 126 0 0
-0.5320 0.4747 -0.7256 0.511 0.524 -0.681 151 128 104 0 0
-0.5348 0.4761 -0.7266 0.590 0.458 -0.665 152 128 107 0 0
-0.5075 0.5364 -0.6906 0.528 0.627 -0.572 186 168 149 0 0
-0.5486 0.5489 -0.7078 0.550 -0.831 0.079 180 159 138 0 0
-0.5196 0.6521 -0.6556 0.564 -0.775 -0.286 184 165 145 0 0
-0.5298 0.7499 -0.6260 0.457 0.889 0.033 200 187 172 0 0
-0.5458 0.7539 -0.6330 0.884 -0.411 -0.223 201 186 171 0 0
-0.5438 0.7570 -0.6308 0.884 -0.411 -0.223 199 183 168 0 0
-0.5449 0.7593 -0.6306 0.795 0.598 -0.102 194 177 161 0 0
-0.5375 0.7789 -0.6196 0.904 -0.294 -0.312 193 176 158 0 0
-0.5284 0.7859 -0.6124 0.961 -0.115 -0.250 198 180 163 0 0
-0.5280 0.7886 -0.6112 0.724 -0.478 -0.498 198 181 165 0 0
-0.5517 0.8455 -0.6033 0.807 -0.179 0.563 195 177 158 0 0
-0.5319 0.8786 -0.5810 0.663 0.732 -0.153 198 181 165 0 0
-0.5360 0.8806 -0.5825 0.200 0.747 0.634 198 181 164 0 0
-0.5292 0.9063 -0.5697 0.969 0.032 0.247 183 160 141 0 0
-0.5290 0.9088 -0.5687 0.956 -0.166 0.242 186 165 146 0 0
-0.5252 0.9216 -0.5621 0.019 -0.015 1.000 184 162 142 0 0
-0.5033 0.9812 -0.5292 0.040 -0.593 0.804 196 183 168 0 0
-0.5038 0.9836 -0.5286 0.259 -0.953 0.156 197 183 167 0 0
-0.5223 0.9901 -0.5360 0.133 0.801 0.584 189 172 156 0 0
-0.5302 0.9923 -0.5394 0.281 0.335 0.899 189 171 154 0 0
-0.5326 0.9947 -0.5398 0.278 0.427 0.861 191 174 158 0 0
-0.5380 1.0141 -0.5357 0.242 0.315 0.918 180 158 138 0 0
-0.5343 1.0747 -0.5121 0.886 0.175 0.430 160 138 120 0 0
-0.5363 1.0868 -0.5089 0.939 0.343 0.008 171 150 133 0 0
-0.5371 1.0892 -0.5084 0.953 0.273 0.132 173 150 135 0 0
-0.5379 1.0917 -0.5079 0.953 0.273 0.132 175 154 138 0 0
-0.5610 1.1125 -0.5127 0.416 -0.498 0.761 168 146 128 0 0
-0.5521 1.1672 -0.4884 0.201 -0.965 0.168 186 168 154 0 0
-0.5416 1.1967 -0.4723 0.863 0.396 0.313 177 157 139 0 0
-0.5636 1.2238 -0.4742 0.529 -0.324 0.784 164 139 122 0 0
-0.5616 1.2258 -0.4724 0.502 -0.275 0.820 169 146 127 0 0
-0.5339 1.2515 -0.4486 0.127 0.568 0.813 182 163 145 0 0
-0.5460 1.2585 -0.4525 0.236 0.868 0.438 179 160 145 0 0
-0.5511 1.2618 -0.4540 0.107 0.353 0.929 180 161 145 0 0
-0.5536 1.3043 -0.4401 0.102 0.826 0.555 185 167 153 0 0
-0.5278 1.3007 -0.4278 -0.021 0.306 0.952 185 166 152 0 0
-0.5540 1.3300 -0.4312 0.607 -0.739 0.292 159 136 118 0 0
-0.5592 1.3545 -0.4251 0.951 0.253 -0.180 178 162 149 0 0
-0.5402 1.3607 -0.4129 0.865 0.021 0.502 174 156 142 0 0
-0.5395 1.3651 -0.4109 0.611 -0.066 0.789 161 142 126 0 0
-0.5393 1.3673 -0.4100 0.594 -0.021 0.804 161 142 128 0 0
-0.5539 1.4057 -0.4040 0.921 -0.389 -0.006 158 139 120 0 0
-0.5540 1.4081 -0.4032 0.885 -0.375 0.274 155 136 117 0 0
-0.5713 1.5072 -0.3768 0.856 -0.177 -0.487 157 135 119 0 0
-0.5655 1.5072 -0.3738 0.846 -0.086 -0.527 155 134 116 0 0
-0.5432 1.5358 -0.3518 0.587 0.439 0.680 173 155 140 0 0
-0.5449 1.5387 -0.3516 0.750 0.369 0.549 173 156 141 0 0
-0.5579 1.6191 -0.3298 0.730 0.046 -0.682 117 96 77 0 0
-0.5638 1.6242 -0.3311 0.755 0.549 -0.360 122 101 82 0 0
-0.5388 1.6483 -0.3092 0.599 0.794 0.104 171 153 137 0 0
-0.5386 1.6524 -0.3077 0.370 0.577 0.728 171 153 136 0 0
-0.5337 1.6520 -0.3052 0.545 0.614 0.571 169 153 135 0 0
-0.5324 1.6975 -0.2882 0.261 0.616 0.743 152 130 112 0 0
-0.5700 1.7253 -0.2982 0.319 0.622 0.715 144 124 102 0 0
-0.4939 0.4745 -0.7086 0.992 -0.015 -0.127 172 153 132 0 0
-0.4944 0.4769 -0.7080 0.971 -0.008 -0.241 177 159 137 0 0
-0.5305 0.4840 -0.7246 0.886 -0.201 -0.418 172 149 131 0 0
-0.5298 0.4870 -0.7231 0.934 0.178 -0.309 176 156 137 0 0
-0.5373 0.4863 -0.7274 0.653 0.576 -0.491 184 166 146 0 0
-0.5159 0.5360 -0.6982 0.595 0.652 -0.469 185 164 143 0 0
-0.5239 0.5380 -0.7018 -0.007 0.852 0.524 182 161 140 0 0
-0.5238 0.6514 -0.6611 0.610 -0.686 -0.397 184 163 143 0 0
-0.5444 0.7575 -0.6340 0.884 -0.411 -0.223 201 187 172 0 0
-0.5439 0.7602 -0.6328 0.754 0.651 -0.085 199 183 167 0 0
-0.5320 0.7807 -0.6191 0.894 0.388 -0.225 192 175 157 0 0
-0.5330 0.7831 -0.6188 0.864 0.337 0.374 196 180 163 0 0
-0.5382 0.8229 -0.6073 0.271 0.935 0.229 199 183 167 0 0
-0.5482 0.8417 -0.6059 0.722 0.675 0.150 204 187 170 0 0
-0.5501 0.8439 -0.6061 0.705 0.531 0.470 202 186 169 0 0
-0.5418 0.8477 -0.6003 0.402 -0.448 0.799 205 189 173 0 0
-0.5342 0.8815 -0.5842 0.215 0.857 0.469 196 178 162 0 0
-0.5289 0.9046 -0.5731 0.997 0.002 0.075 177 154 132 0 0
-0.5208 0.9909 -0.5379 0.171 0.891 0.421 193 176 161 0 0
-0.5299 0.9955 -0.5411 0.424 0.616 0.664 191 175 158 0 0
-0.5289 0.9980 -0.5396 0.719 -0.107 0.687 193 176 160 0 0
-0.5335 1.0101 -0.5378 0.482 -0.852 0.206 183 161 140 0 0
-0.5348 1.0125 -0.5376 0.489 0.397 0.777 182 160 140 0 0
-0.5367 1.0149 -0.5377 0.349 0.670 0.655 181 160 139 0 0
-0.5336 1.0850 -0.5110 0.944 -0.270 0.191 171 152 135 0 0
-0.5354 1.0899 -0.5102 0.909 0.096 0.406 176 155 138 0 0
-0.5359 1.0923 -0.5096 0.909 0.096 0.406 178 157 140 0 0
-0.5491 1.0979 -0.5146 0.208 -0.645 0.735 176 153 136 0 0
-0.5492 1.1677 -0.4897 0.276 -0.961 0.019 191 173 159 0 0
-0.5629 1.2269 -0.4757 0.278 0.214 0.936 170 145 126 0 0
-0.5355 1.2411 -0.4561 0.040 -0.269 0.962 190 171 154 0 0
-0.5446 1.2590 -0.4545 0.236 0.868 0.438 177 159 142 0 0
-0.5471 1.2619 -0.4548 0.120 0.385 0.915 179 161 146 0 0
-0.5247 1.2895 -0.4330 0.323 0.923 0.210 183 166 151 0 0
-0.5277 1.2924 -0.4336 0.496 0.662 0.562 183 166 151 0 0
-0.5457 1.3403 -0.4260 0.983 -0.180 0.044 151 129 114 0 0
-0.5449 1.3424 -0.4248 0.854 -0.505 0.128 151 128 113 0 0
-0.5374 1.3654 -0.4126 0.611 -0.066 0.789 162 143 129 0 0
-0.5373 1.3676 -0.4117 0.580 0.148 0.801 161 142 128 0 0
-0.5420 1.3712 -0.4129 0.524 0.414 0.744 165 145 132 0 0
-0.5489 1.3915 -0.4093 0.574 0.133 0.808 175 158 142 0 0
-0.5529 1.3972 -0.4094 0.565 0.768 0.302 169 150 133 0 0
-0.5541 1.4067 -0.4066 0.813 -0.054 0.580 170 151 134 0 0
-0.5540 1.4090 -0.4058 0.804 -0.227 0.550 169 151 132 0 0
-0.5581 1.4444 -0.3952 0.198 0.660 0.725 162 141 124 0 0
-0.5329 1.4468 -0.3810 0.144 0.526 0.838 170 150 133 0 0
-0.5401 1.4516 -0.3831 0.125 0.168 0.978 173 152 137 0 0
-0.5721 1.4995 -0.3830 0.760 0.106 -0.642 155 133 119 0 0
-0.5669 1.5088 -0.3769 0.788 -0.250 -0.563 154 133 116 0 0
-0.5361 1.5294 -0.3531 0.693 0.307 0.652 159 138 121 0 0
-0.5376 1.5322 -0.3529 0.660 0.198 0.725 161 142 124 0 0
-0.5404 1.5356 -0.3532 0.932 0.116 0.343 166 147 132 0 0
-0.5436 1.5392 -0.3536 0.637 0.252 0.729 169 151 135 0 0
-0.5449 1.5420 -0.3533 0.734 0.375 0.567 169 152 136 0 0
-0.5469 1.5450 -0.3533 0.662 0.504 0.555 170 152 136 0 0
-0.5435 1.6239 -0.3233 0.486 -0.546 -0.682 143 121 103 0 0
-0.5420 1.6403 -0.3166 0.733 0.504 -0.457 152 133 117 0 0
-0.5400 1.6499 -0.3120 0.526 0.738 0.423 173 155 139 0 0
-0.5394 1.6581 -0.3088 0.742 0.497 0.450 167 148 131 0 0
-0.5475 1.6645 -0.3108 0.772 0.428 0.470 164 145 126 0 0
-0.5466 1.6832 -0.3036 0.395 0.732 0.555 165 145 127 0 0
-0.5463 1.6916 -0.3004 0.740 0.611 -0.281 164 143 125 0 0
-0.5631 1.7310 -0.2953 0.770 -0.609 -0.193 142 121 102 0 0
-0.5451 1.7248 -0.2880 0.664 0.605 0.439 140 119 101 0 0
-0.4954 0.4769 -0.7115 0.957 0.057 -0.283 186 169 150 0 0
-0.5329 0.4834 -0.7292 0.835 -0.387 -0.391 178 157 136 0 0
-0.5250 0.4897 -0.7228 0.953 -0.274 -0.131 179 159 138 0 0
-0.5206 0.4945 -0.7187 0.936 -0.010 0.352 182 162 142 0 0
-0.5189 0.5352 -0.7032 0.588 0.721 -0.367 184 163 142 0 0
-0.5336 0.5613 -0.7016 0.246 -0.867 0.433 181 160 138 0 0
-0.5396 0.7618 -0.6330 0.794 -0.170 0.583 201 185 169 0 0
-0.5402 0.7642 -0.6324 0.889 -0.120 0.442 199 182 165 0 0
-0.5408 0.7667 -0.6319 0.909 0.105 0.403 198 182 166 0 0
-0.5426 0.7689 -0.6320 0.873 0.312 0.374 201 185 170 0 0
-0.5278 0.9988 -0.5418 0.914 0.039 0.404 193 176 160 0 0
-0.5300 1.0109 -0.5386 0.782 -0.622 -0.043 179 156 136 0 0
-0.5317 1.0133 -0.5386 0.542 0.829 0.138 178 156 135 0 0
-0.5341 1.0157 -0.5390 0.588 0.711 0.384 180 157 137 0 0
-0.5444 1.0936 -0.5166 0.261 -0.604 0.753 182 162 143 0 0
-0.5234 1.2604 -0.4456 0.504 0.343 0.793 181 163 147 0 0
-0.5205 1.2894 -0.4337 0.679 0.735 0.003 185 168 153 0 0
-0.5236 1.2924 -0.4342 0.848 0.309 0.431 184 166 152 0 0
-0.5231 1.2991 -0.4316 0.726 -0.681 -0.095 184 168 153 0 0
-0.5189 1.3026 -0.4281 0.930 -0.281 0.235 185 167 153 0 0
-0.5212 1.3100 -0.4267 0.312 -0.745 0.590 183 166 150 0 0
-0.5205 1.3143 -0.4248 0.276 -0.682 0.678 184 168 152 0 0
-0.5234 1.3241 -0.4228 0.429 0.859 0.281 177 157 141 0 0
-0.5374 1.3322 -0.4273 0.676 0.699 0.232 171 150 130 0 0
-0.5392 1.3349 -0.4273 0.692 0.663 0.286 167 143 125 0 0
-0.5413 1.3378 -0.4274 0.731 0.638 0.241 161 136 119 0 0
-0.5444 1.3408 -0.4280 0.853 0.488 0.186 155 133 116 0 0
-0.5445 1.3432 -0.4272 0.997 0.043 -0.066 154 132 115 0 0
-0.5518 1.4092 -0.4074 0.908 -0.308 0.284 180 163 146 0 0
-0.5303 1.4469 -0.3825 0.163 0.530 0.832 173 155 139 0 0
-0.5363 1.4512 -0.3841 0.137 0.384 0.913 175 155 138 0 0
-0.5382 1.4541 -0.3840 0.191 -0.298 0.935 177 158 140 0 0
-0.5391 1.4567 -0.3836 0.164 -0.346 0.924 176 157 139 0 0
-0.5359 1.5303 -0.3555 0.888 0.163 -0.431 156 135 118 0 0
-0.5361 1.5326 -0.3548 0.930 0.354 0.097 158 138 121 0 0
-0.5385 1.5358 -0.3549 0.972 -0.236 -0.018 161 141 125 0 0
-0.5382 1.5379 -0.3540 0.772 -0.616 -0.156 166 147 130 0 0
-0.5251 1.6157 -0.3192 0.812 0.063 -0.581 147 126 107 0 0
-0.5296 1.6200 -0.3200 0.748 0.660 0.065 150 129 111 0 0
-0.5336 1.6518 -0.3107 0.469 0.709 0.527 166 148 131 0 0
-0.5335 1.6539 -0.3100 0.624 0.736 0.262 166 147 130 0 0
-0.5388 1.6588 -0.3110 0.730 0.641 0.238 165 145 128 0 0
-0.5439 1.6892 -0.3028 0.621 0.784 -0.001 161 141 122 0 0
-0.5523 1.6960 -0.3049 0.690 0.668 -0.277 161 140 121 0 0
-0.4997 0.2610 -0.7944 0.041 0.170 0.985 152 127 105 0 0
-0.5244 0.4905 -0.7252 0.904 -0.316 -0.288 179 159 138 0 0
-0.5202 0.4951 -0.7213 0.953 0.303 0.026 179 159 138 0 0
-0.4979 0.5210 -0.7001 0.736 -0.323 -0.594 181 162 143 0 0
-0.5269 0.9995 -0.5439 0.963 0.035 0.269 192 175 159 0 0
-0.5339 1.0091 -0.5442 0.837 0.284 -0.468 180 159 138 0 0
-0.5342 1.0116 -0.5435 0.819 -0.216 -0.532 176 155 133 0 0
-0.5186 1.1634 -0.4807 0.985 0.141 -0.098 187 169 154 0 0
-0.5289 1.1974 -0.4740 0.566 -0.144 0.812 175 153 134 0 0
-0.5311 1.2047 -0.4725 0.815 -0.003 0.580 186 165 148 0 0
-0.5317 1.2072 -0.4720 0.765 -0.301 0.569 183 162 145 0 0
-0.5336 1.2098 -0.4721 0.841 -0.032 0.539 182 161 143 0 0
-0.5208 1.2607 -0.4470 0.429 0.124 0.895 174 155 139 0 0
-0.5213 1.2905 -0.4366 0.748 0.660 0.070 187 171 156 0 0
-0.5215 1.2928 -0.4358 0.699 -0.318 0.640 185 168 152 0 0
-0.5230 1.2999 -0.4341 0.888 -0.459 -0.021 183 165 151 0 0
-0.5175 1.3009 -0.4308 0.955 -0.233 0.183 183 165 151 0 0
-0.5183 1.3034 -0.4303 0.982 -0.050 0.183 183 166 151 0 0
-0.5185 1.3057 -0.4296 0.723 0.303 0.621 183 165 151 0 0
-0.5237 1.3250 -0.4255 0.229 0.792 0.565 180 161 145 0 0
-0.5388 1.3357 -0.4297 0.731 0.638 0.241 170 148 131 0 0
-0.5413 1.3386 -0.4300 0.731 0.638 0.241 165 143 126 0 0
-0.5430 1.3414 -0.4299 0.828 0.560 0.025 158 136 119 0 0
-0.5451 1.3442 -0.4300 0.930 0.238 -0.279 158 135 118 0 0
-0.5341 1.3617 -0.4179 0.493 0.031 0.869 171 153 139 0 0
-0.5506 1.4098 -0.4094 0.931 -0.195 0.308 178 160 145 0 0
-0.5226 1.4450 -0.3818 0.336 0.705 0.624 184 168 151 0 0
-0.5309 1.4502 -0.3844 0.257 0.506 0.824 182 166 149 0 0
-0.5331 1.4532 -0.3845 0.566 0.279 0.776 182 165 148 0 0
-0.5276 1.4535 -0.3815 0.431 0.848 0.307 180 161 142 0 0
-0.5160 1.5486 -0.3411 0.439 0.783 0.441 163 142 128 0 0
-0.5270 1.5556 -0.3445 0.874 0.274 0.402 162 143 127 0 0
-0.5288 1.5586 -0.3444 0.821 -0.371 0.435 161 142 127 0 0
-0.5392 1.5719 -0.3451 0.663 -0.333 -0.670 162 143 127 0 0
-0.5431 1.6106 -0.3334 0.276 0.670 0.689 127 109 88 0 0
-0.5149 1.6115 -0.3179 0.679 0.699 0.225 153 132 116 0 0
-0.5331 1.6249 -0.3229 0.321 0.641 0.698 155 133 118 0 0
-0.5339 1.6551 -0.3125 0.624 0.736 0.262 163 142 124 0 0
-0.5390 1.6599 -0.3135 0.730 0.641 0.238 164 143 124 0 0
-0.5345 1.7060 -0.2945 0.261 0.616 0.743 161 140 120 0 0
-0.5466 1.7150 -0.2978 0.261 0.616 0.743 162 141 122 0 0
-0.5589 1.7242 -0.3011 0.261 0.616 0.743 158 137 118 0 0
-0.4967 0.2634 -0.7950 0.075 0.040 0.996 148 124 103 0 0
-0.5121 0.5126 -0.7138 0.759 -0.387 -0.523 180 159 140 0 0
-0.4962 0.5822 -0.6803 0.785 -0.551 0.282 177 156 133 0 0
-0.4882 0.6947 -0.6356 0.690 0.721 0.058 189 171 154 0 0
-0.4907 0.6965 -0.6363 0.665 0.742 0.086 188 170 151 0 0
-0.4924 0.6985 -0.6364 0.760 0.640 -0.118 187 168 149 0 0
-0.4967 0.7426 -0.6229 0.815 0.311 0.489 181 160 141 0 0
-0.5146 0.7534 -0.6287 0.541 0.659 0.524 177 156 136 0 0
-0.4983 0.8144 -0.5980 0.867 -0.475 -0.149 192 174 157 0 0
-0.5320 0.8538 -0.6020 0.398 -0.427 0.812 194 176 156 0 0
-0.5270 0.9415 -0.5678 0.441 -0.259 0.859 184 162 141 0 0
-0.5257 1.0052 -0.5442 0.844 0.518 0.138 189 170 155 0 0
-0.5214 1.1010 -0.5075 0.992 0.069 -0.102 182 162 143 0 0
-0.5358 1.1282 -0.5055 0.125 -0.629 0.767 186 165 146 0 0
-0.5187 1.1619 -0.4842 0.997 -0.018 -0.070 187 170 154 0 0
-0.5192 1.1643 -0.4836 0.983 0.113 -0.145 186 169 153 0 0
-0.5268 1.2073 -0.4722 0.339 -0.416 0.844 184 163 146 0 0
-0.5281 1.2121 -0.4712 0.482 0.458 0.746 175 153 134 0 0
-0.5349 1.2272 -0.4695 0.817 0.077 0.572 168 143 123 0 0
-0.5201 1.2911 -0.4385 0.758 0.018 0.652 184 167 151 0 0
-0.5197 1.2932 -0.4376 0.759 -0.358 0.544 181 164 146 0 0
-0.5194 1.2977 -0.4358 0.771 -0.289 0.568 179 162 146 0 0
-0.5172 1.3017 -0.4332 0.989 0.136 0.054 182 164 149 0 0
-0.5176 1.3041 -0.4325 0.985 0.170 0.038 181 164 148 0 0
-0.5171 1.3062 -0.4315 0.723 0.303 0.621 181 163 149 0 0
-0.5232 1.3258 -0.4278 0.186 0.767 0.614 181 163 148 0 0
-0.5292 1.3296 -0.4296 0.208 0.756 0.621 180 161 143 0 0
-0.5312 1.3324 -0.4297 0.251 0.688 0.681 175 156 138 0 0
-0.5350 1.3356 -0.4306 0.275 0.670 0.690 174 153 134 0 0
-0.5420 1.3420 -0.4320 0.569 0.730 0.378 165 144 125 0 0
-0.5376 1.3953 -0.4105 0.635 0.066 0.769 171 152 136 0 0
-0.5487 1.4101 -0.4112 0.927 0.229 0.298 172 153 137 0 0
-0.5211 1.4454 -0.3836 0.369 0.759 0.536 187 174 158 0 0
-0.5270 1.4498 -0.3853 0.335 0.601 0.726 186 172 158 0 0
-0.5313 1.4535 -0.3862 0.662 0.413 0.625 185 169 153 0 0
-0.5334 1.4565 -0.3863 0.572 -0.023 0.820 181 162 145 0 0
-0.5448 1.4651 -0.3893 0.373 0.880 0.294 180 163 145 0 0
-0.5362 1.4775 -0.3803 0.382 0.346 0.857 178 161 143 0 0
-0.5141 1.5422 -0.3451 0.945 -0.025 0.327 171 153 137 0 0
-0.5175 1.5480 -0.3449 0.578 0.662 0.477 165 146 130 0 0
-0.5155 1.5493 -0.3433 0.444 0.778 0.444 166 144 130 0 0
-0.5249 1.5556 -0.3461 0.716 0.684 0.138 165 143 129 0 0
-0.5280 1.5592 -0.3465 0.990 -0.019 0.138 164 143 128 0 0
-0.5262 1.5605 -0.3451 0.734 -0.666 -0.132 162 143 126 0 0
-0.5380 1.6091 -0.3340 0.276 0.670 0.689 144 124 106 0 0
-0.5482 1.6163 -0.3369 0.327 0.723 0.608 145 124 106 0 0
-0.5197 1.6944 -0.2935 0.661 0.625 0.415 163 142 123 0 0
-0.5243 1.6991 -0.2943 0.668 0.693 0.271 163 142 122 0 0
-0.5272 1.7029 -0.2945 0.261 0.616 0.743 164 143 124 0 0
-0.5388 1.7116 -0.2976 0.394 0.708 0.587 164 143 124 0 0
-0.5496 1.7199 -0.3004 0.394 0.708 0.587 163 142 121 0 0
-0.4872 0.2645 -0.7926 0.754 -0.657 -0.003 150 125 104 0 0
-0.4959 0.2642 -0.7974 -0.038 -0.464 0.885 148 124 102 0 0
-0.4947 0.2678 -0.7955 -0.038 -0.464 0.885 149 124 102 0 0
-0.4947 0.2706 -0.7945 -0.028 -0.471 0.882 150 124 104 0 0
-0.4953 0.2729 -0.7939 -0.010 -0.334 0.943 153 129 108 0 0
-0.5182 0.5104 -0.7209 0.777 -0.483 -0.403 180 159 139 0 0
-0.4965 0.5826 -0.6833 0.904 -0.063 0.423 181 160 137 0 0
-0.4994 0.5841 -0.6843 0.794 -0.527 0.304 180 160 139 0 0
-0.4840 0.6890 -0.6383 0.804 0.559 0.203 192 175 159 0 0
-0.4867 0.6932 -0.6382 0.793 0.608 0.044 192 175 160 0 0
-0.4885 0.6952 -0.6385 0.690 0.721 0.058 190 174 157 0 0
-0.4944 0.8183 -0.5975 0.872 -0.486 0.063 187 168 148 0 0
-0.5258 1.0059 -0.5470 0.797 0.579 0.171 187 168 151 0 0
-0.5165 1.0493 -0.5263 0.503 0.036 0.863 183 161 143 0 0
-0.5188 1.0851 -0.5147 0.803 0.335 0.494 199 183 169 0 0
-0.5222 1.0900 -0.5148 0.974 -0.168 0.154 198 184 168 0 0
-0.5218 1.0995 -0.5112 0.954 -0.079 0.289 179 157 138 0 0
-0.5174 1.1556 -0.4886 0.976 -0.045 0.213 183 163 146 0 0
-0.5175 1.1579 -0.4878 0.976 -0.045 0.213 182 163 144 0 0
-0.5248 1.2101 -0.4730 0.193 -0.248 0.949 175 153 133 0 0
-0.5324 1.2276 -0.4708 0.982 0.053 0.180 171 149 127 0 0
-0.5235 1.2377 -0.4624 0.533 -0.815 0.226 181 160 141 0 0
-0.5121 1.2493 -0.4521 0.620 -0.420 0.663 187 169 152 0 0
-0.5048 1.2525 -0.4470 0.525 0.787 0.325 187 170 152 0 0
-0.5107 1.2559 -0.4490 0.386 0.707 0.592 186 168 153 0 0
-0.5164 1.2593 -0.4508 0.433 0.557 0.708 184 164 148 0 0
-0.5195 1.2622 -0.4515 0.535 0.339 0.774 178 160 145 0 0
-0.5143 1.3109 -0.4311 0.813 0.301 0.498 186 170 155 0 0
-0.5154 1.3134 -0.4308 0.834 0.317 0.453 189 173 159 0 0
-0.5158 1.3158 -0.4302 0.731 0.303 0.611 188 173 160 0 0
-0.5226 1.3288 -0.4292 0.291 0.710 0.641 180 161 145 0 0
-0.5367 1.3415 -0.4322 0.437 0.798 0.416 175 155 139 0 0
-0.5306 1.3558 -0.4238 0.893 -0.276 -0.357 144 122 109 0 0
-0.5296 1.3578 -0.4226 0.897 -0.287 -0.335 146 125 109 0 0
-0.5264 1.3703 -0.4163 0.594 -0.002 0.804 193 181 165 0 0
-0.5364 1.3959 -0.4125 0.874 -0.004 0.487 171 152 135 0 0
-0.5175 1.4451 -0.3846 0.667 0.702 0.251 189 176 160 0 0
-0.5209 1.4485 -0.3852 0.667 0.702 0.251 187 172 158 0 0
-0.5240 1.4518 -0.3857 0.731 0.673 0.111 185 169 154 0 0
-0.5321 1.4614 -0.3867 0.997 -0.067 0.037 176 157 139 0 0
-0.5318 1.4635 -0.3857 0.848 0.231 0.476 174 156 137 0 0
-0.5271 1.4727 -0.3799 0.921 -0.362 0.145 182 165 147 0 0
-0.5324 1.4770 -0.3812 0.338 0.297 0.893 180 162 145 0 0
-0.5349 1.4801 -0.3814 0.254 0.681 0.687 179 161 143 0 0
-0.5440 1.4858 -0.3843 0.249 0.709 0.660 177 160 140 0 0
-0.5538 1.4918 -0.3875 0.293 0.762 0.578 177 158 141 0 0
-0.5327 1.5166 -0.3671 0.351 0.519 0.779 155 133 117 0 0
-0.5422 1.5293 -0.3677 0.814 -0.558 0.162 147 126 109 0 0
-0.5133 1.5429 -0.3472 0.945 -0.025 0.327 180 164 149 0 0
-0.5268 1.5596 -0.3485 0.990 0.019 0.139 164 144 128 0 0
-0.5261 1.5614 -0.3474 0.830 -0.502 -0.244 162 143 125 0 0
-0.5325 1.6074 -0.3344 0.213 0.627 0.749 156 135 117 0 0
-0.5339 1.6572 -0.3173 0.363 0.590 0.721 156 135 117 0 0
-0.5245 1.7003 -0.2967 0.668 0.693 0.271 165 144 124 0 0
-0.5284 1.7046 -0.2972 0.593 0.679 0.434 164 144 122 0 0
-0.5328 1.7092 -0.2980 0.618 0.724 0.306 165 144 124 0 0
-0.5386 1.7147 -0.2991 0.618 0.724 0.306 166 144 126 0 0
-0.4828 0.2679 -0.7921 0.922 -0.386 0.002 150 124 102 0 0
-0.4877 0.4482 -0.7299 0.720 0.563 -0.406 167 144 123 0 0
-0.4877 0.5270 -0.7015 0.775 0.516 0.364 175 155 131 0 0
-0.4984 0.5851 -0.6864 0.786 -0.503 0.359 185 166 145 0 0
-0.4715 0.6809 -0.6374 0.360 0.931 -0.060 194 179 164 0 0
-0.4815 0.6853 -0.6412 0.486 0.865 0.128 190 175 159 0 0
-0.4839 0.6871 -0.6419 0.767 0.406 0.498 193 177 162 0 0
-0.4847 0.6894 -0.6415 0.755 0.583 0.301 194 179 164 0 0
-0.5166 0.7644 -0.6318 0.739 -0.192 0.646 176 154 133 0 0
-0.5253 0.7675 -0.6354 0.804 0.030 0.594 185 165 147 0 0
-0.4947 0.8115 -0.6030 0.851 0.362 -0.380 196 178 162 0 0
-0.4951 0.8138 -0.6024 0.344 0.434 0.832 190 171 153 0 0
-0.4930 0.8192 -0.5993 0.832 -0.446 0.330 185 164 143 0 0
-0.5027 0.8766 -0.5839 0.943 0.031 0.330 183 162 143 0 0
-0.5251 0.9456 -0.5713 0.917 -0.397 0.043 181 159 140 0 0
-0.5375 0.9522 -0.5756 0.943 -0.131 0.306 182 161 141 0 0
-0.5120 1.0689 -0.5197 0.940 0.336 0.062 183 163 146 0 0
-0.5171 1.0834 -0.5173 0.854 0.332 0.401 196 179 164 0 0
-0.5180 1.0858 -0.5169 0.854 0.332 0.399 195 178 161 0 0
-0.5193 1.0882 -0.5168 0.768 0.431 0.474 193 177 161 0 0
-0.5209 1.0907 -0.5167 0.929 -0.074 0.363 198 182 165 0 0
-0.5209 1.1002 -0.5134 0.934 -0.157 0.320 185 167 147 0 0
-0.5211 1.1026 -0.5126 0.764 -0.065 0.642 184 164 144 0 0
-0.5127 1.1489 -0.4914 0.966 -0.222 -0.135 183 164 149 0 0
-0.5134 1.1513 -0.4909 0.995 -0.024 -0.102 183 165 147 0 0
-0.5279 1.2161 -0.4755 0.244 0.071 0.967 179 158 138 0 0
-0.5240 1.2363 -0.4661 0.569 -0.795 0.210 174 153 131 0 0
-0.5225 1.2384 -0.4645 0.701 -0.711 0.054 175 154 134 0 0
-0.5114 1.2546 -0.4527 0.395 0.127 0.910 187 170 154 0 0
-0.5111 1.2568 -0.4517 0.474 0.053 0.879 186 169 153 0 0
-0.5177 1.2627 -0.4532 0.433 0.463 0.773 181 163 147 0 0
-0.5098 1.2972 -0.4364 0.975 0.100 0.200 174 155 140 0 0
-0.5142 1.3163 -0.4320 0.928 0.050 0.368 184 166 154 0 0
-0.5126 1.3226 -0.4288 0.834 -0.425 0.351 186 170 156 0 0
-0.5313 1.3387 -0.4332 0.192 0.637 0.747 176 154 138 0 0
-0.5355 1.3421 -0.4342 0.350 0.771 0.532 176 156 139 0 0
-0.5336 1.3462 -0.4318 0.651 -0.753 -0.101 166 144 125 0 0
-0.5353 1.4032 -0.4122 0.420 0.709 0.566 168 150 133 0 0
-0.5352 1.4612 -0.3912 0.698 0.686 -0.207 174 156 137 0 0
-0.5327 1.4625 -0.3894 0.977 -0.032 -0.211 173 155 134 0 0
-0.5314 1.4643 -0.3881 0.911 0.371 0.181 171 153 133 0 0
-0.5264 1.4734 -0.3821 0.921 -0.362 0.145 182 164 147 0 0
-0.5296 1.4768 -0.3826 0.651 0.008 0.759 183 165 148 0 0
-0.5345 1.4809 -0.3837 0.481 0.562 0.673 181 163 147 0 0
-0.5408 1.4855 -0.3855 0.288 0.745 0.602 181 162 146 0 0
-0.5498 1.4912 -0.3884 0.259 0.762 0.593 178 160 141 0 0
-0.5102 1.4975 -0.3646 0.576 0.807 0.130 172 153 137 0 0
-0.5125 1.5413 -0.3501 0.949 -0.229 0.215 178 161 148 0 0
-0.5113 1.5430 -0.3489 0.893 0.194 0.405 183 167 153 0 0
-0.5247 1.5618 -0.3494 0.906 -0.418 0.070 163 143 125 0 0
-0.5428 1.5939 -0.3476 0.762 0.547 0.347 155 135 119 0 0
-0.5272 1.7050 -0.2992 0.663 0.645 0.379 165 145 124 0 0
-0.5329 1.7103 -0.3004 0.618 0.724 0.306 167 146 127 0 0
-0.5387 1.7158 -0.3016 0.618 0.724 0.306 165 145 127 0 0
-0.5442 1.7210 -0.3026 0.616 0.725 0.309 165 145 124 0 0
-0.4864 0.2658 -0.7979 0.879 -0.476 0.017 153 128 105 0 0
-0.4950 0.4476 -0.7371 0.680 0.543 -0.492 162 141 120 0 0
-0.5264 0.5025 -0.7345 0.549 -0.801 0.238 179 158 138 0 0
-0.5210 0.5075 -0.7297 0.549 -0.801 0.238 181 161 139 0 0
-0.4907 0.5288 -0.7055 0.805 0.387 0.449 175 155 130 0 0
-0.4946 0.5297 -0.7073 0.804 0.584 0.114 173 153 130 0 0
-0.5042 0.5282 -0.7131 0.894 0.131 0.428 172 151 130 0 0
-0.4967 0.5367 -0.7059 0.765 -0.560 -0.318 165 143 120 0 0
-0.4795 0.6814 -0.6445 0.820 0.263 0.509 196 182 170 0 0
-0.4828 0.6880 -0.6439 0.694 0.517 0.501 195 181 167 0 0
-0.5107 0.7588 -0.6336 0.171 0.500 0.849 175 153 131 0 0
-0.5239 0.7685 -0.6373 0.804 0.030 0.594 188 167 149 0 0
-0.4902 0.8154 -0.6020 0.903 -0.349 -0.250 188 167 148 0 0
-0.5082 0.8494 -0.5996 -0.026 0.927 0.375 190 171 154 0 0
-0.5261 0.8542 -0.6077 0.116 -0.897 0.426 187 167 149 0 0
-0.5141 0.9348 -0.5721 0.431 0.751 0.500 177 152 130 0 0
-0.5247 0.9463 -0.5737 0.963 -0.269 -0.010 179 156 135 0 0
-0.5228 0.9489 -0.5718 0.983 0.118 -0.138 174 152 130 0 0
-0.5067 1.0364 -0.5315 0.745 -0.655 0.127 197 180 164 0 0
-0.5049 1.0387 -0.5297 0.859 -0.509 -0.047 196 179 163 0 0
-0.5069 1.0411 -0.5299 0.728 0.672 0.135 196 177 162 0 0
-0.5109 1.0435 -0.5312 0.825 0.561 0.075 194 175 159 0 0
-0.5124 1.0459 -0.5312 0.813 0.581 -0.033 190 171 156 0 0
-0.5107 1.0483 -0.5294 0.630 0.777 -0.011 188 168 151 0 0
-0.5133 1.0507 -0.5299 0.964 0.119 -0.237 182 161 144 0 0
-0.5116 1.0697 -0.5222 0.911 0.037 0.410 182 161 143 0 0
-0.5111 1.0744 -0.5202 0.894 -0.447 0.026 180 160 143 0 0
-0.5198 1.0985 -0.5163 0.901 -0.429 -0.056 190 173 155 0 0
-0.5203 1.1009 -0.5156 0.962 -0.241 0.126 192 174 157 0 0
