ply
format ascii 1.0
element vertex 815
property float x
property float y
property float z
property float nx
property float ny
property float nz
property uchar diffuse_red
property uchar diffuse_green
property uchar diffuse_blue
property uchar class
property uchar detection
end_header
-1.2282 0.2916 -0.5183 0.486 -0.109 0.867 190 170 140 0 0
-1.2271 0.2935 -0.5197 0.427 -0.068 0.902 189 168 140 0 0
-1.2258 0.2950 -0.5208 0.154 -0.240 0.959 189 167 138 0 0
-1.2181 0.2944 -0.5218 0.043 -0.126 0.991 179 156 127 0 0
-1.1906 0.3071 -0.5342 -0.175 -0.961 0.216 180 154 124 0 0
-1.1877 0.3064 -0.5343 -0.225 -0.943 0.245 178 152 122 0 0
-1.1856 0.3070 -0.5350 -0.128 -0.987 0.094 177 152 122 0 0
-1.1626 0.3046 -0.5376 0.405 -0.597 0.693 183 162 132 0 0
-1.1624 0.3081 -0.5397 0.114 -0.717 0.688 191 171 144 0 0
-1.1580 0.3088 -0.5409 -0.102 -0.835 0.542 201 185 159 0 0
-1.1406 0.3321 -0.5580 -0.544 -0.793 0.274 184 160 132 0 0
-1.1348 0.3262 -0.5554 -0.434 -0.529 0.729 186 163 134 0 0
-1.1303 0.3226 -0.5541 -0.514 -0.443 0.735 186 162 135 0 0
-1.1261 0.3196 -0.5530 -0.376 -0.475 0.795 184 158 131 0 0
-1.1145 0.3202 -0.5554 0.549 -0.131 0.826 210 197 171 0 0
-1.0833 0.3287 -0.5660 -0.377 -0.420 0.826 177 153 123 0 0
-1.0798 0.3267 -0.5654 -0.377 -0.420 0.826 178 155 124 0 0
-1.0763 0.3246 -0.5647 0.370 -0.458 0.809 178 153 124 0 0
-1.0748 0.3262 -0.5659 0.067 -0.439 0.896 170 145 115 0 0
-1.0601 0.3347 -0.5736 -0.081 -0.919 0.385 167 141 111 0 0
-1.0173 0.3400 -0.5843 0.272 -0.962 0.018 177 151 120 0 0
-0.9924 0.3321 -0.5839 0.255 -0.494 0.831 210 198 174 0 0
-0.9693 0.3385 -0.5919 -0.191 -0.180 0.965 201 180 154 0 0
-0.9552 0.3443 -0.5978 0.213 -0.955 0.207 179 154 127 0 0
-0.9489 0.3463 -0.6001 0.050 -0.992 0.112 178 153 131 0 0
-0.9453 0.3553 -0.6061 0.564 -0.824 0.050 201 181 157 0 0
-0.9390 0.3573 -0.6084 -0.009 -0.588 0.809 194 173 148 0 0
-0.8979 0.3547 -0.6141 0.541 -0.720 0.436 171 143 117 0 0
-0.8471 0.3563 -0.6239 0.519 -0.837 0.171 201 183 158 0 0
-0.8410 0.3592 -0.6268 0.473 -0.873 0.117 199 181 157 0 0
-0.8385 0.3589 -0.6270 0.089 -0.985 0.147 202 186 162 0 0
-0.8364 0.3597 -0.6278 0.316 -0.930 0.190 196 176 152 0 0
-0.8230 0.3700 -0.6364 0.099 -0.541 0.835 182 157 130 0 0
-0.7151 0.3881 -0.6661 0.131 -0.964 -0.231 156 129 105 0 0
-0.6381 0.4250 -0.7017 0.279 -0.774 0.569 187 169 140 0 0
-0.5861 0.4163 -0.7056 0.159 -0.985 0.063 176 153 128 0 0
-0.5516 0.4148 -0.7108 0.561 -0.629 0.538 159 135 110 0 0
-0.5263 0.4333 -0.7263 -0.414 -0.868 0.274 176 153 129 0 0
-0.5240 0.4319 -0.7259 -0.121 -0.867 0.484 180 161 136 0 0
-0.5217 0.4313 -0.7259 0.022 -0.790 0.613 184 164 139 0 0
-0.4959 0.4474 -0.7401 -0.358 -0.872 -0.333 188 169 147 0 0
-0.4821 0.4425 -0.7396 0.662 0.024 0.749 177 155 129 0 0
-0.4748 0.4515 -0.7462 0.647 -0.259 0.717 174 152 126 0 0
-0.4700 0.4530 -0.7480 0.231 -0.854 0.466 157 131 105 0 0
-0.4237 0.4537 -0.7565 0.488 -0.706 0.513 186 165 140 0 0
-0.4213 0.4546 -0.7575 0.405 -0.830 0.384 173 152 127 0 0
-0.4147 0.4508 -0.7563 -0.313 -0.946 -0.087 165 143 117 0 0
-0.4124 0.4507 -0.7567 -0.045 -0.981 -0.187 163 140 115 0 0
-0.4100 0.4521 -0.7580 0.382 -0.919 0.101 158 135 110 0 0
-0.4052 0.4542 -0.7601 0.430 -0.840 0.332 158 134 109 0 0
-0.4029 0.4542 -0.7605 0.194 -0.891 0.410 158 134 108 0 0
-0.4004 0.4556 -0.7618 0.181 -0.727 0.662 161 140 114 0 0
-0.3908 0.4590 -0.7655 0.654 -0.583 0.482 170 148 123 0 0
-0.3884 0.4604 -0.7667 0.590 -0.673 0.446 174 154 127 0 0
-0.3860 0.4611 -0.7676 -0.354 -0.865 0.356 182 162 134 0 0
-0.3731 0.4546 -0.7659 0.353 -0.832 0.429 166 145 117 0 0
-0.3709 0.4536 -0.7658 -0.273 -0.961 0.029 169 146 121 0 0
-0.3688 0.4527 -0.7655 -0.185 -0.977 -0.102 169 148 119 0 0
-0.3643 0.4525 -0.7662 0.193 -0.956 -0.222 161 136 110 0 0
-0.3618 0.4539 -0.7675 0.407 -0.857 -0.315 161 137 112 0 0
-0.3593 0.4556 -0.7690 0.407 -0.857 -0.315 166 143 117 0 0
-0.2642 0.4873 -0.8047 -0.102 -0.753 0.650 150 127 106 0 0
-0.2612 0.4901 -0.8069 -0.514 -0.812 -0.276 133 112 89 0 0
-0.2557 0.4944 -0.8104 0.102 -0.927 -0.362 138 115 94 0 0
-0.2539 0.4921 -0.8093 -0.180 -0.952 -0.248 143 119 97 0 0
-1.4627 0.2470 -0.4530 -0.243 -0.517 0.820 192 176 151 0 0
-1.4593 0.2460 -0.4530 -0.096 -0.430 0.898 192 178 151 0 0
-1.4507 0.2549 -0.4599 0.169 -0.785 0.596 162 136 109 0 0
-1.4134 0.2594 -0.4691 0.526 -0.066 0.848 171 146 117 0 0
-1.4112 0.2597 -0.4696 0.052 -0.368 0.929 175 150 121 0 0
-1.3934 0.2642 -0.4755 0.236 -0.887 -0.397 161 135 104 0 0
-1.3840 0.2646 -0.4774 -0.027 -0.946 0.324 187 167 137 0 0
-1.3806 0.2634 -0.4773 -0.143 -0.809 0.571 185 163 134 0 0
-1.3571 0.2530 -0.4751 -0.210 -0.159 0.965 187 166 133 0 0
-1.3529 0.2508 -0.4745 -0.210 -0.159 0.965 189 170 138 0 0
-1.3503 0.2506 -0.4748 -0.162 -0.197 0.967 190 171 140 0 0
-1.3441 0.2689 -0.4870 0.226 -0.929 -0.292 182 161 132 0 0
-1.3444 0.2722 -0.4889 0.202 -0.769 0.607 183 162 132 0 0
-1.3422 0.2725 -0.4894 0.492 -0.613 0.619 181 160 132 0 0
-1.2837 0.2810 -0.5048 0.216 -0.591 0.778 198 180 153 0 0
-1.2813 0.2809 -0.5052 0.307 -0.404 0.862 190 168 140 0 0
-1.2642 0.2903 -0.5138 0.024 -0.375 0.927 196 179 154 0 0
-1.2446 0.3001 -0.5231 -0.206 -0.938 -0.280 174 151 120 0 0
-1.2326 0.2934 -0.5212 0.131 -0.955 -0.267 188 165 137 0 0
-1.2217 0.2915 -0.5219 0.067 -0.252 0.965 184 160 131 0 0
-1.1570 0.3097 -0.5443 0.110 -0.947 0.303 182 158 130 0 0
-1.1376 0.3255 -0.5572 -0.381 -0.623 0.683 177 151 121 0 0
-1.1342 0.3239 -0.5568 -0.381 -0.623 0.683 181 157 127 0 0
-1.1209 0.3175 -0.5552 -0.088 -0.282 0.955 202 185 156 0 0
-1.1156 0.3165 -0.5556 0.273 -0.230 0.934 199 183 157 0 0
-1.0821 0.3250 -0.5666 -0.361 -0.350 0.864 174 149 119 0 0
-1.0752 0.3209 -0.5653 0.536 -0.796 0.282 175 149 120 0 0
-1.0732 0.3218 -0.5662 0.358 -0.854 0.378 169 143 113 0 0
-1.0708 0.3217 -0.5666 0.439 -0.897 -0.047 169 144 114 0 0
-1.0690 0.3227 -0.5675 0.439 -0.897 -0.047 169 143 113 0 0
-1.0649 0.3240 -0.5690 0.205 -0.913 0.354 178 152 122 0 0
-1.0661 0.3356 -0.5758 -0.301 -0.686 0.662 175 149 119 0 0
-1.0601 0.3333 -0.5754 0.134 -0.482 0.866 164 137 107 0 0
-1.0531 0.3336 -0.5768 0.451 -0.372 0.811 195 178 151 0 0
-1.0464 0.3250 -0.5728 -0.116 -0.571 0.813 200 183 159 0 0
-0.9922 0.3299 -0.5853 0.255 -0.494 0.831 205 189 164 0 0
-0.9740 0.3368 -0.5926 0.026 -0.428 0.903 204 186 160 0 0
-0.9711 0.3355 -0.5923 -0.020 -0.215 0.976 203 184 158 0 0
-0.9519 0.3460 -0.6020 0.496 -0.840 0.220 166 140 115 0 0
-0.9495 0.3460 -0.6024 0.065 -0.998 0.025 173 149 124 0 0
-0.9481 0.3483 -0.6040 0.523 -0.848 0.082 188 166 142 0 0
-0.9475 0.3529 -0.6069 0.793 -0.568 0.222 200 182 158 0 0
-0.8955 0.3524 -0.6157 -0.056 -0.970 0.235 175 148 122 0 0
-0.8729 0.3696 -0.6300 0.084 -0.573 0.816 180 155 125 0 0
-0.8702 0.3688 -0.6300 -0.116 -0.734 0.669 192 169 141 0 0
-0.8391 0.3585 -0.6292 0.316 -0.930 0.190 201 184 162 0 0
-0.8368 0.3588 -0.6298 0.275 -0.892 0.358 190 168 144 0 0
-0.8206 0.3675 -0.6379 0.087 -0.529 0.844 188 161 137 0 0
-0.8112 0.3763 -0.6449 0.784 -0.572 0.240 184 158 132 0 0
-0.7572 0.3860 -0.6601 0.226 -0.886 0.406 170 143 116 0 0
-0.7400 0.3811 -0.6602 0.536 -0.844 0.026 188 164 137 0 0
-0.6762 0.4044 -0.6854 0.260 -0.924 0.281 173 148 121 0 0
-0.6714 0.4030 -0.6854 -0.083 -0.845 0.528 182 161 136 0 0
-0.6666 0.4021 -0.6857 -0.181 -0.881 0.437 195 179 158 0 0
-0.6619 0.4013 -0.6860 -0.049 -0.778 0.626 202 189 172 0 0
-0.6596 0.4017 -0.6867 0.424 -0.709 0.564 206 192 176 0 0
-0.6572 0.4011 -0.6867 0.738 -0.668 0.099 202 187 170 0 0
-0.6507 0.4055 -0.6905 0.773 -0.553 0.311 192 172 148 0 0
-0.5776 0.4206 -0.7124 0.461 -0.866 0.193 169 145 122 0 0
-0.5728 0.4158 -0.7103 0.628 -0.750 0.210 176 155 131 0 0
-0.5315 0.4335 -0.7283 -0.052 -0.746 0.664 163 137 111 0 0
-0.5245 0.4314 -0.7282 -0.312 -0.621 0.719 176 154 129 0 0
-0.5041 0.4197 -0.7247 -0.319 -0.498 0.806 192 175 155 0 0
-0.4828 0.4376 -0.7392 0.684 0.059 0.727 174 152 127 0 0
-0.4803 0.4437 -0.7433 0.409 0.052 0.911 178 157 132 0 0
-0.4705 0.4527 -0.7504 -0.045 -0.874 0.483 166 142 116 0 0
-0.4219 0.4526 -0.7589 0.510 -0.823 0.250 164 140 110 0 0
-0.4151 0.4513 -0.7593 -0.167 -0.910 -0.380 159 134 109 0 0
-0.4129 0.4511 -0.7596 0.090 -0.935 -0.343 155 131 106 0 0
-0.4081 0.4531 -0.7616 0.378 -0.924 0.059 152 128 104 0 0
-0.4036 0.4517 -0.7616 -0.259 -0.757 0.599 153 128 105 0 0
-0.3941 0.4551 -0.7653 0.584 -0.292 0.757 170 147 121 0 0
-0.3916 0.4567 -0.7667 0.675 -0.435 0.596 164 140 112 0 0
-0.3890 0.4586 -0.7682 0.606 -0.641 0.471 173 152 124 0 0
-0.3866 0.4598 -0.7694 0.307 -0.719 0.623 183 164 137 0 0
-0.3670 0.4522 -0.7683 0.049 -0.978 -0.204 167 144 117 0 0
-0.3647 0.4524 -0.7688 -0.159 -0.961 -0.228 156 132 108 0 0
-0.3624 0.4527 -0.7694 0.049 -0.978 -0.204 162 139 115 0 0
-0.3600 0.4536 -0.7703 0.164 -0.959 -0.233 165 142 117 0 0
-0.3340 0.4596 -0.7785 0.373 -0.845 0.384 176 155 130 0 0
-0.3224 0.4609 -0.7813 0.047 -0.329 0.943 182 162 138 0 0
-0.2543 0.4919 -0.8119 -0.116 -0.992 -0.042 133 109 85 0 0
-0.2492 0.4944 -0.8143 -0.826 -0.380 0.417 133 109 88 0 0
-0.2450 0.4925 -0.8139 0.318 -0.898 0.304 149 125 101 0 0
-0.2388 0.4899 -0.8134 -0.788 -0.607 0.097 154 132 108 0 0
-0.2361 0.4913 -0.8147 -0.824 -0.455 0.338 161 138 113 0 0
-0.2344 0.4889 -0.8136 -0.765 -0.319 0.560 167 146 121 0 0
-0.2304 0.4869 -0.8130 0.512 -0.450 0.732 180 162 138 0 0
-1.4606 0.2439 -0.4540 -0.074 -0.454 0.888 198 183 157 0 0
-1.4089 0.2561 -0.4704 -0.065 -0.892 0.448 180 156 127 0 0
-1.4059 0.2554 -0.4706 0.029 -0.301 0.953 181 157 127 0 0
-1.4029 0.2548 -0.4707 0.033 -0.294 0.955 181 158 126 0 0
-1.4001 0.2543 -0.4709 0.112 -0.246 0.963 178 154 123 0 0
-1.3835 0.2630 -0.4790 -0.163 -0.919 0.358 187 164 134 0 0
-1.3486 0.2588 -0.4826 0.698 0.118 0.706 176 153 122 0 0
-1.3388 0.2673 -0.4895 0.751 0.068 0.656 180 158 130 0 0
-1.3379 0.2691 -0.4907 0.751 0.068 0.656 179 157 127 0 0
-1.3083 0.2774 -0.5009 -0.022 -0.328 0.945 180 158 128 0 0
-1.3010 0.2772 -0.5020 -0.083 -0.443 0.893 181 157 128 0 0
-1.2984 0.2769 -0.5023 -0.006 -0.434 0.901 184 161 132 0 0
-1.2914 0.2773 -0.5038 -0.296 -0.723 0.624 191 170 141 0 0
-1.2878 0.2789 -0.5054 0.134 -0.668 0.732 196 177 148 0 0
-1.2851 0.2785 -0.5056 0.435 -0.628 0.645 192 173 145 0 0
-1.2638 0.2821 -0.5115 0.861 -0.421 0.284 205 191 171 0 0
-1.2615 0.2821 -0.5119 0.882 -0.404 0.244 195 179 157 0 0
-1.2579 0.2872 -0.5156 0.602 -0.285 0.746 170 147 117 0 0
-1.2434 0.2971 -0.5242 -0.531 -0.843 0.088 164 138 108 0 0
-1.2384 0.2935 -0.5228 -0.593 -0.800 0.092 174 147 118 0 0
-1.2336 0.2901 -0.5216 -0.572 -0.819 0.042 182 157 128 0 0
-1.2342 0.2945 -0.5241 -0.295 -0.811 0.505 187 163 133 0 0
-1.2314 0.2939 -0.5243 -0.533 -0.482 0.695 184 161 131 0 0
-1.2283 0.2929 -0.5242 -0.106 -0.677 0.728 183 161 131 0 0
-1.2253 0.2919 -0.5242 0.762 -0.646 0.043 182 158 128 0 0
-1.2186 0.2891 -0.5236 -0.483 -0.875 -0.016 183 159 131 0 0
-1.1689 0.3045 -0.5416 0.211 -0.848 0.485 200 181 153 0 0
-1.1400 0.3160 -0.5536 0.163 -0.013 0.987 197 177 149 0 0
-1.1337 0.3218 -0.5582 -0.183 -0.360 0.915 170 143 114 0 0
-1.1194 0.3135 -0.5557 0.136 -0.493 0.859 210 196 172 0 0
-1.1099 0.3178 -0.5600 0.101 -0.493 0.864 201 186 161 0 0
-1.1067 0.3163 -0.5596 -0.140 -0.754 0.642 195 177 150 0 0
-1.1050 0.3175 -0.5606 -0.045 -0.875 0.483 190 169 142 0 0
-1.1009 0.3145 -0.5595 0.274 -0.210 0.939 189 169 143 0 0
-1.0988 0.3149 -0.5602 0.331 -0.051 0.942 193 173 149 0 0
-1.0810 0.3216 -0.5673 -0.218 -0.240 0.946 173 147 117 0 0
-1.0787 0.3217 -0.5677 -0.573 -0.624 0.531 168 142 113 0 0
-1.0680 0.3240 -0.5710 0.209 -0.882 -0.423 181 156 125 0 0
-1.0620 0.3215 -0.5706 -0.267 -0.837 0.478 187 163 132 0 0
-1.0622 0.3313 -0.5765 -0.067 -0.238 0.969 177 151 121 0 0
-1.0162 0.3396 -0.5895 0.006 -0.938 0.345 159 132 105 0 0
-0.9522 0.3452 -0.6041 0.648 -0.714 0.265 158 132 108 0 0
-0.9502 0.3459 -0.6048 0.065 -0.998 0.025 174 149 123 0 0
-0.9456 0.3524 -0.6096 0.578 -0.314 0.753 201 182 158 0 0
-0.8981 0.3512 -0.6171 0.413 -0.794 0.445 190 165 138 0 0
-0.8960 0.3519 -0.6179 -0.056 -0.970 0.235 188 162 136 0 0
-0.8923 0.3549 -0.6204 0.649 -0.581 0.492 190 166 138 0 0
-0.8899 0.3547 -0.6207 -0.032 -0.478 0.878 185 160 133 0 0
-0.8230 0.3655 -0.6389 0.110 -0.661 0.742 165 137 111 0 0
-0.8207 0.3655 -0.6393 0.021 -0.640 0.768 176 150 123 0 0
-0.8184 0.3656 -0.6398 0.080 -0.843 0.532 183 158 131 0 0
-0.8045 0.3751 -0.6479 0.382 -0.913 0.146 207 192 168 0 0
-0.8000 0.3760 -0.6492 0.277 -0.857 0.434 194 176 152 0 0
-0.7978 0.3766 -0.6500 0.727 -0.605 0.325 184 162 134 0 0
-0.6964 0.3945 -0.6786 0.260 -0.847 0.463 165 137 113 0 0
-0.6743 0.4036 -0.6879 0.331 -0.941 0.068 166 140 115 0 0
-0.6720 0.4039 -0.6885 0.181 -0.977 0.113 174 149 124 0 0
-0.6646 0.3998 -0.6873 -0.004 -0.902 0.432 200 184 164 0 0
-0.6623 0.3999 -0.6878 0.154 -0.816 0.557 202 187 168 0 0
-0.6510 0.4025 -0.6913 0.682 -0.674 0.284 183 162 137 0 0
-0.6468 0.4071 -0.6948 0.925 -0.379 0.025 186 164 140 0 0
-0.6448 0.4107 -0.6974 0.877 -0.474 0.082 189 168 143 0 0
-0.5871 0.4149 -0.7100 0.552 -0.773 -0.311 170 145 119 0 0
-0.5731 0.4103 -0.7097 0.008 -0.465 0.885 170 147 123 0 0
-0.5615 0.4048 -0.7084 0.447 -0.058 0.893 183 163 139 0 0
-0.5593 0.4065 -0.7098 0.581 -0.106 0.807 181 161 137 0 0
-0.5320 0.4321 -0.7300 -0.052 -0.746 0.664 162 136 111 0 0
-0.5273 0.4310 -0.7301 -0.320 -0.182 0.930 164 139 115 0 0
-0.5250 0.4295 -0.7297 -0.245 -0.194 0.950 170 146 122 0 0
-0.4907 0.4243 -0.7325 0.740 -0.195 0.644 188 167 143 0 0
-0.4761 0.4442 -0.7471 0.714 -0.176 0.678 187 168 143 0 0
-0.4736 0.4475 -0.7495 0.222 -0.455 0.862 184 164 140 0 0
-0.4416 0.4430 -0.7524 0.865 -0.502 -0.025 172 150 127 0 0
-0.4154 0.4529 -0.7629 -0.253 -0.894 -0.371 147 122 98 0 0
-0.4133 0.4511 -0.7622 0.148 -0.907 -0.395 145 120 97 0 0
-0.4108 0.4529 -0.7637 0.146 -0.938 -0.313 147 124 100 0 0
-0.4084 0.4544 -0.7650 0.065 -0.987 -0.146 149 125 102 0 0
-0.3742 0.4531 -0.7703 0.412 -0.857 0.311 161 137 112 0 0
-0.3720 0.4520 -0.7699 -0.221 -0.970 -0.099 163 141 115 0 0
-0.3604 0.4536 -0.7730 0.085 -0.962 -0.258 168 144 118 0 0
-0.3345 0.4591 -0.7808 0.294 -0.939 -0.178 174 153 128 0 0
-0.3321 0.4597 -0.7816 0.028 -0.996 -0.088 175 153 129 0 0
-0.3298 0.4600 -0.7822 -0.091 -0.986 0.142 178 158 133 0 0
-0.3233 0.4583 -0.7823 0.040 -0.337 0.941 178 157 134 0 0
-0.2596 0.5008 -0.8191 -0.280 -0.716 -0.639 179 162 136 0 0
-0.2581 0.4974 -0.8173 0.428 -0.817 -0.386 163 142 119 0 0
-0.2351 0.4879 -0.8156 -0.837 -0.436 0.330 162 139 115 0 0
-0.2334 0.4854 -0.8144 -0.851 -0.265 0.453 170 149 123 0 0
-1.4043 0.2526 -0.4717 0.213 -0.386 0.898 181 157 127 0 0
-1.3989 0.2520 -0.4722 0.246 -0.237 0.940 178 153 123 0 0
-1.3642 0.2508 -0.4776 -0.138 -0.925 0.354 172 148 119 0 0
-1.3462 0.2549 -0.4832 0.716 0.124 0.687 176 152 122 0 0
-1.3456 0.2570 -0.4846 0.720 0.123 0.683 177 154 123 0 0
-1.3371 0.2641 -0.4904 0.433 0.065 0.899 177 154 125 0 0
-1.3364 0.2662 -0.4918 0.545 0.091 0.833 177 154 123 0 0
-1.3296 0.2697 -0.4951 0.150 -0.090 0.985 181 157 128 0 0
-1.3110 0.2645 -0.4951 0.550 -0.055 0.834 183 160 131 0 0
-1.3027 0.2752 -0.5031 0.214 -0.306 0.928 183 162 133 0 0
-1.3000 0.2748 -0.5033 0.142 -0.351 0.926 182 160 132 0 0
-1.2984 0.2759 -0.5043 -0.461 -0.471 0.752 183 159 131 0 0
-1.2943 0.2737 -0.5037 -0.186 -0.402 0.897 183 160 132 0 0
-1.2884 0.2754 -0.5057 -0.125 -0.603 0.788 189 168 138 0 0
-1.2799 0.2737 -0.5061 0.248 -0.691 0.679 183 159 131 0 0
-1.2627 0.2795 -0.5126 0.476 -0.782 0.403 204 190 170 0 0
-1.2400 0.2946 -0.5258 -0.522 -0.809 0.269 170 144 116 0 0
-1.2359 0.2922 -0.5251 -0.522 -0.809 0.269 183 157 130 0 0
-1.2273 0.2902 -0.5253 0.429 -0.837 0.339 180 156 126 0 0
-1.2266 0.2927 -0.5270 0.563 -0.806 -0.183 179 155 124 0 0
-1.2232 0.2911 -0.5266 -0.257 -0.951 -0.172 181 157 130 0 0
-1.2199 0.2899 -0.5265 -0.483 -0.875 -0.016 180 156 127 0 0
-1.2164 0.2883 -0.5261 -0.452 -0.882 -0.134 182 159 131 0 0
-1.2144 0.2888 -0.5267 -0.466 -0.881 0.077 188 168 140 0 0
-1.2104 0.2865 -0.5260 -0.563 -0.824 0.062 192 173 146 0 0
-1.2076 0.2859 -0.5261 -0.598 -0.744 0.298 199 184 158 0 0
-1.1690 0.3033 -0.5435 0.251 -0.846 0.470 204 184 157 0 0
-1.1551 0.3079 -0.5487 -0.308 -0.942 0.132 170 144 119 0 0
-1.1515 0.3060 -0.5481 -0.079 -0.969 0.236 174 150 120 0 0
-1.1486 0.3051 -0.5481 -0.143 -0.986 0.086 179 154 124 0 0
-1.1462 0.3051 -0.5485 -0.403 -0.904 -0.143 193 171 140 0 0
-1.1381 0.3114 -0.5538 0.327 -0.101 0.940 210 195 169 0 0
-1.1190 0.3114 -0.5571 0.058 -0.629 0.775 211 195 170 0 0
-1.0978 0.3074 -0.5584 -0.013 -0.087 0.996 193 176 150 0 0
-1.0758 0.3194 -0.5694 0.320 -0.645 0.694 177 153 123 0 0
-1.0672 0.3210 -0.5720 0.444 -0.649 0.618 187 162 133 0 0
-1.0441 0.3220 -0.5766 -0.272 -0.811 0.518 188 168 142 0 0
-1.0165 0.3388 -0.5916 0.006 -0.938 0.345 167 140 112 0 0
-0.9504 0.3447 -0.6067 0.062 -0.972 0.225 156 128 104 0 0
-0.9486 0.3462 -0.6079 0.425 -0.756 0.498 171 145 122 0 0
-0.9474 0.3492 -0.6100 0.534 -0.422 0.733 190 167 142 0 0
-0.8961 0.3503 -0.6196 0.585 -0.497 0.641 192 168 142 0 0
-0.8946 0.3527 -0.6213 0.703 -0.567 0.429 198 176 152 0 0
-0.8920 0.3521 -0.6214 0.474 -0.372 0.798 200 180 152 0 0
-0.8397 0.3565 -0.6331 0.385 -0.898 0.214 193 172 147 0 0
-0.8377 0.3573 -0.6340 -0.060 -0.915 0.399 184 160 136 0 0
-0.8208 0.3637 -0.6408 0.110 -0.661 0.742 175 147 123 0 0
-0.8192 0.3661 -0.6426 0.571 -0.711 0.410 181 155 130 0 0
-0.8049 0.3742 -0.6500 0.473 -0.869 0.142 210 195 174 0 0
-0.8004 0.3749 -0.6512 0.277 -0.857 0.434 200 183 160 0 0
-0.7981 0.3749 -0.6516 0.695 -0.615 0.372 184 162 135 0 0
-0.7786 0.3819 -0.6592 -0.034 -0.839 0.543 174 148 121 0 0
-0.7459 0.3817 -0.6648 0.064 -0.829 0.556 173 144 115 0 0
-0.7433 0.3803 -0.6644 0.227 -0.957 -0.182 181 154 127 0 0
-0.6945 0.3936 -0.6810 0.170 -0.836 0.521 175 154 130 0 0
-0.6626 0.3984 -0.6895 0.219 -0.894 0.392 194 178 154 0 0
-0.6539 0.4036 -0.6941 0.663 -0.747 0.048 184 163 138 0 0
-0.6514 0.4014 -0.6932 0.636 -0.449 0.628 187 165 142 0 0
-0.6090 0.4222 -0.7133 -0.310 -0.933 0.185 167 142 117 0 0
-0.5973 0.4223 -0.7154 -0.100 -0.994 -0.049 137 113 87 0 0
-0.5877 0.4157 -0.7131 0.478 -0.794 -0.376 170 144 120 0 0
-0.5643 0.4055 -0.7109 -0.055 -0.126 0.990 180 160 135 0 0
-0.5619 0.4010 -0.7086 0.643 -0.152 0.751 183 163 139 0 0
-0.5597 0.4046 -0.7112 0.939 -0.228 0.259 182 162 137 0 0
-0.5008 0.4091 -0.7242 0.235 -0.911 -0.340 190 173 151 0 0
-0.4815 0.4368 -0.7444 0.254 -0.945 0.204 169 147 123 0 0
-0.4791 0.4403 -0.7469 0.886 -0.235 0.400 177 155 130 0 0
-0.4318 0.4554 -0.7643 0.837 -0.531 0.133 150 125 101 0 0
-0.4253 0.4508 -0.7627 0.837 -0.492 0.239 134 109 86 0 0
-0.4227 0.4543 -0.7653 0.829 -0.479 0.287 130 107 85 0 0
-0.4086 0.4564 -0.7690 0.080 -0.846 -0.526 152 128 106 0 0
-0.4005 0.4467 -0.7645 -0.093 -0.476 0.875 165 143 119 0 0
-0.3984 0.4454 -0.7641 -0.181 -0.506 0.843 175 154 129 0 0
-0.3725 0.4515 -0.7723 0.309 -0.935 -0.171 163 140 115 0 0
-0.3608 0.4540 -0.7759 0.092 -0.995 -0.049 171 149 122 0 0
-0.3586 0.4534 -0.7759 0.546 -0.832 0.103 171 149 122 0 0
-0.3561 0.4549 -0.7772 0.546 -0.832 0.103 171 147 120 0 0
-0.3536 0.4565 -0.7786 0.437 -0.862 0.258 172 148 122 0 0
-0.3448 0.4545 -0.7789 0.302 -0.906 0.296 178 156 131 0 0
-0.3397 0.4575 -0.7817 0.446 -0.807 -0.387 187 168 145 0 0
-0.3243 0.4547 -0.7826 -0.544 -0.696 0.468 177 156 132 0 0
-0.3224 0.4531 -0.7820 -0.460 -0.723 0.516 175 154 130 0 0
-0.3089 0.4645 -0.7913 0.481 -0.530 0.699 186 168 146 0 0
-0.2689 0.4817 -0.8087 0.388 -0.744 -0.543 184 166 143 0 0
-0.2638 0.4942 -0.8172 0.443 -0.733 -0.516 180 161 137 0 0
-0.2594 0.5038 -0.8237 -0.273 -0.705 -0.654 179 159 135 0 0
-0.2579 0.5001 -0.8218 0.501 -0.746 -0.439 176 157 133 0 0
-0.2551 0.5023 -0.8236 0.182 -0.785 -0.592 170 148 125 0 0
-0.2079 0.4887 -0.8236 0.430 0.144 0.891 187 170 150 0 0
-1.4586 0.2374 -0.4555 0.993 -0.089 -0.079 194 178 152 0 0
-1.4562 0.2399 -0.4574 0.284 -0.314 0.906 184 165 138 0 0
-1.4530 0.2391 -0.4575 0.404 -0.233 0.884 180 159 127 0 0
-1.4486 0.2472 -0.4632 0.815 0.031 0.578 138 112 88 0 0
-1.4030 0.2501 -0.4729 0.178 -0.275 0.945 178 153 123 0 0
-1.3999 0.2494 -0.4730 0.229 -0.147 0.962 178 154 123 0 0
-1.3998 0.2520 -0.4746 0.641 -0.029 0.767 179 156 125 0 0
-1.3953 0.2578 -0.4789 0.692 -0.652 0.310 164 139 110 0 0
-1.3938 0.2588 -0.4798 0.237 -0.812 0.533 157 131 102 0 0
-1.3885 0.2583 -0.4804 -0.122 -0.688 0.715 181 158 126 0 0
-1.3856 0.2577 -0.4806 -0.138 -0.611 0.780 178 155 124 0 0
-1.3808 0.2550 -0.4798 -0.521 -0.627 0.580 172 148 117 0 0
-1.3638 0.2493 -0.4792 -0.055 -0.690 0.722 168 143 113 0 0
-1.3643 0.2526 -0.4812 0.372 -0.837 -0.401 167 141 111 0 0
-1.3603 0.2508 -0.4807 0.447 -0.876 -0.179 165 138 109 0 0
-1.3316 0.2593 -0.4909 0.153 0.036 0.988 170 147 116 0 0
-1.3300 0.2602 -0.4918 0.273 0.054 0.960 170 145 115 0 0
-1.3088 0.2606 -0.4957 0.457 -0.029 0.889 183 159 130 0 0
-1.3032 0.2596 -0.4960 0.680 -0.523 -0.514 182 160 130 0 0
-1.3021 0.2642 -0.4991 -0.349 -0.863 0.365 186 165 137 0 0
-1.3006 0.2714 -0.5037 0.696 0.008 0.718 177 155 125 0 0
-1.3026 0.2771 -0.5068 -0.495 -0.439 0.750 183 161 131 0 0
-1.2973 0.2734 -0.5055 -0.460 -0.416 0.785 173 149 119 0 0
-1.2924 0.2701 -0.5043 -0.460 -0.416 0.785 180 154 126 0 0
-1.2914 0.2720 -0.5056 -0.257 -0.504 0.825 182 160 130 0 0
-1.2884 0.2711 -0.5056 -0.325 -0.579 0.748 185 164 136 0 0
-1.2856 0.2706 -0.5058 0.265 -0.420 0.868 186 165 138 0 0
-1.2818 0.2718 -0.5072 0.158 -0.409 0.899 182 159 130 0 0
-1.2552 0.2844 -0.5195 0.930 -0.240 0.280 164 138 112 0 0
-1.2539 0.2859 -0.5207 0.836 -0.281 0.471 170 144 117 0 0
-1.2499 0.2871 -0.5221 -0.203 -0.915 0.349 186 165 136 0 0
-1.2451 0.2870 -0.5229 -0.013 -0.656 0.755 190 168 141 0 0
-1.2417 0.2856 -0.5226 -0.111 -0.708 0.698 185 162 132 0 0
-1.2267 0.2778 -0.5205 -0.395 -0.658 0.641 180 155 127 0 0
-1.1420 0.3047 -0.5516 -0.327 -0.784 -0.528 190 171 141 0 0
-1.1365 0.3075 -0.5542 0.527 -0.480 0.701 221 210 189 0 0
-1.0667 0.3185 -0.5731 0.214 -0.235 0.948 184 158 129 0 0
-1.0609 0.3164 -0.5729 -0.190 -0.383 0.904 188 163 136 0 0
-1.0468 0.3213 -0.5783 -0.238 -0.560 0.794 181 157 129 0 0
-0.9509 0.3443 -0.6090 0.166 -0.887 0.430 156 129 104 0 0
-0.9494 0.3463 -0.6105 0.501 -0.683 0.532 167 141 117 0 0
-0.9235 0.3402 -0.6112 0.431 -0.059 0.901 173 149 121 0 0
-0.8507 0.3520 -0.6311 0.308 -0.924 0.225 189 168 142 0 0
-0.8464 0.3530 -0.6325 0.459 -0.888 -0.022 193 172 146 0 0
-0.8423 0.3549 -0.6343 0.563 -0.826 0.015 190 170 141 0 0
-0.8401 0.3555 -0.6351 0.300 -0.947 0.117 187 162 137 0 0
-0.8381 0.3565 -0.6360 -0.060 -0.915 0.399 174 148 121 0 0
-0.8228 0.3602 -0.6410 0.129 -0.288 0.949 173 146 121 0 0
-0.8206 0.3605 -0.6415 0.130 -0.373 0.919 180 154 128 0 0
-0.8193 0.3643 -0.6441 0.711 -0.369 0.599 181 155 128 0 0
-0.8175 0.3661 -0.6455 0.809 -0.520 -0.274 179 153 128 0 0
-0.7887 0.3821 -0.6602 -0.098 -0.801 0.590 172 145 118 0 0
-0.7808 0.3785 -0.6594 -0.196 -0.979 -0.060 170 140 113 0 0
-0.7465 0.3818 -0.6674 -0.267 -0.955 0.128 161 130 106 0 0
-0.7412 0.3785 -0.6663 0.121 -0.923 0.364 169 142 113 0 0
-0.7297 0.3784 -0.6683 0.270 -0.826 0.495 173 147 120 0 0
-0.6971 0.3916 -0.6820 0.168 -0.954 0.248 187 170 145 0 0
-0.6948 0.3919 -0.6826 0.168 -0.954 0.248 191 173 148 0 0
-0.6926 0.3929 -0.6836 0.259 -0.825 0.502 186 168 143 0 0
-0.6725 0.3986 -0.6905 0.468 -0.862 0.196 166 140 114 0 0
-0.6703 0.3996 -0.6915 0.468 -0.862 0.196 167 141 114 0 0
-0.6679 0.3988 -0.6915 0.178 -0.836 0.519 168 142 118 0 0
-0.6655 0.3979 -0.6913 -0.004 -0.902 0.432 179 157 131 0 0
-0.6631 0.3977 -0.6916 0.226 -0.942 0.248 183 164 138 0 0
-0.6609 0.3983 -0.6924 0.355 -0.922 0.155 185 164 139 0 0
-0.6545 0.4034 -0.6966 0.634 -0.771 -0.053 175 151 126 0 0
-0.6095 0.4224 -0.7160 -0.227 -0.971 -0.080 167 142 117 0 0
-0.5905 0.4146 -0.7146 -0.471 -0.832 -0.292 165 139 113 0 0
-0.5882 0.4165 -0.7161 -0.079 -0.879 -0.470 169 143 118 0 0
-0.5789 0.4144 -0.7164 0.250 -0.942 -0.223 179 155 130 0 0
-0.5763 0.4080 -0.7130 -0.015 -0.775 0.632 164 140 116 0 0
-0.5740 0.4077 -0.7132 -0.015 -0.775 0.632 171 147 122 0 0
-0.5261 0.4230 -0.7309 0.004 -0.766 0.643 188 169 145 0 0
-0.5238 0.4223 -0.7308 0.155 -0.732 0.664 199 182 158 0 0
-0.5215 0.4218 -0.7309 -0.077 -0.901 0.426 197 181 156 0 0
-0.5192 0.4207 -0.7307 -0.323 -0.776 0.541 194 174 151 0 0
-0.5170 0.4191 -0.7301 -0.531 -0.658 0.534 178 155 128 0 0
-0.5102 0.4157 -0.7292 -0.196 -0.791 0.579 184 161 136 0 0
-0.5059 0.4046 -0.7232 0.584 -0.734 -0.346 183 163 137 0 0
-0.4964 0.4188 -0.7335 0.712 -0.654 -0.257 175 154 126 0 0
-0.4748 0.4438 -0.7525 0.733 -0.647 -0.209 181 161 135 0 0
-0.4563 0.4100 -0.7351 -0.763 -0.533 0.365 171 150 123 0 0
-0.4233 0.4529 -0.7670 0.675 -0.718 -0.170 120 100 77 0 0
-0.4207 0.4552 -0.7688 0.236 -0.889 -0.393 126 105 81 0 0
-0.4159 0.4569 -0.7707 -0.164 -0.809 -0.565 125 103 81 0 0
-0.4049 0.4526 -0.7700 -0.785 -0.542 0.300 146 122 100 0 0
-0.4029 0.4498 -0.7686 -0.849 -0.365 0.382 156 131 110 0 0
-0.4011 0.4456 -0.7664 -0.387 -0.590 0.709 172 150 126 0 0
-0.3990 0.4436 -0.7656 -0.572 -0.574 0.585 179 159 135 0 0
-0.3964 0.4464 -0.7677 0.275 -0.547 0.791 179 162 137 0 0
-0.3786 0.4438 -0.7692 0.856 -0.510 -0.091 151 126 104 0 0
-0.3706 0.4523 -0.7758 0.442 -0.892 0.097 161 137 112 0 0
-0.3681 0.4538 -0.7772 0.321 -0.945 0.063 166 144 119 0 0
-0.3657 0.4548 -0.7782 0.117 -0.975 0.190 168 147 119 0 0
-0.3610 0.4554 -0.7794 0.330 -0.920 0.212 175 152 124 0 0
-0.3594 0.4509 -0.7769 0.063 -0.528 0.847 181 160 133 0 0
-0.3455 0.4529 -0.7805 0.198 -0.980 -0.005 169 148 121 0 0
-0.3304 0.4613 -0.7883 -0.360 -0.783 -0.507 175 155 130 0 0
-0.3245 0.4559 -0.7860 -0.474 -0.865 -0.165 179 158 134 0 0
-0.3225 0.4547 -0.7857 -0.474 -0.865 -0.165 174 153 128 0 0
-0.3198 0.4573 -0.7877 -0.036 -0.986 -0.162 177 156 131 0 0
-0.3014 0.4587 -0.7917 -0.322 -0.936 0.139 203 188 168 0 0
-0.2861 0.4564 -0.7930 0.336 -0.911 0.240 173 153 127 0 0
-0.2810 0.4594 -0.7958 0.599 -0.775 0.199 182 162 137 0 0
-0.2777 0.4641 -0.7992 0.462 -0.868 -0.183 186 168 145 0 0
-0.2511 0.5010 -0.8262 -0.648 -0.562 -0.514 177 155 132 0 0
-0.2486 0.5016 -0.8271 -0.363 -0.668 -0.649 178 156 133 0 0
-1.4582 0.2360 -0.4572 0.996 -0.016 0.092 188 171 144 0 0
-1.4588 0.2391 -0.4590 0.093 -0.419 0.903 190 171 143 0 0
-1.4554 0.2381 -0.4590 0.085 -0.378 0.922 183 162 131 0 0
-1.4391 0.2464 -0.4669 0.443 0.036 0.896 167 144 114 0 0
-1.4162 0.2374 -0.4654 -0.202 -0.798 0.568 189 169 139 0 0
-1.4014 0.2474 -0.4740 0.178 -0.275 0.945 172 149 118 0 0
-1.3980 0.2463 -0.4740 0.229 -0.147 0.962 175 152 120 0 0
-1.3969 0.2558 -0.4800 0.847 0.029 0.530 165 140 111 0 0
-1.3898 0.2560 -0.4813 0.085 -0.355 0.931 166 140 110 0 0
-1.3589 0.2481 -0.4819 0.568 -0.533 0.627 164 139 109 0 0
-1.3397 0.2451 -0.4834 0.948 -0.053 0.314 173 150 119 0 0
-1.3246 0.2527 -0.4906 0.555 0.115 0.824 165 141 110 0 0
-1.3262 0.2604 -0.4951 0.117 0.008 0.993 171 149 118 0 0
-1.3053 0.2641 -0.5009 -0.179 -0.758 0.627 188 167 139 0 0
-1.3011 0.2618 -0.5003 -0.387 -0.805 0.450 184 163 135 0 0
-1.2979 0.2608 -0.5002 -0.358 -0.703 0.614 179 156 126 0 0
-1.2990 0.2745 -0.5084 -0.463 -0.406 0.788 171 147 117 0 0
-1.2948 0.2721 -0.5077 -0.445 -0.433 0.784 179 156 126 0 0
-1.2902 0.2692 -0.5067 -0.229 -0.454 0.861 181 157 128 0 0
-1.2885 0.2701 -0.5075 -0.214 -0.252 0.944 184 163 134 0 0
-1.2623 0.2765 -0.5160 0.614 -0.767 0.186 193 177 151 0 0
-1.2603 0.2772 -0.5168 0.726 -0.580 0.368 189 171 146 0 0
-1.2553 0.2834 -0.5214 0.892 -0.449 0.050 178 154 125 0 0
-1.2535 0.2842 -0.5222 0.803 -0.571 0.170 187 164 138 0 0
-1.2511 0.2842 -0.5227 0.414 -0.548 0.727 188 166 140 0 0
-1.2511 0.2875 -0.5247 -0.389 -0.917 -0.089 190 171 142 0 0
-1.2476 0.2860 -0.5244 -0.389 -0.917 -0.089 194 173 148 0 0
-1.2446 0.2852 -0.5244 -0.411 -0.891 -0.192 190 168 140 0 0
-1.2409 0.2834 -0.5239 -0.411 -0.891 -0.192 181 159 127 0 0
-1.2372 0.2815 -0.5234 -0.389 -0.917 -0.089 171 147 116 0 0
-1.2335 0.2796 -0.5229 -0.461 -0.850 0.254 159 132 104 0 0
-1.2298 0.2778 -0.5225 -0.525 -0.815 0.246 162 136 107 0 0
-1.2260 0.2757 -0.5219 -0.426 -0.845 0.323 175 149 119 0 0
-1.2236 0.2757 -0.5223 -0.115 -0.942 0.315 192 168 138 0 0
-1.2205 0.2780 -0.5242 0.315 -0.923 -0.221 177 152 122 0 0
-1.2168 0.2761 -0.5237 -0.078 -0.843 0.532 173 150 121 0 0
-1.1993 0.2781 -0.5280 0.185 -0.622 0.761 211 198 179 0 0
-1.1970 0.2782 -0.5284 0.185 -0.622 0.761 203 189 168 0 0
-1.1819 0.2874 -0.5367 -0.263 -0.845 0.465 176 150 122 0 0
-1.1769 0.2944 -0.5418 0.458 -0.772 0.440 163 136 109 0 0
-1.1617 0.3007 -0.5483 -0.121 -0.992 0.045 192 170 141 0 0
-1.1618 0.3045 -0.5506 0.199 -0.926 -0.322 186 163 133 0 0
-1.1599 0.3055 -0.5515 0.481 -0.770 -0.419 165 140 110 0 0
-1.1354 0.3042 -0.5550 0.412 -0.266 0.871 215 204 183 0 0
-1.0672 0.3136 -0.5726 0.288 0.108 0.951 186 160 133 0 0
-1.0594 0.3121 -0.5730 -0.108 -0.147 0.983 188 162 136 0 0
-1.0444 0.3196 -0.5803 -0.333 -0.790 0.515 189 168 139 0 0
-1.0247 0.3179 -0.5826 0.289 -0.946 -0.145 214 201 181 0 0
-0.9938 0.3218 -0.5904 0.473 -0.622 0.624 199 177 149 0 0
-0.9560 0.3435 -0.6102 0.542 -0.837 0.068 170 145 119 0 0
-0.9535 0.3432 -0.6104 0.486 -0.837 0.252 167 142 117 0 0
-0.9491 0.3440 -0.6117 0.281 -0.741 0.609 184 161 135 0 0
-0.9375 0.3383 -0.6102 -0.215 -0.256 0.943 178 152 123 0 0
-0.8511 0.3513 -0.6332 0.308 -0.924 0.225 189 166 141 0 0
-0.8486 0.3506 -0.6332 0.036 -0.857 0.514 186 164 137 0 0
-0.8468 0.3524 -0.6346 0.345 -0.861 0.374 198 178 152 0 0
-0.8227 0.3573 -0.6419 0.129 -0.288 0.949 175 149 124 0 0
-0.8202 0.3567 -0.6419 0.328 -0.230 0.916 182 158 132 0 0
-0.8169 0.3618 -0.6456 0.864 -0.326 0.383 179 154 130 0 0
-0.8136 0.3667 -0.6492 0.873 -0.447 0.193 181 156 131 0 0
-0.8119 0.3693 -0.6510 0.736 -0.570 0.365 183 159 135 0 0
-0.7881 0.3771 -0.6599 0.003 -0.768 0.641 167 140 111 0 0
-0.7857 0.3766 -0.6601 -0.264 -0.859 0.438 164 134 108 0 0
-0.6976 0.3910 -0.6842 0.168 -0.954 0.248 200 184 157 0 0
-0.6954 0.3918 -0.6851 0.216 -0.964 0.156 197 180 154 0 0
-0.6931 0.3923 -0.6857 0.294 -0.943 0.157 192 172 147 0 0
-0.6886 0.3934 -0.6872 0.329 -0.922 0.205 186 166 140 0 0
-0.6865 0.3949 -0.6885 0.436 -0.899 -0.047 177 156 130 0 0
-0.6076 0.4199 -0.7175 0.789 -0.613 0.037 165 139 113 0 0
-0.6052 0.4200 -0.7179 0.578 -0.576 0.578 146 120 95 0 0
-0.5910 0.4148 -0.7173 -0.652 -0.686 0.323 169 143 119 0 0
-0.5747 0.4117 -0.7182 -0.707 -0.701 -0.093 172 148 124 0 0
-0.5220 0.4212 -0.7332 0.030 -0.874 0.486 189 170 147 0 0
-0.5129 0.4153 -0.7311 -0.575 -0.771 0.273 175 151 123 0 0
-0.5107 0.4147 -0.7312 0.246 -0.864 0.440 178 155 126 0 0
-0.5063 0.4062 -0.7267 0.701 -0.709 -0.073 179 159 129 0 0
-0.4945 0.4232 -0.7392 0.769 -0.610 -0.190 168 143 117 0 0
-0.4805 0.4302 -0.7459 0.315 -0.845 -0.432 175 154 129 0 0
-0.4783 0.4292 -0.7457 -0.185 -0.908 -0.376 180 159 135 0 0
-0.4568 0.4093 -0.7372 -0.763 -0.533 0.365 178 158 133 0 0
-0.4541 0.4151 -0.7413 0.926 -0.374 -0.048 173 153 128 0 0
-0.4514 0.4213 -0.7455 0.925 -0.381 -0.018 169 146 122 0 0
-0.4486 0.4294 -0.7510 0.926 -0.377 -0.032 166 142 117 0 0
-0.4187 0.4572 -0.7731 0.115 -0.877 -0.467 126 104 82 0 0
-0.4164 0.4571 -0.7735 0.054 -0.861 -0.505 126 105 82 0 0
-0.4140 0.4574 -0.7741 0.235 -0.828 -0.509 124 104 79 0 0
-0.4117 0.4582 -0.7750 -0.208 -0.863 -0.461 141 119 96 0 0
-0.4051 0.4544 -0.7738 -0.788 -0.377 0.487 136 113 91 0 0
-0.4017 0.4443 -0.7682 -0.535 -0.479 0.696 167 146 120 0 0
-0.3996 0.4421 -0.7672 -0.493 -0.572 0.655 179 161 134 0 0
-0.3577 0.4501 -0.7794 0.405 -0.531 0.744 174 153 125 0 0
-0.3532 0.4499 -0.7801 0.532 -0.413 0.739 169 148 121 0 0
-0.3458 0.4532 -0.7833 -0.002 -0.757 0.654 165 143 117 0 0
-0.3231 0.4539 -0.7878 -0.461 -0.876 0.142 175 155 130 0 0
-0.2996 0.4583 -0.7945 -0.177 -0.960 -0.216 195 180 160 0 0
-0.2973 0.4584 -0.7950 -0.042 -0.976 -0.215 184 167 143 0 0
-0.2952 0.4581 -0.7952 -0.353 -0.934 0.049 178 160 135 0 0
-0.2889 0.4558 -0.7948 -0.096 -0.995 0.040 169 147 124 0 0
-0.2816 0.4584 -0.7977 0.569 -0.819 0.075 178 158 132 0 0
-0.2791 0.4595 -0.7988 0.270 -0.961 -0.063 184 164 141 0 0
-1.4576 0.2369 -0.4604 0.002 -0.442 0.897 187 168 137 0 0
-1.4548 0.2365 -0.4606 -0.150 -0.470 0.870 181 160 129 0 0
-1.4399 0.2437 -0.4676 -0.368 -0.613 0.699 158 132 105 0 0
-1.3987 0.2461 -0.4762 0.656 -0.290 0.696 170 145 115 0 0
-1.3956 0.2479 -0.4779 0.861 0.015 0.508 166 141 111 0 0
-1.3926 0.2609 -0.4864 0.503 0.127 0.855 177 154 123 0 0
-1.3387 0.2429 -0.4847 0.343 -0.298 0.891 171 148 118 0 0
-1.3251 0.2464 -0.4892 0.342 -0.372 0.863 172 148 118 0 0
-1.3218 0.2511 -0.4926 0.786 0.116 0.607 166 141 111 0 0
-1.3215 0.2564 -0.4960 -0.079 -0.218 0.973 176 153 122 0 0
-1.3046 0.2622 -0.5024 -0.188 -0.665 0.723 183 162 133 0 0
-1.3009 0.2605 -0.5021 -0.297 -0.775 0.557 182 160 131 0 0
-1.2977 0.2595 -0.5020 -0.214 -0.778 0.590 176 153 122 0 0
-1.2947 0.2586 -0.5020 -0.298 -0.732 0.612 172 149 118 0 0
-1.2955 0.2657 -0.5062 0.585 -0.089 0.806 176 153 122 0 0
-1.2972 0.2709 -0.5091 -0.463 -0.406 0.788 178 154 125 0 0
-1.2936 0.2694 -0.5088 -0.366 -0.703 0.610 181 160 131 0 0
-1.2895 0.2672 -0.5082 -0.308 -0.556 0.772 182 158 131 0 0
-1.2870 0.2671 -0.5085 -0.257 -0.327 0.909 184 159 132 0 0
-1.2617 0.2746 -0.5175 0.817 -0.573 0.067 187 168 141 0 0
-1.2605 0.2762 -0.5187 0.734 -0.586 0.342 180 158 130 0 0
-1.2588 0.2772 -0.5196 0.801 -0.576 0.162 171 145 118 0 0
-1.2505 0.2856 -0.5262 -0.235 -0.769 0.594 189 168 140 0 0
-1.2477 0.2850 -0.5263 -0.153 -0.971 0.183 184 161 134 0 0
-1.2446 0.2840 -0.5262 -0.258 -0.930 0.260 186 162 133 0 0
-1.2435 0.2858 -0.5275 -0.419 -0.869 -0.262 175 151 120 0 0
-1.2395 0.2835 -0.5268 -0.393 -0.885 -0.252 171 146 116 0 0
-1.2345 0.2799 -0.5255 -0.525 -0.815 0.246 168 144 114 0 0
-1.2305 0.2775 -0.5247 -0.525 -0.815 0.246 173 148 120 0 0
-1.2264 0.2751 -0.5240 -0.426 -0.845 0.323 185 161 134 0 0
-1.2240 0.2751 -0.5243 -0.115 -0.942 0.315 193 171 141 0 0
-1.2213 0.2779 -0.5266 0.158 -0.844 -0.512 175 150 120 0 0
-1.1988 0.2762 -0.5294 -0.013 -0.799 0.601 212 199 178 0 0
-1.1965 0.2762 -0.5298 0.071 -0.689 0.721 206 192 171 0 0
-1.1927 0.2776 -0.5313 0.979 -0.202 0.027 196 178 155 0 0
-1.1910 0.2857 -0.5366 0.993 -0.117 -0.004 172 147 118 0 0
-1.1873 0.2873 -0.5382 -0.026 -0.828 0.560 175 149 123 0 0
-1.1777 0.2945 -0.5443 0.337 -0.907 0.251 165 138 111 0 0
-1.1513 0.3057 -0.5557 -0.521 -0.760 0.388 168 143 117 0 0
-1.1454 0.3038 -0.5556 -0.463 -0.778 0.425 164 138 111 0 0
-1.1402 0.3030 -0.5560 -0.098 -0.796 0.597 191 170 139 0 0
-1.1374 0.3023 -0.5561 0.293 -0.851 0.437 204 187 161 0 0
-1.1354 0.3029 -0.5568 0.492 -0.783 0.381 201 185 162 0 0
-1.1334 0.3036 -0.5576 0.388 -0.854 0.346 186 168 140 0 0
-1.1311 0.3037 -0.5580 0.106 -0.922 0.372 192 173 144 0 0
-1.1287 0.3036 -0.5584 0.054 -0.924 0.379 203 186 158 0 0
-1.1263 0.3036 -0.5588 0.327 -0.927 0.186 189 170 141 0 0
-1.1242 0.3040 -0.5594 0.595 -0.758 0.267 184 162 131 0 0
-1.1219 0.3042 -0.5599 0.154 -0.958 0.241 189 166 136 0 0
-1.0306 0.3141 -0.5818 -0.153 -0.968 0.200 197 179 151 0 0
-1.0243 0.3155 -0.5838 0.037 -0.964 0.262 212 198 174 0 0
-1.0224 0.3165 -0.5848 -0.073 -0.712 0.698 208 193 169 0 0
-0.9985 0.3203 -0.5912 0.155 -0.497 0.854 189 165 134 0 0
-0.9938 0.3202 -0.5920 0.386 -0.627 0.677 196 174 145 0 0
-0.9873 0.3214 -0.5939 0.195 -0.644 0.739 189 165 137 0 0
-0.9854 0.3225 -0.5949 0.085 -0.528 0.845 184 160 130 0 0
-0.9729 0.3203 -0.5957 0.286 -0.688 0.667 210 194 170 0 0
-0.9484 0.3404 -0.6123 -0.296 -0.538 0.789 179 155 130 0 0
-0.9287 0.3318 -0.6104 -0.019 -0.730 0.683 209 195 174 0 0
-0.9258 0.3302 -0.6099 -0.115 -0.993 -0.028 215 202 184 0 0
-0.9235 0.3304 -0.6104 0.209 -0.905 0.370 212 201 183 0 0
-0.9221 0.3327 -0.6121 0.494 -0.337 0.801 210 196 176 0 0
-0.8488 0.3492 -0.6350 0.038 -0.626 0.779 183 157 130 0 0
-0.7672 0.3745 -0.6647 0.219 -0.887 0.406 181 154 128 0 0
-0.7606 0.3767 -0.6671 0.224 -0.966 0.129 171 143 119 0 0
-0.7543 0.3798 -0.6701 0.216 -0.873 -0.437 160 133 108 0 0
-0.6958 0.3907 -0.6870 0.174 -0.948 0.265 200 183 157 0 0
-0.6936 0.3917 -0.6880 0.294 -0.943 0.157 189 169 142 0 0
-0.6914 0.3923 -0.6887 0.294 -0.943 0.157 184 163 137 0 0
-0.6687 0.3963 -0.6951 -0.253 -0.895 0.368 130 105 82 0 0
-0.6617 0.3956 -0.6959 0.496 -0.804 0.328 150 124 102 0 0
-0.6595 0.3968 -0.6970 0.615 -0.658 0.435 144 119 97 0 0
-0.6339 0.4197 -0.7155 0.687 -0.726 -0.000 164 141 116 0 0
-0.6316 0.4211 -0.7167 0.555 -0.832 0.017 180 159 135 0 0
-0.6294 0.4223 -0.7179 0.719 -0.621 0.311 176 156 128 0 0
-0.6128 0.4202 -0.7195 -0.402 -0.712 0.575 161 136 110 0 0
-0.6104 0.4196 -0.7195 -0.524 -0.657 0.542 161 135 110 0 0
-0.6081 0.4192 -0.7197 0.688 -0.725 -0.039 157 130 104 0 0
-0.5985 0.4155 -0.7191 -0.589 -0.365 0.720 154 129 104 0 0
-0.5961 0.4143 -0.7188 -0.844 -0.405 0.351 163 137 110 0 0
-0.5937 0.4123 -0.7179 -0.844 -0.429 0.322 171 146 119 0 0
-0.5225 0.4202 -0.7351 0.030 -0.874 0.486 188 166 143 0 0
-0.5157 0.4147 -0.7329 -0.367 -0.919 0.146 168 141 118 0 0
-0.5134 0.4144 -0.7332 -0.249 -0.734 0.632 166 140 115 0 0
-0.4858 0.4249 -0.7444 0.472 -0.833 -0.289 173 151 124 0 0
-0.4833 0.4296 -0.7477 0.533 -0.834 -0.145 175 154 127 0 0
-0.4810 0.4294 -0.7480 -0.160 -0.975 -0.154 177 155 128 0 0
-0.4764 0.4295 -0.7489 -0.292 -0.915 0.279 177 157 132 0 0
-0.4362 0.4479 -0.7671 0.705 -0.698 0.130 158 134 109 0 0
-0.4285 0.4567 -0.7739 0.808 -0.523 -0.270 169 145 119 0 0
-0.4072 0.4609 -0.7801 -0.868 -0.325 0.375 136 114 91 0 0
-0.4054 0.4560 -0.7775 -0.829 -0.309 0.467 135 113 91 0 0
-0.4022 0.4432 -0.7701 -0.616 -0.494 0.613 152 129 107 0 0
-0.4003 0.4406 -0.7689 -0.507 -0.545 0.668 175 155 132 0 0
-0.3906 0.4452 -0.7734 0.874 -0.442 0.202 187 170 149 0 0
-0.3820 0.4412 -0.7724 0.562 0.037 0.826 148 123 102 0 0
-0.3797 0.4421 -0.7734 0.875 -0.153 0.459 147 123 100 0 0
-0.3766 0.4475 -0.7773 0.875 -0.153 0.459 144 120 96 0 0
-0.3739 0.4510 -0.7799 0.861 -0.154 0.484 142 118 95 0 0
-0.3718 0.4496 -0.7794 0.700 -0.306 0.646 147 122 99 0 0
-0.3693 0.4510 -0.7806 0.533 -0.593 0.604 154 129 104 0 0
-0.3355 0.4632 -0.7940 -0.120 -0.992 -0.028 177 156 133 0 0
-0.3291 0.4478 -0.7857 0.685 -0.390 0.616 175 155 129 0 0
-0.3252 0.4568 -0.7919 0.041 -0.999 -0.033 177 156 131 0 0
-0.3231 0.4557 -0.7915 -0.195 -0.972 0.134 180 160 136 0 0
-0.3002 0.4575 -0.7966 -0.144 -0.989 0.019 189 172 149 0 0
-0.2976 0.4592 -0.7981 -0.056 -0.968 -0.243 184 167 142 0 0
-0.2913 0.4570 -0.7979 -0.315 -0.949 0.015 167 146 121 0 0
-0.2827 0.4551 -0.7982 -0.009 -0.979 0.203 174 154 126 0 0
-0.2804 0.4553 -0.7987 -0.359 -0.754 0.550 177 157 131 0 0
-0.2704 0.4499 -0.7972 -0.177 -0.171 0.969 190 174 153 0 0
-0.2672 0.4543 -0.8004 0.754 -0.587 -0.293 197 181 160 0 0
-0.2631 0.4623 -0.8060 0.754 -0.587 -0.293 194 178 156 0 0
-0.2607 0.4632 -0.8070 0.684 0.034 0.729 192 174 152 0 0
-1.4583 0.2293 -0.4581 0.947 -0.307 -0.089 193 177 150 0 0
-1.4578 0.2312 -0.4593 0.998 -0.044 0.032 193 176 150 0 0
-1.4563 0.2346 -0.4617 -0.192 -0.541 0.819 185 163 133 0 0
-1.4505 0.2336 -0.4621 -0.193 -0.555 0.809 182 161 129 0 0
-1.4470 0.2324 -0.4620 -0.205 -0.579 0.789 181 159 128 0 0
-1.4387 0.2414 -0.4689 -0.375 -0.670 0.641 156 130 102 0 0
-1.4056 0.2317 -0.4687 0.741 -0.094 0.664 178 156 124 0 0
-1.4012 0.2320 -0.4697 -0.246 -0.319 0.915 181 160 129 0 0
-1.3948 0.2434 -0.4778 0.844 0.032 0.536 160 135 106 0 0
-1.3936 0.2528 -0.4838 0.634 0.132 0.762 156 129 102 0 0
-1.3922 0.2567 -0.4864 0.461 0.078 0.884 170 145 115 0 0
-1.3900 0.2624 -0.4903 -0.681 -0.728 0.078 185 162 133 0 0
-1.3496 0.2435 -0.4857 -0.357 -0.932 -0.070 172 149 117 0 0
-1.3407 0.2359 -0.4825 -0.455 -0.889 -0.049 171 148 117 0 0
-1.3372 0.2345 -0.4823 -0.251 -0.948 -0.197 165 139 111 0 0
-1.3242 0.2442 -0.4905 0.296 -0.403 0.866 176 154 123 0 0
-1.3228 0.2454 -0.4915 0.702 0.081 0.707 168 146 117 0 0
-1.3210 0.2461 -0.4922 0.848 0.110 0.519 166 144 114 0 0
-1.3223 0.2535 -0.4966 0.087 -0.075 0.993 172 149 119 0 0
-1.3194 0.2528 -0.4966 -0.079 -0.218 0.973 172 150 121 0 0
-1.3112 0.2486 -0.4955 0.356 -0.640 0.681 179 158 127 0 0
-1.3078 0.2502 -0.4970 0.952 -0.298 -0.072 181 161 131 0 0
-1.3056 0.2533 -0.4994 0.923 -0.272 -0.273 177 157 126 0 0
-1.3041 0.2604 -0.5040 -0.188 -0.665 0.723 179 158 128 0 0
-1.3008 0.2592 -0.5038 -0.297 -0.775 0.557 178 157 126 0 0
-1.2975 0.2581 -0.5037 -0.214 -0.778 0.590 174 151 120 0 0
-1.2915 0.2656 -0.5094 -0.139 -0.563 0.815 180 156 128 0 0
-1.2791 0.2649 -0.5111 -0.094 -0.672 0.734 183 161 131 0 0
-1.2753 0.2631 -0.5106 0.203 -0.716 0.668 186 165 135 0 0
-1.2718 0.2647 -0.5122 0.668 -0.401 0.627 184 162 134 0 0
-1.2714 0.2673 -0.5139 0.502 -0.850 0.158 181 157 127 0 0
-1.2695 0.2680 -0.5147 0.398 -0.888 0.228 175 150 122 0 0
-1.2673 0.2683 -0.5152 0.423 -0.901 0.094 181 158 128 0 0
-1.2438 0.2784 -0.5255 -0.341 -0.338 0.877 181 158 128 0 0
-1.2398 0.2761 -0.5248 -0.263 -0.256 0.930 178 155 123 0 0
-1.2352 0.2796 -0.5278 -0.525 -0.815 0.246 178 154 124 0 0
-1.2310 0.2771 -0.5269 -0.538 -0.816 0.213 183 160 129 0 0
-1.2273 0.2752 -0.5264 -0.493 -0.831 0.256 186 163 135 0 0
-1.2232 0.2728 -0.5256 0.018 -0.668 0.744 187 163 135 0 0
-1.2064 0.2758 -0.5304 0.188 -0.740 0.645 194 176 148 0 0
-1.1963 0.2747 -0.5315 0.192 -0.772 0.606 201 185 162 0 0
-1.1892 0.2854 -0.5393 0.305 -0.475 0.825 169 143 115 0 0
-1.1875 0.2864 -0.5402 -0.094 -0.562 0.822 180 155 128 0 0
-1.1840 0.2846 -0.5397 -0.411 -0.605 0.682 185 161 132 0 0
-1.1683 0.2971 -0.5501 -0.472 -0.882 -0.007 189 165 135 0 0
-1.1640 0.2940 -0.5490 -0.395 -0.918 0.043 187 164 133 0 0
-1.1610 0.2931 -0.5489 -0.212 -0.899 0.383 190 168 138 0 0
-1.1510 0.2999 -0.5548 0.405 -0.333 0.852 165 139 112 0 0
-1.1399 0.3012 -0.5575 -0.121 -0.885 0.451 177 151 120 0 0
-1.1284 0.3019 -0.5599 0.219 -0.881 0.420 193 174 144 0 0
-1.1262 0.3021 -0.5605 0.219 -0.881 0.420 185 162 132 0 0
-1.0932 0.3064 -0.5688 0.681 -0.732 -0.025 171 147 116 0 0
-1.0905 0.3059 -0.5690 0.332 -0.926 0.182 168 143 111 0 0
-1.0413 0.3153 -0.5833 0.177 -0.930 0.323 193 173 146 0 0
-1.0389 0.3152 -0.5837 -0.192 -0.930 0.312 193 173 145 0 0
-1.0365 0.3150 -0.5840 -0.384 -0.886 0.260 183 161 131 0 0
-1.0336 0.3138 -0.5838 -0.384 -0.886 0.260 179 155 124 0 0
-1.0311 0.3136 -0.5841 -0.227 -0.893 0.388 187 163 132 0 0
-1.0284 0.3128 -0.5840 -0.183 -0.975 0.125 194 173 142 0 0
-1.0257 0.3120 -0.5840 0.773 -0.632 0.055 199 178 150 0 0
-1.0244 0.3143 -0.5856 0.566 -0.764 0.309 201 181 156 0 0
-1.0225 0.3152 -0.5865 0.411 -0.743 0.529 204 187 163 0 0
-0.9780 0.3199 -0.5971 -0.205 -0.698 0.686 202 184 156 0 0
-0.9752 0.3188 -0.5969 0.004 -0.715 0.699 209 196 170 0 0
-0.9728 0.3185 -0.5972 -0.060 -0.838 0.542 208 195 170 0 0
-0.9424 0.3352 -0.6127 -0.379 -0.621 0.686 199 178 152 0 0
-0.9287 0.3299 -0.6118 0.028 -0.752 0.658 210 196 173 0 0
-0.9263 0.3297 -0.6121 0.028 -0.752 0.658 220 209 191 0 0
-0.9217 0.3298 -0.6130 0.481 -0.384 0.788 217 207 189 0 0
-0.9196 0.3304 -0.6137 0.550 -0.417 0.723 207 192 171 0 0
-0.9176 0.3312 -0.6146 0.485 -0.352 0.800 190 169 145 0 0
-0.9156 0.3320 -0.6154 0.485 -0.352 0.800 195 176 153 0 0
-0.9140 0.3341 -0.6169 0.653 -0.244 0.717 204 187 166 0 0
-0.9070 0.3339 -0.6181 -0.319 -0.749 0.580 201 182 158 0 0
-0.9043 0.3329 -0.6179 -0.319 -0.749 0.580 192 171 146 0 0
-0.9016 0.3319 -0.6178 -0.319 -0.749 0.580 191 168 143 0 0
-0.8202 0.3522 -0.6444 0.778 -0.107 0.619 190 168 144 0 0
-0.7768 0.3733 -0.6649 0.066 -0.996 0.054 186 161 133 0 0
-0.7742 0.3720 -0.6645 0.230 -0.785 0.575 185 160 133 0 0
-0.7677 0.3744 -0.6671 0.289 -0.911 0.295 173 144 118 0 0
-0.7657 0.3756 -0.6682 -0.014 -0.955 0.296 174 148 121 0 0
-0.6963 0.3900 -0.6891 0.174 -0.948 0.265 190 171 143 0 0
-0.6941 0.3912 -0.6902 0.294 -0.943 0.157 184 163 133 0 0
-0.6692 0.3956 -0.6973 -0.253 -0.895 0.368 131 106 84 0 0
-0.6668 0.3949 -0.6973 -0.253 -0.895 0.368 141 116 93 0 0
-0.6599 0.3954 -0.6988 0.466 -0.629 0.622 148 125 101 0 0
-0.6298 0.4203 -0.7193 0.849 -0.434 0.301 181 162 136 0 0
-0.6109 0.4179 -0.7211 -0.310 -0.308 0.899 152 124 100 0 0
-0.6086 0.4189 -0.7221 0.571 -0.793 -0.211 155 129 104 0 0
-0.6038 0.4166 -0.7215 0.081 -0.819 0.567 156 130 106 0 0
-0.5990 0.4151 -0.7214 -0.815 -0.565 0.127 170 148 122 0 0
-0.5117 0.4114 -0.7343 0.418 -0.450 0.789 163 137 110 0 0
-0.5072 0.4108 -0.7347 -0.149 -0.587 0.796 174 152 125 0 0
-0.5027 0.4093 -0.7346 0.744 -0.665 0.068 175 152 124 0 0
-0.4814 0.4305 -0.7513 0.309 -0.568 0.762 174 150 124 0 0
-0.4582 0.4024 -0.7380 -0.384 -0.157 0.910 177 157 131 0 0
-0.4081 0.4570 -0.7804 -0.856 -0.485 0.179 158 135 111 0 0
-0.4061 0.4542 -0.7789 -0.862 -0.384 0.330 156 131 108 0 0
-0.4031 0.4394 -0.7704 -0.347 -0.735 0.583 162 139 113 0 0
-0.4009 0.4385 -0.7702 -0.347 -0.735 0.583 176 157 133 0 0
-0.3856 0.4347 -0.7705 0.459 0.085 0.885 175 156 131 0 0
-0.3803 0.4404 -0.7749 0.598 0.063 0.799 150 125 103 0 0
-0.3702 0.4477 -0.7812 0.764 -0.467 0.446 150 124 102 0 0
-0.3677 0.4495 -0.7827 0.636 -0.538 0.553 159 134 110 0 0
-0.3549 0.4441 -0.7816 0.209 -0.489 0.847 185 164 136 0 0
-0.3300 0.4450 -0.7865 0.685 -0.390 0.616 174 153 128 0 0
-0.3270 0.4493 -0.7896 0.384 -0.277 0.881 181 161 137 0 0
-0.3246 0.4500 -0.7905 0.531 -0.266 0.804 182 163 141 0 0
-0.3216 0.4419 -0.7860 -0.455 -0.797 -0.396 180 162 138 0 0
-0.3063 0.4515 -0.7946 0.661 -0.750 -0.018 177 156 132 0 0
-0.3037 0.4531 -0.7960 0.485 -0.871 0.072 176 156 130 0 0
-0.3012 0.4543 -0.7972 0.423 -0.906 -0.016 178 158 133 0 0
-0.2979 0.4598 -0.8011 -0.051 -0.971 -0.235 178 161 136 0 0
-0.2918 0.4564 -0.8001 -0.623 -0.757 0.197 170 150 124 0 0
-0.2834 0.4537 -0.7999 -0.293 -0.766 0.572 166 145 119 0 0
-0.2777 0.4488 -0.7979 -0.371 -0.819 0.438 175 155 130 0 0
-1.4587 0.2287 -0.4602 0.742 -0.286 0.607 193 176 149 0 0
-1.4566 0.2290 -0.4607 0.923 -0.213 0.320 194 175 147 0 0
-1.4533 0.2306 -0.4622 -0.070 -0.564 0.823 182 161 130 0 0
-1.4515 0.2312 -0.4629 -0.256 -0.568 0.783 179 159 126 0 0
-1.4481 0.2301 -0.4629 -0.203 -0.530 0.823 179 159 126 0 0
-1.4449 0.2293 -0.4629 -0.212 -0.568 0.795 176 156 124 0 0
-1.4417 0.2285 -0.4630 -0.225 -0.481 0.848 173 152 121 0 0
-1.4375 0.2290 -0.4640 0.701 0.058 0.711 164 141 113 0 0
-1.4326 0.2365 -0.4695 -0.428 -0.680 0.596 172 147 116 0 0
-1.4253 0.2364 -0.4707 -0.500 -0.827 0.256 177 154 122 0 0
-1.4216 0.2350 -0.4705 -0.375 -0.895 0.241 179 156 125 0 0
-1.4039 0.2315 -0.4713 -0.301 -0.344 0.890 180 159 127 0 0
-1.3985 0.2282 -0.4702 -0.254 -0.274 0.927 181 159 128 0 0
-1.3936 0.2411 -0.4791 0.849 0.059 0.525 158 132 105 0 0
-1.3929 0.2482 -0.4836 0.725 0.090 0.683 149 124 96 0 0
-1.3293 0.2408 -0.4900 0.259 -0.152 0.954 195 177 150 0 0
-1.3279 0.2420 -0.4910 0.306 -0.225 0.925 196 179 151 0 0
-1.3232 0.2421 -0.4919 0.296 -0.403 0.866 189 170 139 0 0
-1.3212 0.2425 -0.4925 0.471 -0.216 0.855 183 163 133 0 0
-1.3199 0.2437 -0.4934 0.864 0.046 0.501 176 156 128 0 0
-1.3186 0.2450 -0.4945 0.603 0.061 0.795 168 144 115 0 0
-1.3193 0.2487 -0.4966 0.225 -0.017 0.974 172 150 121 0 0
-1.3162 0.2479 -0.4967 -0.040 -0.309 0.950 178 158 130 0 0
-1.3122 0.2458 -0.4961 0.111 -0.395 0.912 186 168 141 0 0
-1.3108 0.2470 -0.4971 0.522 -0.555 0.647 186 168 141 0 0
-1.3084 0.2470 -0.4975 0.318 -0.630 0.708 186 166 141 0 0
-1.3081 0.2495 -0.4991 0.699 -0.290 0.654 185 165 139 0 0
-1.3063 0.2501 -0.4998 0.738 -0.358 0.572 182 162 134 0 0
-1.3049 0.2514 -0.5008 0.738 -0.358 0.572 180 159 131 0 0
-1.3033 0.2524 -0.5017 0.690 -0.041 0.722 178 157 130 0 0
-1.3042 0.2565 -0.5041 0.160 0.038 0.986 178 156 128 0 0
-1.3015 0.2560 -0.5043 0.188 0.036 0.981 175 151 121 0 0
-1.3006 0.2579 -0.5055 -0.297 -0.775 0.557 175 152 121 0 0
-1.2977 0.2572 -0.5057 0.478 -0.046 0.877 174 151 121 0 0
-1.2901 0.2627 -0.5103 0.195 -0.247 0.949 177 154 123 0 0
-1.2874 0.2623 -0.5106 -0.089 -0.494 0.865 176 153 122 0 0
-1.2804 0.2625 -0.5119 -0.084 -0.747 0.660 177 152 124 0 0
-1.2777 0.2620 -0.5121 -0.015 -0.740 0.673 177 154 125 0 0
-1.2747 0.2612 -0.5121 0.420 -0.796 0.436 185 164 136 0 0
-1.2714 0.2662 -0.5158 0.606 -0.746 0.274 178 155 126 0 0
-1.2677 0.2677 -0.5173 0.652 -0.735 0.187 173 150 119 0 0
-1.2532 0.2738 -0.5236 0.577 -0.069 0.814 179 155 127 0 0
-1.2507 0.2736 -0.5239 0.380 -0.118 0.917 182 161 133 0 0
-1.2401 0.2754 -0.5269 0.132 -0.280 0.951 175 151 120 0 0
-1.2325 0.2747 -0.5277 -0.406 -0.599 0.690 185 161 131 0 0
-1.2272 0.2739 -0.5281 -0.406 -0.850 0.335 184 160 130 0 0
-1.2118 0.2721 -0.5297 0.329 -0.523 0.786 169 142 112 0 0
-1.2012 0.2738 -0.5326 -0.049 -0.853 0.520 187 169 141 0 0
