ply
format ascii 1.0
element vertex 807
property float x
property float y
property float z
property float nx
property float ny
property float nz
property uchar diffuse_red
property uchar diffuse_green
property uchar diffuse_blue
property uchar class
property uchar detection
end_header
-3.3218 -11.4562 -4.6664 0.783 0.416 0.463 217 215 220 0 0
-3.2431 -11.4690 -4.6643 0.454 0.631 0.630 211 207 214 0 0
-3.2184 -11.4900 -4.6693 0.214 0.816 0.537 213 210 217 0 0
-2.9861 -11.5659 -4.6760 0.455 0.339 0.824 218 216 222 0 0
-2.9365 -11.6132 -4.6878 0.590 0.322 0.740 219 217 222 0 0
-2.7801 -11.6301 -4.6810 0.124 0.918 0.376 218 215 221 0 0
-2.6517 -11.6730 -4.6850 0.045 0.326 0.944 211 210 216 0 0
-2.5975 -11.6144 -4.6612 0.454 0.650 0.609 216 215 221 0 0
-2.4718 -11.7165 -4.6851 0.142 0.635 0.759 218 217 223 0 0
-2.4467 -11.7412 -4.6913 0.252 0.833 0.493 218 217 223 0 0
-2.4200 -11.7071 -4.6779 0.274 0.596 0.755 218 217 223 0 0
-2.3434 -11.7311 -4.6797 0.219 0.612 0.760 212 210 216 0 0
-2.3179 -11.7393 -4.6804 0.219 0.612 0.760 208 205 210 0 0
-2.2919 -11.7137 -4.6699 0.473 0.788 0.395 206 201 207 0 0
-2.2666 -11.7291 -4.6730 0.470 0.519 0.714 208 203 207 0 0
-2.2413 -11.7467 -4.6768 0.470 0.519 0.714 209 206 209 0 0
-2.2160 -11.7637 -4.6804 0.341 0.703 0.624 212 207 213 0 0
-2.1905 -11.7745 -4.6820 0.274 0.699 0.661 212 209 215 0 0
-2.1398 -11.8097 -4.6896 0.231 0.546 0.805 213 212 217 0 0
-1.9873 -11.8452 -4.6893 -0.096 0.751 0.653 216 213 220 0 0
-1.9117 -11.8112 -4.6720 0.253 0.709 0.658 217 214 221 0 0
-1.7342 -11.9107 -4.6909 0.710 0.467 0.527 212 211 217 0 0
-1.6070 -11.9822 -4.7045 0.143 0.217 0.966 213 212 219 0 0
-1.5810 -12.0158 -4.7136 0.101 0.126 0.987 214 213 220 0 0
-1.4313 -12.0129 -4.7007 0.686 0.357 0.635 216 215 221 0 0
-5.1094 -3.4669 -2.1405 -0.283 0.805 -0.522 91 67 28 0 0
-5.3839 -9.3994 -4.1206 0.196 0.138 0.971 229 224 227 0 0
-4.9827 -9.6690 -4.1780 0.122 -0.032 0.992 223 218 222 0 0
-4.6074 -9.9732 -4.2488 0.064 0.101 0.993 222 219 222 0 0
-4.5275 -10.0951 -4.2828 0.256 -0.105 0.961 224 222 226 0 0
-4.1049 -11.0330 -4.5591 0.370 -0.137 0.919 222 220 225 0 0
-3.3509 -11.4604 -4.6408 -0.207 0.626 0.751 217 214 221 0 0
-3.2470 -11.4892 -4.6421 -0.087 0.738 0.669 211 208 215 0 0
-3.1428 -11.5106 -4.6410 -0.256 0.959 0.124 216 214 219 0 0
-3.1160 -11.5067 -4.6376 -0.304 0.952 -0.026 214 212 217 0 0
-2.9924 -11.6236 -4.6664 0.328 0.146 0.933 219 216 222 0 0
-2.7845 -11.6666 -4.6642 0.306 0.378 0.874 215 212 219 0 0
-2.6818 -11.7045 -4.6686 0.241 0.300 0.923 212 209 216 0 0
-2.5766 -11.6757 -4.6509 0.391 0.478 0.787 218 217 223 0 0
-2.5513 -11.6912 -4.6540 0.391 0.478 0.787 219 218 224 0 0
-2.5271 -11.7412 -4.6686 0.269 0.751 0.603 219 218 224 0 0
-2.5009 -11.7321 -4.6635 0.451 0.564 0.692 219 218 224 0 0
-2.4753 -11.7406 -4.6643 0.142 0.635 0.759 218 217 223 0 0
-2.4497 -11.7471 -4.6644 0.053 0.735 0.677 216 215 221 0 0
-2.4234 -11.7316 -4.6572 0.274 0.596 0.755 215 214 220 0 0
-2.3723 -11.7460 -4.6580 -0.410 0.900 0.150 214 212 218 0 0
-2.3205 -11.7231 -4.6463 0.050 0.782 0.621 210 208 214 0 0
-2.2952 -11.7422 -4.6506 0.256 0.639 0.725 209 207 212 0 0
-2.2699 -11.7540 -4.6525 0.382 0.512 0.769 208 206 210 0 0
-2.2440 -11.7334 -4.6437 0.209 0.804 0.556 210 206 211 0 0
-2.2191 -11.7815 -4.6576 0.254 0.610 0.750 211 208 214 0 0
-2.1937 -11.7897 -4.6583 0.164 0.682 0.713 213 211 216 0 0
-1.9649 -11.8799 -4.6701 0.342 0.557 0.757 211 209 215 0 0
-1.9398 -11.8459 -4.6569 0.048 0.751 0.659 210 209 215 0 0
-1.9145 -11.8506 -4.6564 -0.165 0.771 0.615 213 212 218 0 0
-1.8893 -11.8476 -4.6534 -0.165 0.771 0.615 215 214 220 0 0
-1.6599 -12.0066 -4.6879 0.256 0.228 0.939 213 212 219 0 0
-1.6091 -12.0282 -4.6910 -0.026 0.319 0.947 214 213 220 0 0
-1.5839 -12.0301 -4.6896 -0.026 0.319 0.947 214 213 220 0 0
-1.4339 -12.0354 -4.6796 0.455 0.447 0.770 215 214 221 0 0
-1.4082 -12.0543 -4.6838 0.455 0.447 0.770 215 214 222 0 0
-10.7173 -5.9038 -3.3626 -0.287 0.919 0.272 220 216 217 0 0
-10.7167 -5.9330 -3.3722 0.564 0.218 0.796 221 217 218 0 0
-10.4001 -6.2896 -3.4645 0.586 -0.179 0.791 225 220 224 0 0
-5.0945 -3.4397 -2.1156 -0.421 0.832 -0.361 92 72 31 0 0
-5.0629 -3.4076 -2.1027 0.397 0.781 -0.482 124 100 56 0 0
-4.8620 -9.8211 -4.1915 0.435 0.108 0.894 224 221 225 0 0
-4.7823 -9.9330 -4.2220 0.220 0.346 0.912 226 222 225 0 0
-4.6635 -9.9891 -4.2311 0.363 0.141 0.921 223 220 223 0 0
-4.6192 -10.0276 -4.2403 0.094 0.130 0.987 223 221 225 0 0
-3.3817 -11.4823 -4.6212 -0.059 0.699 0.713 217 215 221 0 0
-3.1483 -11.5532 -4.6262 0.302 0.748 0.591 217 216 221 0 0
-2.9972 -11.6607 -4.6497 0.858 0.380 0.347 218 216 222 0 0
-2.9727 -11.6903 -4.6575 0.797 0.416 0.438 218 215 222 0 0
-2.8134 -11.6692 -4.6382 0.026 0.772 0.635 209 207 212 0 0
-2.5050 -11.7732 -4.6483 -0.118 0.612 0.782 219 218 224 0 0
-2.4785 -11.7563 -4.6406 -0.011 0.633 0.774 216 214 221 0 0
-2.4532 -11.7727 -4.6440 0.312 0.653 0.690 212 210 216 0 0
-2.4277 -11.7878 -4.6470 0.362 0.406 0.839 210 208 213 0 0
-2.3244 -11.7757 -4.6350 0.085 0.738 0.669 212 210 215 0 0
-2.2728 -11.7593 -4.6256 0.542 0.716 0.439 210 208 213 0 0
-2.2224 -11.8057 -4.6369 0.254 0.610 0.750 214 211 217 0 0
-2.1971 -11.8318 -4.6435 0.157 0.850 0.503 214 212 217 0 0
-2.1715 -11.8350 -4.6425 0.610 0.606 0.511 215 213 219 0 0
-2.1461 -11.8509 -4.6458 0.457 0.283 0.843 216 214 220 0 0
-1.9933 -11.9053 -4.6517 0.182 0.503 0.845 211 210 216 0 0
-1.4076 -12.1514 -4.6868 -0.103 0.273 0.957 216 216 223 0 0
-10.6859 -6.0600 -3.3870 0.420 0.215 0.882 223 219 221 0 0
-10.5723 -6.1602 -3.4109 0.282 -0.010 0.959 221 216 216 0 0
-6.1127 -9.2558 -4.0765 0.742 0.039 0.669 226 222 225 0 0
-6.1047 -9.3120 -4.0942 -0.004 0.435 0.900 227 222 225 0 0
-5.9813 -9.3490 -4.0967 -0.229 0.293 0.928 227 222 224 0 0
-5.9552 -9.3520 -4.0957 -0.202 0.389 0.899 227 222 225 0 0
-4.9968 -9.8345 -4.1791 0.052 0.023 0.998 225 221 225 0 0
-4.9692 -9.8290 -4.1752 -0.155 0.108 0.982 225 221 224 0 0
-4.6962 -10.0169 -4.2154 0.289 0.153 0.945 224 220 225 0 0
-3.4672 -11.5131 -4.6086 -0.720 0.473 0.508 218 215 221 0 0
-3.1519 -11.5705 -4.6030 0.256 0.811 0.526 217 215 220 0 0
-3.0770 -11.6313 -4.6170 0.004 0.661 0.751 217 215 221 0 0
-3.0494 -11.6166 -4.6101 0.321 0.626 0.710 217 215 221 0 0
-3.0006 -11.6753 -4.6255 0.858 0.380 0.347 217 216 221 0 0
-2.8177 -11.7025 -4.6202 -0.021 0.747 0.665 211 209 214 0 0
-2.4566 -11.7941 -4.6222 0.312 0.653 0.690 209 207 213 0 0
-2.4033 -11.7313 -4.5977 -0.079 0.996 0.038 210 208 214 0 0
-2.3014 -11.7650 -4.6008 0.257 0.800 0.543 213 211 217 0 0
-2.2760 -11.7757 -4.6023 -0.182 0.881 0.436 215 212 219 0 0
-2.2509 -11.8051 -4.6100 0.207 0.655 0.727 216 213 220 0 0
-2.2005 -11.8728 -4.6282 -0.348 0.331 0.877 216 213 219 0 0
-2.1744 -11.8238 -4.6102 0.582 0.302 0.755 215 213 219 0 0
-2.1240 -11.9106 -4.6346 0.645 0.193 0.740 217 214 220 0 0
-1.5376 -12.1223 -4.6584 0.598 0.313 0.738 216 215 222 0 0
-1.4836 -12.2243 -4.6875 0.150 0.397 0.905 217 216 222 0 0
-1.3128 -12.1245 -4.6418 0.320 0.623 0.714 215 214 222 0 0
-10.8517 -5.9598 -3.3428 0.586 -0.120 0.802 222 218 220 0 0
-10.7915 -5.9604 -3.3384 -0.212 0.741 0.638 222 218 219 0 0
-10.7498 -6.0395 -3.3608 0.132 0.188 0.973 225 221 222 0 0
-10.5901 -6.1853 -3.3959 0.389 0.055 0.919 222 217 217 0 0
-5.1629 -3.5496 -2.1272 0.233 0.704 -0.671 81 73 37 0 0
-6.1037 -9.3108 -4.0666 0.337 0.107 0.935 225 219 222 0 0
-6.0956 -9.3674 -4.0843 0.096 0.202 0.975 227 221 224 0 0
-5.9726 -9.4068 -4.0877 -0.030 0.320 0.947 226 220 222 0 0
-5.9517 -9.4260 -4.0923 0.363 0.112 0.925 228 224 225 0 0
-5.9286 -9.4385 -4.0946 0.167 0.108 0.980 230 226 229 0 0
-5.3156 -9.6318 -4.1105 0.436 0.078 0.897 225 221 224 0 0
-4.7991 -10.1258 -4.2312 -0.169 0.041 0.985 225 223 228 0 0
-4.7809 -10.1647 -4.2424 0.080 -0.064 0.995 224 222 226 0 0
-4.4737 -11.0891 -4.5186 0.142 -0.182 0.973 223 221 226 0 0
-3.7095 -11.4863 -4.5891 0.551 0.134 0.824 218 216 221 0 0
-3.6369 -11.5645 -4.6089 0.507 0.466 0.725 215 213 218 0 0
-3.2092 -11.5944 -4.5859 0.416 0.389 0.822 219 217 222 0 0
-3.1609 -11.6558 -4.6021 0.320 0.585 0.745 218 216 221 0 0
-3.1333 -11.6438 -4.5962 0.028 0.532 0.846 217 216 221 0 0
-3.1075 -11.6538 -4.5974 0.209 0.724 0.657 218 216 221 0 0
-3.0565 -11.6827 -4.6029 0.003 0.937 0.349 217 215 222 0 0
-3.0302 -11.6860 -4.6020 0.270 0.942 0.199 218 216 223 0 0
-2.9538 -11.7340 -4.6117 -0.106 0.990 0.092 214 212 217 0 0
-2.9268 -11.7251 -4.6067 -0.066 0.965 0.254 214 211 218 0 0
-2.9011 -11.7361 -4.6083 -0.138 0.799 0.586 215 212 218 0 0
-2.7447 -11.7647 -4.6057 0.789 0.538 0.297 213 210 217 0 0
-2.6157 -11.8069 -4.6095 0.501 0.247 0.829 218 216 223 0 0
-2.4067 -11.7573 -4.5775 -0.202 0.901 0.384 212 210 216 0 0
-2.1018 -11.9978 -4.6322 0.679 0.214 0.703 211 208 214 0 0
-1.8974 -11.9912 -4.6144 -0.141 0.369 0.919 210 209 215 0 0
-1.5397 -12.1618 -4.6424 0.663 0.247 0.707 215 214 222 0 0
-1.5127 -12.2142 -4.6573 0.040 0.518 0.854 215 214 222 0 0
-11.3184 -5.6006 -3.2380 0.351 0.029 0.936 223 219 219 0 0
-10.9735 -5.9070 -3.3106 0.091 0.155 0.984 221 217 218 0 0
-10.8315 -5.9766 -3.3223 -0.136 0.366 0.920 222 218 219 0 0
-10.8009 -5.9763 -3.3199 -0.351 0.602 0.717 222 218 219 0 0
-10.6501 -6.1912 -3.3778 0.259 0.108 0.960 219 213 214 0 0
-4.8166 -3.4409 -2.0512 0.810 0.190 -0.555 164 177 134 0 0
-6.0779 -9.3976 -4.0655 0.074 0.169 0.983 230 225 229 0 0
-5.9453 -9.4917 -4.0859 0.167 0.108 0.980 229 225 226 0 0
-5.3854 -9.6934 -4.1086 0.359 -0.087 0.929 225 222 224 0 0
-5.3636 -9.7115 -4.1127 0.125 -0.028 0.992 226 221 225 0 0
-5.0701 -10.0274 -4.1924 0.378 -0.151 0.913 224 222 226 0 0
-4.6060 -10.7581 -4.3927 0.114 -0.199 0.973 224 222 227 0 0
-4.4572 -11.3057 -4.5579 0.055 0.994 0.096 224 222 226 0 0
-4.4249 -11.2809 -4.5475 0.203 0.858 0.472 225 223 228 0 0
-3.5061 -11.5905 -4.5779 -0.303 0.292 0.907 218 215 221 0 0
-3.0595 -11.6923 -4.5769 0.003 0.937 0.349 218 216 222 0 0
-2.9566 -11.7397 -4.5844 -0.013 0.846 0.533 209 207 213 0 0
-2.9299 -11.7352 -4.5810 -0.114 0.935 0.337 210 208 214 0 0
-2.9046 -11.7538 -4.5851 -0.138 0.799 0.586 214 212 217 0 0
-2.8241 -11.7281 -4.5707 0.369 0.655 0.659 215 213 218 0 0
-2.7988 -11.7464 -4.5747 0.290 0.589 0.754 215 213 219 0 0
-2.6714 -11.8250 -4.5904 0.309 0.434 0.846 220 217 224 0 0
-2.6461 -11.8443 -4.5947 0.143 0.377 0.915 219 216 223 0 0
-2.3614 -11.8988 -4.5907 -0.332 0.583 0.741 213 211 216 0 0
-2.1815 -11.9411 -4.5908 0.394 0.384 0.835 217 214 220 0 0
-1.9005 -12.0068 -4.5907 -0.147 0.692 0.707 213 212 218 0 0
-1.8241 -12.0306 -4.5926 0.337 0.789 0.514 213 212 218 0 0
-1.5405 -12.2418 -4.6393 0.629 0.544 0.555 213 212 220 0 0
-11.0133 -5.9519 -3.3037 0.049 0.013 0.999 221 217 217 0 0
-10.9275 -5.9875 -3.3087 0.101 0.190 0.977 220 216 216 0 0
-10.9203 -6.0104 -3.3155 0.296 0.039 0.954 221 217 218 0 0
-10.8518 -6.0332 -3.3177 -0.290 0.419 0.860 221 217 218 0 0
-10.7217 -6.2088 -3.3642 0.205 0.083 0.975 220 215 216 0 0
-10.6777 -6.2262 -3.3665 0.123 0.168 0.978 220 216 215 0 0
-10.6342 -6.2441 -3.3690 0.445 0.370 0.816 223 219 220 0 0
-5.0556 -3.4024 -2.0424 0.915 -0.359 0.183 122 123 78 0 0
-5.0947 -10.1284 -4.1990 0.378 -0.151 0.913 225 223 227 0 0
-4.5535 -11.2115 -4.5053 0.572 0.622 0.535 220 218 223 0 0
-4.5297 -11.2344 -4.5109 0.681 0.622 0.387 221 217 222 0 0
-4.4308 -11.3080 -4.5271 0.330 0.761 0.559 223 221 225 0 0
-3.3027 -11.6987 -4.5679 0.265 0.603 0.753 219 217 222 0 0
-3.0642 -11.7265 -4.5590 0.363 0.803 0.473 217 214 221 0 0
-2.9862 -11.7502 -4.5608 0.316 0.799 0.511 212 209 217 0 0
-2.9599 -11.7527 -4.5596 -0.044 0.759 0.650 210 208 214 0 0
-2.9342 -11.7656 -4.5618 0.224 0.919 0.323 212 209 216 0 0
-2.8825 -11.7860 -4.5645 0.004 0.606 0.795 217 215 220 0 0
-2.8059 -11.8319 -4.5734 0.017 0.375 0.927 218 215 222 0 0
-2.7797 -11.8352 -4.5726 0.017 0.375 0.927 219 216 223 0 0
-2.7010 -11.8405 -4.5684 0.388 0.409 0.826 218 216 222 0 0
-2.6754 -11.8547 -4.5710 0.182 0.365 0.913 220 218 223 0 0
-2.6503 -11.8826 -4.5781 0.344 0.407 0.846 219 217 223 0 0
-2.6253 -11.9121 -4.5856 0.444 0.660 0.607 215 212 218 0 0
-2.5990 -11.9099 -4.5830 0.285 0.232 0.930 209 207 213 0 0
-2.3657 -11.9646 -4.5831 -0.380 0.364 0.850 216 213 219 0 0
-2.2359 -11.9409 -4.5658 0.286 0.200 0.937 215 212 219 0 0
-2.1847 -11.9617 -4.5686 0.228 0.648 0.727 215 213 218 0 0
-1.9034 -12.0385 -4.5722 -0.189 0.540 0.820 215 214 220 0 0
-1.5946 -12.2419 -4.6143 0.450 0.193 0.872 214 213 221 0 0
-11.0914 -6.0040 -3.3017 -0.043 0.139 0.989 221 217 218 0 0
-10.9474 -6.0436 -3.3037 0.379 0.036 0.925 221 217 218 0 0
-10.8966 -6.0539 -3.3032 -0.168 0.607 0.776 221 217 218 0 0
-10.8684 -6.1168 -3.3212 0.110 0.095 0.989 223 219 220 0 0
-10.7764 -6.2401 -3.3536 -0.000 0.274 0.962 217 212 212 0 0
-10.7559 -6.2505 -3.3554 0.187 0.109 0.976 219 214 214 0 0
-10.7383 -6.2638 -3.3583 0.247 0.011 0.969 221 217 216 0 0
-10.7020 -6.2579 -3.3538 0.076 0.275 0.958 222 218 218 0 0
-10.3843 -6.6017 -3.4397 0.146 0.095 0.985 222 218 217 0 0
-5.4055 -9.8664 -4.1108 -0.175 0.335 0.926 226 224 229 0 0
-5.3846 -9.8889 -4.1164 -0.160 0.384 0.910 226 224 229 0 0
-5.3561 -9.8827 -4.1123 0.163 0.291 0.943 227 225 230 0 0
-5.1878 -10.2878 -4.2288 -0.189 -0.081 0.979 225 223 228 0 0
-5.1610 -10.2901 -4.2276 0.020 -0.110 0.994 225 223 228 0 0
-4.8904 -11.0622 -4.4533 0.059 0.673 0.738 225 223 228 0 0
-3.3081 -11.7348 -4.5504 0.034 0.781 0.624 219 217 222 0 0
-3.1476 -11.7416 -4.5407 -0.201 0.588 0.783 216 214 219 0 0
-3.0680 -11.7471 -4.5366 0.166 0.611 0.774 215 212 218 0 0
-3.0417 -11.7509 -4.5359 0.509 0.704 0.495 216 214 219 0 0
-3.0130 -11.7198 -4.5238 0.651 0.695 0.304 215 213 219 0 0
-2.9894 -11.7618 -4.5354 0.390 0.720 0.573 213 210 217 0 0
-2.9624 -11.7548 -4.5312 0.277 0.959 -0.064 214 213 218 0 0
-2.8641 -11.8830 -4.5648 0.273 0.890 0.365 216 215 221 0 0
-2.6800 -11.8996 -4.5565 0.158 0.915 0.371 218 216 221 0 0
-2.6541 -11.9086 -4.5574 0.217 0.671 0.709 217 214 221 0 0
-2.6284 -11.9232 -4.5601 0.318 0.838 0.443 214 211 218 0 0
-2.2395 -11.9890 -4.5523 0.061 0.359 0.931 209 207 211 0 0
-2.2140 -12.0096 -4.5570 -0.120 0.838 0.532 210 208 212 0 0
-2.1115 -12.1076 -4.5806 0.645 0.333 0.687 213 210 217 0 0
-2.0599 -12.1049 -4.5760 0.622 0.669 0.408 213 213 218 0 0
-2.0341 -12.1111 -4.5760 0.647 0.525 0.554 214 213 220 0 0
-2.0084 -12.1086 -4.5733 0.538 0.763 0.359 216 215 222 0 0
-1.9569 -12.1428 -4.5804 -0.195 0.321 0.927 218 217 223 0 0
-1.2139 -12.3904 -4.6043 -0.002 0.789 0.614 215 215 223 0 0
-11.1365 -6.0243 -3.2870 0.112 0.203 0.973 220 216 217 0 0
-11.1184 -6.0367 -3.2896 -0.125 0.472 0.872 220 216 216 0 0
-11.1056 -6.0541 -3.2942 -0.305 0.670 0.677 220 216 216 0 0
-11.0310 -6.0419 -3.2849 0.002 0.759 0.652 217 211 213 0 0
-10.9615 -6.0943 -3.2963 0.445 0.042 0.895 221 217 218 0 0
-10.9530 -6.1161 -3.3026 0.240 0.144 0.960 220 216 217 0 0
-10.9333 -6.1271 -3.3047 0.110 0.223 0.968 222 218 219 0 0
-10.9229 -6.1472 -3.3102 0.199 -0.006 0.980 222 218 220 0 0
-10.9040 -6.1590 -3.3126 0.112 0.063 0.992 223 219 221 0 0
-10.8657 -6.1821 -3.3171 0.202 0.051 0.978 224 220 221 0 0
-10.8438 -6.2530 -3.3379 0.241 0.058 0.969 223 219 220 0 0
-10.7869 -6.2889 -3.3451 0.187 0.109 0.976 220 216 216 0 0
-10.7498 -6.3138 -3.3503 0.151 0.108 0.983 223 219 220 0 0
-10.7298 -6.3248 -3.3523 0.303 -0.068 0.950 224 220 222 0 0
-10.4340 -6.5960 -3.4165 0.082 0.062 0.995 222 216 217 0 0
-5.2388 -3.3721 -2.0173 -0.436 0.877 -0.201 30 23 9 0 0
-4.6699 -3.7744 -2.1030 0.880 0.469 0.070 214 194 148 0 0
-5.4707 -9.9070 -4.1009 0.347 -0.107 0.932 228 226 231 0 0
-5.4418 -9.9003 -4.0967 0.169 0.228 0.959 227 225 230 0 0
-5.1906 -10.4107 -4.2398 0.070 -0.119 0.990 226 224 229 0 0
-5.1645 -10.4169 -4.2398 -0.013 -0.085 0.996 227 225 230 0 0
-4.8963 -11.0869 -4.4321 -0.048 0.695 0.717 224 222 227 0 0
-4.6765 -11.2578 -4.4701 0.355 0.924 0.145 222 219 225 0 0
-4.4327 -11.3048 -4.4671 0.733 0.620 0.280 221 217 221 0 0
-4.4068 -11.3161 -4.4688 0.445 0.818 0.365 222 217 221 0 0
-4.3781 -11.3108 -4.4651 0.195 0.955 0.222 219 216 220 0 0
-3.3395 -11.7607 -4.5315 0.454 0.514 0.727 219 216 222 0 0
-3.3121 -11.7563 -4.5281 0.126 0.682 0.720 217 215 220 0 0
-3.1521 -11.7699 -4.5207 -0.201 0.588 0.783 213 210 216 0 0
-3.0173 -11.7469 -4.5035 0.711 0.631 0.311 216 214 219 0 0
-2.9929 -11.7787 -4.5118 0.390 0.720 0.573 217 215 220 0 0
-2.9671 -11.7910 -4.5138 0.390 0.720 0.573 216 215 221 0 0
-2.9150 -11.8045 -4.5143 0.746 0.614 0.257 218 215 222 0 0
-2.8903 -11.8333 -4.5216 0.761 0.633 0.138 217 216 222 0 0
-2.8669 -11.8878 -4.5371 0.175 0.973 0.150 218 216 222 0 0
-2.8138 -11.8848 -4.5323 -0.056 0.976 0.212 220 218 224 0 0
-2.7867 -11.8720 -4.5263 0.543 0.469 0.696 219 217 222 0 0
-2.7363 -11.9207 -4.5380 0.488 0.371 0.790 214 211 218 0 0
-2.7108 -11.9398 -4.5422 0.255 0.411 0.876 214 211 218 0 0
-2.6839 -11.9286 -4.5367 0.099 0.629 0.771 216 214 220 0 0
-2.6577 -11.9306 -4.5354 0.217 0.671 0.709 216 213 220 0 0
-2.6316 -11.9353 -4.5350 0.318 0.838 0.443 214 212 218 0 0
-2.6058 -11.9465 -4.5366 0.296 0.942 0.157 215 212 218 0 0
-2.5790 -11.9328 -4.5303 0.120 0.919 0.376 216 213 219 0 0
-2.3729 -12.0281 -4.5454 -0.041 0.567 0.822 217 215 220 0 0
-2.2946 -12.0157 -4.5358 0.345 0.209 0.915 212 210 215 0 0
-2.2691 -12.0369 -4.5406 0.345 0.209 0.915 208 206 211 0 0
-2.2431 -12.0306 -4.5367 0.157 0.337 0.928 206 204 208 0 0
-2.1401 -12.0674 -4.5408 0.406 0.626 0.666 214 212 218 0 0
-1.9858 -12.1413 -4.5529 -0.106 0.818 0.566 219 218 224 0 0
-1.1918 -12.4037 -4.5779 -0.386 0.287 0.877 216 216 224 0 0
-11.1183 -6.0732 -3.2765 -0.343 0.798 0.496 219 214 214 0 0
-11.0406 -6.0580 -3.2661 0.002 0.759 0.652 219 214 214 0 0
-11.0128 -6.1211 -3.2840 0.278 0.000 0.961 222 218 218 0 0
-11.0016 -6.1708 -3.2988 0.094 0.062 0.994 221 217 218 0 0
-10.9845 -6.1844 -3.3018 0.049 0.065 0.997 221 217 218 0 0
-10.9667 -6.1974 -3.3046 0.010 0.082 0.997 223 219 221 0 0
-10.9503 -6.2119 -3.3080 0.131 0.003 0.991 225 221 223 0 0
-10.9149 -6.2074 -3.3040 0.063 0.043 0.997 224 220 221 0 0
-10.9178 -6.2411 -3.3148 0.050 0.189 0.981 224 220 221 0 0
-10.8914 -6.2456 -3.3143 0.339 0.000 0.941 222 218 218 0 0
-10.7534 -6.3558 -3.3390 0.012 -0.019 1.000 223 220 221 0 0
-10.6050 -6.5227 -3.3807 0.355 0.240 0.904 219 211 208 0 0
-10.5177 -6.6274 -3.4073 0.336 -0.150 0.930 223 217 217 0 0
-10.4993 -6.6408 -3.4102 0.054 0.053 0.997 223 217 217 0 0
-10.4736 -6.6462 -3.4101 0.082 0.062 0.995 224 218 218 0 0
-5.5553 -9.9181 -4.0830 0.357 0.182 0.916 226 224 229 0 0
-5.5057 -9.9354 -4.0848 0.922 0.241 0.302 226 224 229 0 0
-5.2848 -10.4557 -4.2324 0.553 -0.201 0.808 225 224 229 0 0
-5.0128 -10.7144 -4.2941 0.295 -0.218 0.930 226 225 231 0 0
-4.4097 -11.3257 -4.4426 0.461 0.726 0.510 221 216 221 0 0
-4.3803 -11.3167 -4.4377 0.195 0.955 0.222 221 216 221 0 0
-2.8706 -11.9085 -4.5146 0.036 0.630 0.776 219 217 223 0 0
-2.7926 -11.9379 -4.5182 0.505 0.598 0.623 219 216 222 0 0
-2.7662 -11.9383 -4.5164 0.339 0.393 0.855 214 212 218 0 0
-2.6873 -11.9453 -4.5129 0.225 0.587 0.777 213 210 217 0 0
-2.6091 -11.9623 -4.5126 0.228 0.710 0.666 217 214 220 0 0
-2.5825 -11.9546 -4.5082 0.122 0.966 0.228 216 214 220 0 0
-2.4026 -12.0603 -4.5285 -0.176 0.660 0.730 217 214 220 0 0
-2.2984 -12.0658 -4.5227 0.161 0.460 0.873 212 210 215 0 0
-2.2466 -12.0736 -4.5214 -0.056 0.334 0.941 208 206 210 0 0
-2.1952 -12.1051 -4.5276 0.094 0.195 0.976 212 210 215 0 0
-11.0489 -6.0727 -3.2469 0.116 0.734 0.669 220 216 216 0 0
-11.0568 -6.2014 -3.2876 0.202 -0.038 0.979 221 217 218 0 0
-11.0429 -6.2183 -3.2919 0.094 0.062 0.994 222 218 219 0 0
-11.0304 -6.2366 -3.2967 0.124 0.039 0.992 222 218 219 0 0
-11.0131 -6.2503 -3.2998 0.010 0.082 0.997 223 219 220 0 0
-10.8775 -6.3319 -3.3156 0.411 0.019 0.911 222 217 216 0 0
-10.6507 -6.5455 -3.3661 0.213 0.366 0.906 220 212 210 0 0
-5.5691 -9.9673 -4.0718 0.399 0.314 0.862 227 225 230 0 0
-5.5388 -9.9565 -4.0662 0.538 0.509 0.672 226 224 230 0 0
-5.3490 -10.4890 -4.2190 0.577 -0.194 0.794 226 224 230 0 0
-5.0032 -11.1824 -4.4108 0.213 0.009 0.977 224 222 227 0 0
-4.6980 -11.3603 -4.4446 0.055 0.586 0.809 222 218 223 0 0
-4.6724 -11.3747 -4.4472 -0.274 0.787 0.553 220 218 223 0 0
-4.4084 -11.3109 -4.4085 -0.090 0.683 0.725 218 216 220 0 0
-3.3215 -11.8132 -4.4877 -0.049 0.748 0.662 217 215 220 0 0
-3.2945 -11.8132 -4.4858 -0.049 0.748 0.662 216 214 219 0 0
-3.2653 -11.7873 -4.4756 0.074 0.700 0.710 216 214 219 0 0
-2.9267 -11.9166 -4.4918 0.157 0.806 0.571 219 216 224 0 0
-2.9023 -11.9532 -4.5015 0.462 0.788 0.406 218 216 222 0 0
-2.8754 -11.9495 -4.4984 0.153 0.824 0.546 218 215 221 0 0
-2.6647 -11.9710 -4.4901 0.127 0.750 0.649 216 213 220 0 0
-2.6377 -11.9542 -4.4829 0.466 0.799 0.381 217 214 220 0 0
-2.4861 -12.1314 -4.5274 0.318 0.810 0.492 219 217 223 0 0
-2.4596 -12.1246 -4.5234 0.090 0.853 0.514 219 217 223 0 0
-2.3534 -12.0682 -4.4982 -0.102 0.965 0.242 210 206 210 0 0
-2.3023 -12.1197 -4.5106 0.277 0.381 0.882 210 208 213 0 0
-2.2765 -12.1356 -4.5138 0.379 0.331 0.864 210 208 212 0 0
-2.2504 -12.1322 -4.5108 0.567 0.294 0.769 210 208 213 0 0
-2.1983 -12.1161 -4.5021 0.098 0.366 0.925 213 210 216 0 0
-2.1472 -12.2073 -4.5269 0.389 0.832 0.396 215 214 220 0 0
-2.1212 -12.1982 -4.5222 0.349 0.721 0.598 216 215 221 0 0
-1.5788 -12.3829 -4.5411 -0.383 0.357 0.852 216 215 221 0 0
-11.1508 -6.0882 -3.2344 -0.280 0.813 0.510 219 214 213 0 0
-11.1074 -6.0763 -3.2277 -0.266 0.910 0.318 220 214 215 0 0
-11.1196 -6.1180 -3.2415 -0.030 0.710 0.703 221 216 216 0 0
-11.0846 -6.2662 -3.2850 0.094 0.062 0.994 223 219 220 0 0
-10.9426 -6.3419 -3.2985 0.228 0.367 0.902 220 214 214 0 0
-10.8731 -6.4933 -3.3406 0.327 0.133 0.936 225 221 223 0 0
-10.8494 -6.5009 -3.3412 0.006 0.391 0.920 225 221 224 0 0
-10.6529 -6.5875 -3.3542 0.105 0.172 0.980 219 214 211 0 0
-10.6214 -6.6198 -3.3621 0.412 0.096 0.906 223 217 217 0 0
-5.2100 -3.3843 -1.9757 0.379 0.636 0.672 32 24 10 0 0
-4.8212 -4.2298 -2.2106 0.889 -0.358 0.286 227 220 217 0 0
-5.3761 -10.5951 -4.2253 0.577 -0.194 0.794 228 224 231 0 0
-5.0798 -11.1382 -4.3730 0.435 0.550 0.713 225 223 228 0 0
-5.0458 -11.1130 -4.3627 0.442 0.112 0.890 224 222 228 0 0
-3.0127 -11.9688 -4.4847 -0.097 0.787 0.609 220 217 223 0 0
-2.8773 -11.9390 -4.4659 0.058 0.601 0.797 214 212 218 0 0
-2.8510 -11.9428 -4.4653 0.175 0.732 0.658 215 212 218 0 0
-2.5923 -12.0696 -4.4863 0.719 0.657 0.227 216 215 219 0 0
-2.5412 -12.1162 -4.4972 0.772 0.596 0.222 219 217 223 0 0
-2.4892 -12.1395 -4.5007 0.473 0.791 0.387 218 216 222 0 0
-2.4629 -12.1421 -4.4997 0.305 0.792 0.530 219 217 223 0 0
-2.4365 -12.1365 -4.4961 0.009 0.552 0.834 216 214 220 0 0
-2.2800 -12.1661 -4.4942 0.229 0.436 0.871 212 210 214 0 0
-2.2276 -12.1493 -4.4853 0.363 0.633 0.684 213 211 217 0 0
-2.2014 -12.1272 -4.4766 0.048 0.904 0.424 214 212 219 0 0
-11.2824 -6.1313 -3.2324 0.021 0.483 0.876 222 218 219 0 0
-11.1465 -6.0315 -3.1922 0.067 0.317 0.946 222 218 219 0 0
-11.2149 -6.1566 -3.2355 0.334 0.267 0.904 221 217 218 0 0
-11.1621 -6.1358 -3.2254 0.050 0.809 0.586 222 218 219 0 0
-11.1455 -6.1499 -3.2286 0.019 0.551 0.834 222 218 218 0 0
-10.9111 -6.5072 -3.3224 0.220 0.236 0.946 224 221 222 0 0
-10.8902 -6.5178 -3.3242 0.270 0.220 0.937 224 221 223 0 0
-10.7799 -6.6306 -3.3513 0.214 0.000 0.977 221 216 213 0 0
-10.6617 -6.6367 -3.3449 0.292 0.143 0.946 223 217 216 0 0
-5.1529 -3.4568 -1.9797 0.484 -0.163 0.860 67 53 19 0 0
-2.8291 -11.9820 -4.4465 0.551 0.281 0.786 214 211 217 0 0
-2.5691 -12.0829 -4.4595 0.814 0.232 0.533 218 217 223 0 0
-2.5446 -12.1356 -4.4740 0.814 0.232 0.533 217 216 222 0 0
-2.4399 -12.1591 -4.4740 -0.158 0.702 0.694 214 212 217 0 0
-1.9465 -12.2548 -4.4690 0.135 0.512 0.849 209 206 213 0 0
-1.9207 -12.2606 -4.4690 0.083 0.420 0.904 211 208 215 0 0
-11.2494 -6.1967 -3.2255 0.244 0.167 0.955 222 218 219 0 0
-11.0175 -6.4313 -3.2814 0.059 0.110 0.992 220 215 215 0 0
-10.7817 -6.6725 -3.3390 -0.054 0.214 0.975 221 216 214 0 0
-5.3503 -11.1837 -4.3466 0.189 0.928 0.320 225 220 224 0 0
-5.3211 -11.1828 -4.3443 0.055 0.852 0.521 225 220 224 0 0
-5.2437 -11.2229 -4.3513 -0.245 0.922 0.301 218 213 216 0 0
-3.8662 -11.7386 -4.4143 -0.133 0.383 0.914 220 218 224 0 0
-3.8379 -11.7337 -4.4108 0.294 0.754 0.587 218 216 221 0 0
-3.2868 -11.9618 -4.4427 0.171 0.887 0.430 220 218 224 0 0
-3.2601 -11.9675 -4.4426 0.129 0.879 0.460 221 219 224 0 0
-3.0758 -12.0344 -4.4504 -0.281 0.866 0.413 221 219 223 0 0
-2.8333 -12.0120 -4.4267 0.447 0.462 0.766 213 210 217 0 0
-1.9748 -12.3955 -4.4850 -0.426 0.229 0.875 210 207 213 0 0
-11.3478 -6.2074 -3.2107 0.112 0.069 0.991 222 218 219 0 0
-11.3153 -6.2669 -3.2267 0.235 -0.181 0.955 223 219 218 0 0
-11.0244 -6.4451 -3.2611 0.109 0.103 0.989 222 216 218 0 0
-11.0310 -6.4836 -3.2732 0.125 0.046 0.991 222 218 219 0 0
-10.9961 -6.5763 -3.2991 0.079 0.146 0.986 223 219 220 0 0
-10.8953 -6.6344 -3.3099 0.245 0.273 0.930 219 214 212 0 0
-5.8078 -10.4162 -4.1144 0.164 -0.191 0.968 227 225 230 0 0
-4.6114 -11.4808 -4.3570 0.035 0.615 0.788 217 212 216 0 0
-4.5559 -11.4866 -4.3550 0.436 0.434 0.788 218 215 219 0 0
-3.7985 -11.8484 -4.4135 0.389 0.631 0.671 216 214 220 0 0
-3.7725 -11.8620 -4.4158 0.389 0.631 0.671 218 216 221 0 0
-3.4699 -11.8587 -4.3942 0.134 0.466 0.875 217 215 221 0 0
-3.4434 -11.8657 -4.3945 0.134 0.466 0.875 219 217 222 0 0
-3.1326 -12.0405 -4.4265 0.111 0.829 0.549 222 221 226 0 0
-3.1037 -12.0145 -4.4167 -0.429 0.843 0.324 222 220 225 0 0
-2.9737 -12.0826 -4.4285 0.571 0.560 0.600 217 216 221 0 0
-2.5779 -12.1731 -4.4291 0.388 0.298 0.872 219 217 223 0 0
-2.5253 -12.1802 -4.4277 0.542 0.792 0.281 212 210 216 0 0
-2.4993 -12.1939 -4.4300 0.428 0.640 0.638 213 208 214 0 0
-2.4725 -12.1797 -4.4239 0.222 0.742 0.633 212 209 214 0 0
-2.2107 -12.1497 -4.3969 0.531 0.267 0.804 217 216 222 0 0
-2.1610 -12.4012 -4.4701 0.563 0.059 0.824 214 213 219 0 0
-11.1573 -6.4910 -3.2589 0.629 0.198 0.752 221 216 218 0 0
-11.1159 -6.5128 -3.2627 0.135 0.236 0.962 221 217 218 0 0
-11.1091 -6.5378 -3.2699 0.454 -0.146 0.879 222 218 219 0 0
-11.0650 -6.5250 -3.2630 0.474 -0.186 0.861 224 220 221 0 0
-11.0431 -6.6316 -3.2938 0.002 0.246 0.969 223 219 220 0 0
-10.9739 -6.6578 -3.2970 0.069 0.230 0.971 223 217 217 0 0
-5.8278 -10.5852 -4.1384 0.108 -0.207 0.972 228 226 231 0 0
-5.1561 -11.2119 -4.2827 0.112 0.722 0.683 224 219 223 0 0
-4.5118 -11.5506 -4.3418 0.640 0.427 0.639 223 221 225 0 0
-3.4766 -11.9059 -4.3795 0.155 0.441 0.884 218 216 221 0 0
-3.2420 -12.0221 -4.3988 0.342 0.939 -0.033 219 217 222 0 0
-3.2177 -12.0588 -4.4083 0.611 0.392 0.688 216 214 219 0 0
-3.1365 -12.0610 -4.4035 -0.039 0.895 0.444 221 219 224 0 0
-2.6334 -12.1669 -4.4016 0.389 0.313 0.866 216 213 220 0 0
-2.5554 -12.2078 -4.4087 0.533 0.437 0.724 215 212 219 0 0
-2.5288 -12.2042 -4.4058 0.218 0.738 0.639 213 210 217 0 0
-2.5027 -12.2143 -4.4071 0.576 0.584 0.572 213 209 215 0 0
-2.4503 -12.2261 -4.4072 0.202 0.349 0.915 214 210 216 0 0
-2.3997 -12.3101 -4.4292 0.594 0.233 0.770 214 212 217 0 0
-1.9295 -12.3790 -4.4183 0.394 0.566 0.724 215 214 220 0 0
-1.8521 -12.3694 -4.4102 -0.397 0.642 0.656 214 213 221 0 0
-11.2494 -6.4951 -3.2412 0.152 0.282 0.947 220 216 216 0 0
-11.2129 -6.4903 -3.2373 0.207 0.400 0.893 221 217 218 0 0
-11.1558 -6.5601 -3.2545 0.113 0.143 0.983 221 217 218 0 0
-11.0726 -6.6690 -3.2817 -0.031 0.240 0.970 223 219 219 0 0
-10.8187 -6.8333 -3.3141 0.566 -0.192 0.802 224 220 220 0 0
-6.2388 -3.1026 -1.8877 -0.020 0.644 0.765 193 157 67 0 0
-5.9265 -10.7277 -4.1590 -0.113 -0.102 0.988 228 226 231 0 0
-5.7254 -10.9432 -4.2103 0.910 -0.041 0.412 225 223 227 0 0
-5.7248 -11.0493 -4.2422 0.922 0.109 0.371 224 221 226 0 0
-4.6540 -11.5461 -4.3202 -0.084 0.495 0.865 221 216 220 0 0
-3.5129 -11.9746 -4.3730 0.201 0.549 0.811 213 210 217 0 0
-3.2482 -12.0702 -4.3842 0.348 0.894 0.283 216 214 219 0 0
-3.2178 -12.0311 -4.3704 0.637 0.737 0.225 215 212 218 0 0
-2.5588 -12.2267 -4.3853 0.736 0.620 0.273 216 213 220 0 0
-2.2989 -12.4060 -4.4218 -0.187 0.093 0.978 216 214 219 0 0
-1.9843 -12.4219 -4.4057 0.088 0.177 0.980 214 213 219 0 0
-1.9584 -12.4145 -4.4017 0.195 0.359 0.913 216 215 221 0 0
-11.4715 -6.3463 -3.1862 0.107 -0.082 0.991 223 219 220 0 0
-11.4249 -6.3628 -3.1880 0.072 -0.038 0.997 225 221 222 0 0
-11.3619 -6.4874 -3.2211 -0.040 0.753 0.657 220 216 217 0 0
-11.3289 -6.4864 -3.2186 -0.189 0.879 0.438 221 217 218 0 0
-11.1978 -6.6095 -3.2468 -0.088 0.240 0.967 223 219 220 0 0
-11.1655 -6.6089 -3.2444 -0.116 0.226 0.967 223 219 219 0 0
-11.0395 -6.7071 -3.2655 0.041 0.358 0.933 219 213 210 0 0
-11.0122 -6.7115 -3.2650 0.041 0.358 0.933 220 214 212 0 0
-10.8598 -6.8845 -3.3066 0.600 0.002 0.800 224 220 220 0 0
-6.0572 -10.9742 -4.2120 0.205 -0.034 0.978 229 227 232 0 0
-6.0467 -11.0397 -4.2309 -0.024 0.277 0.960 229 227 232 0 0
-6.0205 -11.0517 -4.2328 -0.332 0.313 0.890 227 225 230 0 0
-3.5710 -11.9850 -4.3503 0.351 0.369 0.860 217 216 221 0 0
-3.1452 -12.1146 -4.3610 0.242 0.735 0.634 217 214 221 0 0
-2.5632 -12.2732 -4.3701 0.528 0.606 0.595 215 212 219 0 0
-2.5365 -12.2685 -4.3669 0.288 0.353 0.890 212 209 216 0 0
-2.5105 -12.2814 -4.3691 0.560 0.455 0.693 211 208 214 0 0
-2.4843 -12.2916 -4.3704 0.469 0.202 0.860 213 211 216 0 0
-1.8829 -12.5121 -4.3967 -0.296 0.139 0.945 215 214 220 0 0
-11.4245 -6.4310 -3.1832 0.976 0.186 0.115 226 222 223 0 0
-11.4120 -6.5122 -3.2065 -0.160 0.828 0.537 221 216 217 0 0
-11.3744 -6.5068 -3.2024 -0.004 0.709 0.705 220 216 216 0 0
-11.3658 -6.5297 -3.2087 0.169 0.477 0.863 221 217 216 0 0
-11.3323 -6.5281 -3.2060 0.108 0.736 0.669 222 217 218 0 0
-11.2454 -6.6647 -3.2409 -0.118 0.225 0.967 225 221 221 0 0
-11.2098 -6.6608 -3.2374 -0.118 0.225 0.967 225 221 222 0 0
-6.0356 -10.9015 -4.1594 0.244 -0.085 0.966 228 226 231 0 0
-6.0528 -11.0610 -4.2079 0.328 0.273 0.904 227 225 230 0 0
-5.6809 -11.3269 -4.2626 0.747 0.605 -0.274 225 223 228 0 0
-4.5604 -11.6454 -4.2843 0.410 0.411 0.814 221 217 222 0 0
-3.9529 -11.9124 -4.3240 0.226 0.471 0.853 220 218 223 0 0
-3.5487 -12.0163 -4.3285 0.589 0.446 0.674 217 214 222 0 0
-3.5232 -12.0363 -4.3328 0.484 0.390 0.783 217 215 221 0 0
-3.1732 -12.0953 -4.3276 0.016 0.776 0.631 215 213 219 0 0
-3.1490 -12.1338 -4.3374 0.242 0.735 0.634 217 215 220 0 0
-3.1224 -12.1419 -4.3381 0.242 0.735 0.634 218 216 221 0 0
-3.0959 -12.1493 -4.3386 0.739 0.359 0.569 219 216 222 0 0
-3.0707 -12.1766 -4.3450 0.731 0.333 0.596 219 216 223 0 0
-2.5670 -12.3016 -4.3494 0.336 0.941 0.048 215 213 219 0 0
-2.4887 -12.3464 -4.3576 0.659 0.410 0.631 216 214 220 0 0
-2.4626 -12.3603 -4.3600 0.379 0.315 0.870 218 215 222 0 0
-1.9642 -12.5321 -4.3786 0.142 0.174 0.974 218 217 224 0 0
-11.4279 -6.4413 -3.1613 0.961 0.277 -0.017 225 221 221 0 0
-11.4468 -6.4907 -3.1771 0.969 -0.055 0.242 225 221 221 0 0
-11.4183 -6.5568 -3.1948 0.430 0.114 0.896 221 216 218 0 0
-11.4044 -6.5748 -3.1992 0.430 0.114 0.896 222 217 216 0 0
-11.2768 -6.7035 -3.2289 -0.041 0.230 0.972 223 218 219 0 0
-11.0657 -6.8478 -3.2579 0.139 0.166 0.976 222 216 216 0 0
-6.1234 -11.0986 -4.1937 0.465 0.873 -0.149 227 225 229 0 0
-6.1010 -11.1240 -4.1997 0.086 0.940 0.331 226 224 229 0 0
-6.0737 -11.1328 -4.2006 0.287 0.934 0.214 226 223 229 0 0
-6.0145 -11.1345 -4.1973 -0.326 0.856 0.401 221 216 219 0 0
-5.8385 -11.1416 -4.1881 0.358 0.120 0.926 223 218 222 0 0
-5.7486 -11.2460 -4.2131 0.001 0.927 0.374 224 220 224 0 0
-5.6962 -11.2715 -4.2172 0.313 0.851 -0.421 226 224 229 0 0
-5.6731 -11.2960 -4.2230 0.515 0.719 -0.467 225 222 226 0 0
-4.7021 -11.6340 -4.2603 0.244 0.586 0.773 222 217 221 0 0
-4.5929 -11.6615 -4.2614 -0.023 0.597 0.802 221 216 221 0 0
-3.8041 -12.0490 -4.3249 0.137 0.890 0.435 221 219 224 0 0
-3.7753 -12.0418 -4.3210 0.786 0.414 0.460 221 219 224 0 0
-3.7515 -12.0771 -4.3299 0.786 0.414 0.460 220 217 223 0 0
-3.7230 -12.0718 -4.3265 -0.524 0.843 0.122 220 218 223 0 0
-3.5686 -11.9240 -4.2730 0.269 0.832 0.484 220 217 224 0 0
-3.5421 -11.9321 -4.2737 0.269 0.832 0.484 219 217 223 0 0
-3.5225 -12.0085 -4.2949 0.745 0.263 0.613 218 217 223 0 0
-3.1529 -12.1551 -4.3144 0.316 0.672 0.670 217 214 221 0 0
-3.1264 -12.1637 -4.3153 0.708 0.244 0.662 218 215 222 0 0
-3.1022 -12.2051 -4.3259 0.708 0.244 0.662 219 217 223 0 0
-2.5176 -12.3295 -4.3251 0.676 0.413 0.610 216 215 221 0 0
-2.4924 -12.3733 -4.3363 0.659 0.410 0.631 218 216 223 0 0
-2.4668 -12.4059 -4.3443 0.410 0.249 0.878 218 217 222 0 0
-2.4422 -12.4822 -4.3652 0.845 0.353 0.402 215 214 220 0 0
-2.3383 -12.6130 -4.3971 -0.374 0.611 0.698 217 215 221 0 0
-2.3114 -12.6092 -4.3943 -0.177 0.635 0.752 216 214 219 0 0
-2.2849 -12.6207 -4.3959 0.676 0.536 0.505 213 211 216 0 0
-12.5545 -6.3037 -3.1674 -0.456 0.550 0.700 216 207 197 0 0
-12.3357 -6.3193 -3.1581 -0.039 -0.014 0.999 215 202 184 0 0
-11.3517 -6.7538 -3.2229 0.068 0.153 0.986 224 218 218 0 0
-11.3135 -6.7477 -3.2187 -0.125 0.313 0.941 223 217 217 0 0
-11.1351 -6.7943 -3.2211 -0.080 0.548 0.833 220 215 212 0 0
-11.0990 -6.7897 -3.2174 0.356 0.156 0.921 221 216 213 0 0
-10.8462 -7.0977 -3.2916 0.159 0.337 0.928 221 217 216 0 0
-10.8255 -7.1099 -3.2938 0.882 0.017 0.471 223 219 218 0 0
-10.7796 -7.1648 -3.3070 0.379 0.394 0.837 224 220 219 0 0
-6.1758 -3.1455 -1.8382 -0.079 0.884 0.462 192 162 48 0 0
-6.1557 -3.1407 -1.8355 -0.271 0.872 0.407 190 157 38 0 0
-5.4944 -3.3544 -1.8561 0.533 0.835 0.138 217 179 33 0 0
-5.8535 -11.1960 -4.1752 0.358 0.120 0.926 224 219 223 0 0
-5.0004 -11.5388 -4.2215 0.192 0.318 0.929 220 215 219 0 0
-4.9739 -11.5501 -4.2232 0.192 0.318 0.929 222 217 221 0 0
-4.5767 -11.7243 -4.2490 0.252 0.766 0.591 219 215 219 0 0
-4.5164 -11.7050 -4.2395 -0.222 0.837 0.500 222 218 222 0 0
-3.5032 -12.0698 -4.2821 0.469 0.464 0.752 219 216 223 0 0
-3.3725 -12.1412 -4.2947 0.183 0.221 0.958 218 216 222 0 0
-3.1300 -12.1802 -4.2908 0.456 0.186 0.870 220 218 224 0 0
-2.8407 -12.3140 -4.3116 0.120 0.366 0.923 220 218 223 0 0
-2.4715 -12.4709 -4.3342 0.679 0.166 0.715 218 217 223 0 0
-12.6574 -6.4284 -3.1844 -0.217 0.167 0.962 216 207 197 0 0
-12.6031 -6.4113 -3.1760 -0.183 0.112 0.977 218 207 197 0 0
-12.4043 -6.3866 -3.1564 -0.121 0.081 0.989 215 202 184 0 0
-11.5707 -6.5939 -3.1645 0.021 0.161 0.987 226 222 221 0 0
-11.5351 -6.6223 -3.1706 0.176 -0.037 0.984 225 220 220 0 0
-11.3523 -6.7941 -3.2091 -0.149 0.341 0.928 221 216 216 0 0
-11.1581 -6.8583 -3.2156 0.812 0.407 0.418 221 216 214 0 0
-6.1923 -3.1485 -1.8256 -0.136 0.873 0.469 189 157 51 0 0
-6.1795 -3.1540 -1.8264 -0.149 0.868 0.473 193 162 49 0 0
-6.1586 -3.1482 -1.8234 -0.314 0.884 0.345 193 162 44 0 0
-5.4965 -3.2253 -1.8043 0.783 0.074 -0.618 183 132 16 0 0
-5.8282 -11.3203 -4.1800 -0.333 0.713 0.617 226 221 225 0 0
-4.6355 -11.7267 -4.2236 0.094 0.896 0.434 220 217 221 0 0
-3.5828 -12.0207 -4.2432 0.181 0.899 0.399 220 218 223 0 0
-3.5717 -12.1795 -4.2887 0.397 0.243 0.885 219 218 223 0 0
-3.5461 -12.2011 -4.2934 0.428 0.252 0.868 219 217 223 0 0
-3.5084 -12.1017 -4.2621 0.501 0.349 0.792 220 218 224 0 0
-3.4606 -12.1774 -4.2811 0.870 0.302 0.391 219 218 224 0 0
-3.4315 -12.1613 -4.2746 0.105 0.277 0.955 220 218 224 0 0
-3.2161 -12.2083 -4.2748 -0.176 0.255 0.951 215 212 218 0 0
-3.1611 -12.2021 -4.2696 0.420 0.297 0.857 218 217 222 0 0
-3.1356 -12.2242 -4.2744 0.420 0.297 0.857 221 219 224 0 0
-2.7947 -12.4170 -4.3092 0.040 0.433 0.900 217 214 221 0 0
-12.6617 -6.4988 -3.1791 -0.149 0.134 0.980 217 208 198 0 0
-12.6100 -6.4839 -3.1716 -0.183 0.217 0.959 217 207 198 0 0
-12.3193 -6.4979 -3.1576 -0.210 0.168 0.963 214 201 181 0 0
-11.5627 -6.6248 -3.1475 0.022 0.038 0.999 226 222 221 0 0
-11.5083 -6.7952 -3.1934 0.240 0.175 0.955 226 222 221 0 0
-11.4319 -6.8490 -3.2042 0.082 0.622 0.779 224 219 219 0 0
-11.3428 -6.8243 -3.1916 -0.207 0.486 0.849 224 218 218 0 0
-11.2785 -6.8242 -3.1876 0.355 0.146 0.923 222 217 214 0 0
-11.2686 -6.8471 -3.1936 0.077 0.204 0.976 220 215 212 0 0
-11.2465 -6.8574 -3.1952 0.343 0.071 0.936 221 216 212 0 0
-6.2415 -3.1501 -1.8146 0.434 0.901 -0.007 125 108 46 0 0
-6.2146 -3.1595 -1.8156 0.311 0.948 0.062 156 131 49 0 0
-6.1949 -3.1555 -1.8133 -0.136 0.873 0.469 186 155 54 0 0
-5.9468 -3.1318 -1.7911 0.297 0.917 0.267 160 114 5 0 0
-5.5151 -3.4241 -1.8488 0.841 0.069 -0.537 185 144 30 0 0
-5.4650 -3.4768 -1.8610 -0.338 0.533 0.776 105 74 18 0 0
-5.4492 -3.4773 -1.8601 -0.339 0.433 0.835 101 68 18 0 0
-5.4272 -3.4663 -1.8556 -0.289 0.455 0.842 96 62 15 0 0
-5.6490 -11.3139 -4.1371 0.419 0.576 0.702 218 214 218 0 0
-5.6199 -11.3155 -4.1358 0.483 0.377 0.791 219 214 218 0 0
-4.6405 -11.7482 -4.2003 0.005 0.809 0.587 220 217 220 0 0
-4.6133 -11.7562 -4.2009 0.160 0.842 0.516 217 213 217 0 0
-4.0378 -12.0763 -4.2579 -0.287 0.521 0.804 222 220 225 0 0
-3.5527 -12.2462 -4.2770 0.503 0.260 0.824 220 218 224 0 0
-3.5206 -12.2029 -4.2625 0.176 0.481 0.859 221 219 225 0 0
-3.4399 -12.2280 -4.2648 0.222 0.332 0.917 222 219 226 0 0
-3.4132 -12.2374 -4.2658 0.139 0.287 0.948 219 217 222 0 0
-2.0292 -12.7522 -4.3291 0.479 0.093 0.873 215 214 222 0 0
-11.5382 -6.7997 -3.1708 0.050 0.324 0.945 226 222 221 0 0
-11.4120 -6.8688 -3.1830 -0.207 0.486 0.849 225 220 219 0 0
-11.3718 -6.8940 -3.1877 0.020 0.175 0.984 224 218 218 0 0
-11.3285 -6.8826 -3.1818 0.113 0.095 0.989 223 218 216 0 0
-11.3083 -6.8950 -3.1841 0.174 0.058 0.983 223 218 215 0 0
-5.4528 -3.4864 -1.8485 -0.355 0.529 0.771 94 59 14 0 0
-5.4373 -3.4872 -1.8478 -0.289 0.455 0.842 93 59 14 0 0
-5.0098 -4.0480 -1.9827 0.314 0.949 -0.001 43 35 19 0 0
-5.6552 -11.3371 -4.1144 0.419 0.576 0.702 221 216 220 0 0
-5.6283 -11.3471 -4.1156 0.483 0.377 0.791 221 216 220 0 0
-5.5467 -11.4917 -4.1522 0.705 0.084 0.705 223 218 222 0 0
-5.5296 -11.5422 -4.1656 0.394 0.374 0.840 224 219 223 0 0
-4.6180 -11.7758 -4.1771 0.062 0.816 0.575 219 216 220 0 0
-4.0717 -12.1045 -4.2381 -0.377 0.293 0.879 221 219 224 0 0
-3.5025 -12.2797 -4.2537 -0.310 0.764 0.566 223 221 227 0 0
-3.4475 -12.2855 -4.2520 -0.116 0.469 0.876 223 221 227 0 0
-3.2857 -12.3328 -4.2557 0.396 0.475 0.786 219 217 222 0 0
-3.2300 -12.3250 -4.2501 -0.086 0.384 0.919 214 211 217 0 0
-2.9352 -12.4116 -4.2569 0.543 0.598 0.589 218 217 223 0 0
-12.6899 -6.6587 -3.1743 0.111 -0.083 0.990 216 208 198 0 0
-11.4201 -6.9172 -3.1715 -0.002 0.212 0.977 226 220 220 0 0
-11.3003 -6.9606 -3.1767 0.104 0.072 0.992 224 218 218 0 0
-11.2948 -6.9885 -3.1843 0.335 -0.068 0.940 223 218 215 0 0
-5.6116 -2.8693 -1.6676 0.905 0.401 -0.145 198 146 17 0 0
-5.5083 -3.4457 -1.8257 0.883 0.030 -0.469 145 108 15 0 0
-5.4402 -3.4953 -1.8357 -0.180 0.617 0.766 89 55 13 0 0
-5.9271 -11.3537 -4.1058 0.130 0.846 0.517 226 221 226 0 0
-5.6209 -11.4324 -4.1098 0.587 0.190 0.787 222 217 221 0 0
-5.5779 -11.4966 -4.1255 0.671 0.278 0.687 223 218 222 0 0
-5.5365 -11.5689 -4.1436 0.349 0.555 0.755 225 220 224 0 0
-4.6504 -11.7901 -4.1533 0.062 0.816 0.575 222 218 222 0 0
-4.6223 -11.7929 -4.1524 0.062 0.816 0.575 220 218 222 0 0
-3.5482 -12.1610 -4.1927 0.367 0.269 0.891 219 217 224 0 0
-3.5337 -12.2919 -4.2292 0.613 0.413 0.674 220 217 223 0 0
-3.5063 -12.2967 -4.2289 -0.456 0.764 0.456 222 220 225 0 0
-3.4235 -12.3023 -4.2255 -0.071 0.645 0.761 218 216 221 0 0
-3.3138 -12.3122 -4.2217 0.286 0.782 0.554 220 218 222 0 0
-3.2899 -12.3561 -4.2328 0.434 0.431 0.791 219 218 222 0 0
-3.2604 -12.3327 -4.2243 -0.135 0.588 0.798 217 215 222 0 0
-3.2348 -12.3558 -4.2294 0.067 0.423 0.904 217 215 221 0 0
-12.7635 -6.5498 -3.1215 -0.514 0.844 0.155 218 210 205 0 0
-12.8696 -6.7930 -3.1967 0.623 -0.143 0.769 218 210 204 0 0
-11.2943 -7.0628 -3.1795 0.243 -0.025 0.970 226 222 221 0 0
-11.2741 -7.1097 -3.1916 0.310 0.055 0.949 226 221 221 0 0
-6.4661 -3.3030 -1.8277 -0.247 0.925 0.288 223 214 210 0 0
-5.6110 -2.8948 -1.6613 0.992 -0.106 0.074 196 144 11 0 0
-5.4404 -3.4984 -1.8221 -0.194 0.878 0.438 94 60 15 0 0
-5.4232 -3.4962 -1.8205 0.092 0.796 0.598 101 64 16 0 0
-4.9969 -3.4827 -1.7913 0.391 0.606 0.693 186 131 62 0 0
-5.9324 -11.3725 -4.0815 -0.253 0.740 0.624 224 220 222 0 0
-5.5457 -11.6044 -4.1242 0.165 0.944 0.284 225 220 224 0 0
-5.5158 -11.6037 -4.1222 0.238 0.965 0.110 225 220 224 0 0
-5.4888 -11.6147 -4.1237 -0.232 0.948 0.218 223 218 222 0 0
-5.4591 -11.6142 -4.1218 -0.215 0.966 0.146 220 214 217 0 0
-5.3713 -11.7446 -4.1535 -0.162 0.639 0.752 221 216 218 0 0
-5.3406 -11.7403 -4.1505 -0.117 0.679 0.725 221 217 220 0 0
-5.3104 -11.7377 -4.1479 -0.117 0.679 0.725 221 216 220 0 0
-4.6299 -11.8290 -4.1333 0.168 0.615 0.771 221 219 222 0 0
-3.8040 -12.1894 -4.1863 0.268 0.533 0.802 219 217 222 0 0
-3.7761 -12.1905 -4.1850 0.425 0.441 0.790 220 218 224 0 0
-3.5405 -12.3395 -4.2132 0.457 0.245 0.855 216 214 219 0 0
-3.5129 -12.3423 -4.2124 -0.167 0.555 0.815 219 217 222 0 0
-3.3725 -12.3267 -4.1996 0.288 0.744 0.602 216 214 219 0 0
-3.3155 -12.3058 -4.1903 0.571 0.820 0.051 219 216 222 0 0
-3.2934 -12.3703 -4.2072 0.656 0.609 0.447 219 216 223 0 0
-12.9095 -6.8355 -3.1843 0.543 -0.267 0.796 219 211 207 0 0
-6.4530 -3.3124 -1.8147 -0.263 0.859 0.438 223 214 205 0 0
-5.6080 -2.8932 -1.6472 0.821 0.316 0.476 184 137 21 0 0
-5.4264 -3.5047 -1.8086 0.092 0.796 0.598 107 71 17 0 0
-5.7367 -11.4200 -4.0534 0.057 0.272 0.961 224 219 223 0 0
-5.7030 -11.4046 -4.0471 0.392 0.215 0.895 225 220 224 0 0
-5.6870 -11.4570 -4.0609 0.184 0.885 0.427 225 220 224 0 0
-5.6095 -11.6202 -4.1023 0.085 0.996 -0.032 226 222 226 0 0
-5.3168 -11.7630 -4.1253 -0.219 0.552 0.804 222 217 221 0 0
-4.8092 -11.8573 -4.1220 -0.050 0.679 0.732 219 216 219 0 0
-4.0552 -12.1547 -4.1615 -0.141 0.669 0.730 219 217 222 0 0
-3.8110 -12.2327 -4.1691 0.655 0.694 0.298 222 220 225 0 0
-3.5626 -12.2617 -4.1627 0.252 0.186 0.950 217 215 221 0 0
-2.8175 -12.6072 -4.2162 0.589 0.571 0.571 217 216 222 0 0
-11.3736 -7.1946 -3.1691 0.354 -0.141 0.924 225 221 220 0 0
-5.5361 -3.4469 -1.7844 -0.300 0.754 -0.585 210 165 33 0 0
-5.5195 -3.4458 -1.7831 -0.090 0.697 -0.711 190 144 28 0 0
-5.2106 -3.7337 -1.8457 0.196 0.650 0.734 185 145 44 0 0
-5.2020 -3.7486 -1.8493 0.422 0.562 0.712 193 152 46 0 0
-5.7740 -11.4480 -4.0335 0.072 0.297 0.952 225 220 224 0 0
-5.2625 -11.6503 -4.0605 0.366 0.867 0.338 222 219 222 0 0
-4.7913 -11.9102 -4.1058 -0.141 0.392 0.909 221 217 221 0 0
-4.7667 -11.9334 -4.1109 0.206 0.352 0.913 221 217 221 0 0
-4.5669 -12.1144 -4.1499 0.179 0.752 0.634 223 221 226 0 0
-4.0898 -12.1883 -4.1430 -0.070 0.809 0.584 215 213 218 0 0
-4.0606 -12.1825 -4.1397 -0.220 0.798 0.561 215 213 218 0 0
-3.8932 -12.1990 -4.1346 0.593 0.565 0.574 219 217 222 0 0
-3.8718 -12.2540 -4.1487 0.750 0.535 0.390 220 218 224 0 0
-3.8420 -12.2413 -4.1435 0.682 0.726 0.091 221 219 225 0 0
-3.8152 -12.2523 -4.1450 0.734 0.444 0.514 223 221 226 0 0
-3.7915 -12.2894 -4.1540 0.731 0.541 0.415 224 222 227 0 0
-3.7660 -12.3132 -4.1591 0.247 0.805 0.539 223 221 227 0 0
-3.4397 -12.4070 -4.1665 0.457 0.382 0.803 220 218 223 0 0
-2.8234 -12.6706 -4.2045 -0.081 0.430 0.899 218 217 223 0 0
-6.1114 -3.2234 -1.7407 0.372 0.213 0.903 165 125 29 0 0
-5.5246 -3.4297 -1.7645 -0.362 0.766 -0.531 202 154 25 0 0
-5.4710 -3.4192 -1.7585 -0.517 0.778 -0.358 134 95 18 0 0
-5.4785 -3.4607 -1.7705 -0.051 0.762 -0.645 122 85 18 0 0
-3.7970 -12.3207 -4.1331 0.224 0.650 0.726 224 222 227 0 0
-3.7713 -12.3420 -4.1375 0.480 0.850 0.216 222 220 226 0 0
-3.7425 -12.3369 -4.1345 0.247 0.805 0.539 218 216 222 0 0
-3.6594 -12.3469 -4.1325 0.025 0.443 0.896 218 216 221 0 0
-3.3902 -12.4501 -4.1458 0.476 0.226 0.850 220 218 223 0 0
-3.3653 -12.4831 -4.1535 0.590 0.195 0.784 220 218 223 0 0
-3.3390 -12.5005 -4.1568 0.409 0.259 0.875 220 218 223 0 0
-5.9668 -3.2083 -1.7140 -0.596 0.579 0.556 136 100 6 0 0
-5.5185 -3.4219 -1.7477 -0.170 0.765 -0.621 202 153 26 0 0
-5.4677 -3.4161 -1.7432 -0.632 0.764 -0.129 177 132 28 0 0
-5.9395 -11.5060 -3.9992 0.754 0.302 0.583 222 216 218 0 0
-5.1510 -11.9411 -4.0747 -0.110 0.410 0.905 221 219 224 0 0
-3.9929 -12.2876 -4.1050 0.463 0.348 0.815 220 218 223 0 0
-3.9350 -12.2784 -4.0992 -0.145 0.713 0.686 222 220 225 0 0
-3.7751 -12.3586 -4.1123 0.236 0.551 0.801 220 217 223 0 0
-3.6364 -12.3761 -4.1094 0.421 0.549 0.722 217 216 221 0 0
-3.6097 -12.3879 -4.1111 0.209 0.431 0.878 220 217 224 0 0
-3.5095 -12.5076 -4.1385 0.186 0.528 0.829 221 219 225 0 0
-3.4810 -12.5021 -4.1354 0.349 0.441 0.827 221 219 224 0 0
-3.7806 -12.3893 -4.0911 0.140 0.489 0.861 218 216 222 0 0
-3.4064 -12.5813 -4.1229 0.490 0.091 0.867 220 218 224 0 0
-3.3821 -12.6232 -4.1331 0.582 0.090 0.809 217 214 221 0 0
-3.3245 -12.6055 -4.1250 0.175 0.637 0.751 217 215 221 0 0
-5.2473 -3.7217 -1.7857 0.294 0.911 0.290 175 133 34 0 0
-5.1333 -11.9892 -4.0265 0.199 0.396 0.897 223 221 226 0 0
-3.9501 -12.3694 -4.0651 0.341 0.382 0.859 223 221 226 0 0
-3.8117 -12.3972 -4.0650 0.097 0.621 0.778 216 214 219 0 0
-3.7857 -12.4170 -4.0690 0.236 0.551 0.801 218 216 221 0 0
-3.5770 -12.5775 -4.1012 0.234 0.673 0.702 223 220 226 0 0
-3.5227 -12.5989 -4.1041 0.187 0.483 0.856 220 217 223 0 0
-3.4644 -12.5778 -4.0951 0.299 0.421 0.856 216 213 219 0 0
-3.4164 -12.6677 -4.1169 0.142 0.378 0.915 219 217 223 0 0
-3.3860 -12.6424 -4.1084 0.828 0.206 0.522 218 216 222 0 0
-3.3023 -12.6470 -4.1051 0.065 0.614 0.787 218 216 222 0 0
-12.8891 -7.0204 -3.0734 0.048 -0.097 0.994 219 212 209 0 0
-5.6254 -2.9378 -1.5800 0.875 0.475 0.090 156 113 12 0 0
-5.1517 -12.0725 -4.0197 0.063 0.339 0.939 223 221 226 0 0
-3.7154 -12.5286 -4.0654 0.700 0.273 0.660 218 216 221 0 0
-3.6659 -12.5954 -4.0808 0.524 0.420 0.741 220 217 223 0 0
-3.4701 -12.6159 -4.0757 0.329 0.732 0.596 214 212 218 0 0
-3.4425 -12.6206 -4.0755 -0.285 0.722 0.630 217 215 221 0 0
-3.2579 -12.7611 -4.1035 0.465 0.157 0.871 219 218 224 0 0
-3.1703 -12.7132 -4.0858 0.368 0.104 0.924 220 219 225 0 0
-12.9595 -6.7803 -2.9860 0.158 0.020 0.987 217 209 205 0 0
-11.9456 -7.2121 -3.0478 0.130 -0.004 0.991 225 218 215 0 0
-5.4244 -3.4343 -1.6889 0.192 0.655 -0.731 233 202 50 0 0
-5.7882 -11.7249 -3.9301 -0.087 0.442 0.893 224 219 223 0 0
-5.0883 -12.0491 -3.9798 -0.679 0.615 0.400 223 221 226 0 0
-4.2715 -12.3884 -4.0273 0.386 0.896 0.221 221 219 224 0 0
-3.4231 -12.6929 -4.0638 0.390 0.606 0.694 218 216 223 0 0
-13.0555 -6.8711 -2.9888 -0.008 0.170 0.985 217 209 206 0 0
-11.9958 -7.3034 -3.0484 0.262 -0.048 0.964 225 220 217 0 0
-11.9845 -7.3260 -3.0538 0.323 -0.075 0.944 225 220 217 0 0
-5.9615 -3.1199 -1.6192 -0.438 0.705 0.558 111 79 7 0 0
-6.1275 -11.7437 -3.9227 0.864 0.452 -0.223 225 220 224 0 0
-5.7990 -11.7654 -3.9113 0.088 0.238 0.967 224 219 223 0 0
-5.6210 -12.0187 -3.9694 0.071 0.697 0.713 222 217 221 0 0
-5.1335 -12.1194 -3.9707 -0.352 0.540 0.764 223 221 226 0 0
-5.0890 -12.0481 -3.9494 0.037 0.174 0.984 224 222 227 0 0
-3.9963 -12.4650 -4.0031 0.521 0.390 0.759 214 212 217 0 0
-3.4805 -12.6795 -4.0332 0.807 0.420 0.415 218 215 222 0 0
-3.4004 -12.7292 -4.0422 0.431 0.340 0.836 219 217 223 0 0
-12.1322 -7.3450 -3.0398 -0.164 0.155 0.974 225 216 211 0 0
-12.0498 -7.3990 -3.0499 0.346 -0.254 0.903 226 221 218 0 0
-11.6838 -7.5097 -3.0603 0.120 0.151 0.981 225 219 217 0 0
-11.4710 -7.6038 -3.0741 0.318 0.073 0.945 225 221 220 0 0
-5.9600 -3.1208 -1.6054 -0.595 0.782 0.186 110 79 8 0 0
-5.9018 -3.0823 -1.5923 -0.646 0.747 0.157 107 76 4 0 0
-5.3162 -3.0581 -1.5557 0.618 -0.065 0.783 240 200 24 0 0
-5.1876 -3.7388 -1.7289 -0.680 0.451 0.578 194 152 40 0 0
-5.1870 -3.7698 -1.7371 -0.206 0.224 0.953 199 157 44 0 0
-5.8412 -11.8105 -3.8953 0.731 0.462 0.502 225 220 224 0 0
-5.0601 -12.1914 -3.9556 0.136 0.480 0.867 223 221 226 0 0
-4.8500 -12.1747 -3.9404 0.265 0.551 0.792 223 221 225 0 0
-4.2413 -12.5563 -4.0098 0.726 0.093 0.682 224 222 227 0 0
-3.9001 -12.5965 -4.0028 -0.516 0.218 0.829 220 218 223 0 0
-3.8235 -12.6753 -4.0197 -0.038 0.537 0.843 221 219 224 0 0
-3.4345 -12.7688 -4.0244 -0.002 0.786 0.618 220 218 223 0 0
-3.4063 -12.7697 -4.0231 -0.002 0.786 0.618 221 219 224 0 0
-12.1299 -7.4183 -3.0323 -0.008 -0.028 1.000 225 217 212 0 0
-12.0633 -7.4545 -3.0384 0.397 -0.124 0.910 225 220 214 0 0
-11.5485 -7.6227 -3.0564 0.516 0.160 0.842 225 220 219 0 0
-11.5289 -7.6376 -3.0593 0.276 0.113 0.954 226 222 221 0 0
-11.5031 -7.6459 -3.0601 0.318 0.073 0.945 227 223 222 0 0
-5.9783 -3.1511 -1.6004 -0.684 0.711 0.161 114 83 11 0 0
-5.9394 -3.1174 -1.5896 -0.664 0.735 0.136 106 77 6 0 0
-5.9148 -3.1048 -1.5850 -0.655 0.731 0.193 105 76 5 0 0
-5.8475 -3.0518 -1.5677 -0.533 0.608 0.589 116 83 7 0 0
-5.7037 -11.9818 -3.9030 0.423 0.299 0.855 222 217 221 0 0
-5.3609 -12.1945 -3.9414 0.038 0.184 0.982 221 216 220 0 0
-5.3303 -12.1927 -3.9394 0.030 0.282 0.959 223 218 222 0 0
