ply
format ascii 1.0
element vertex 825
property float x
property float y
property float z
property float nx
property float ny
property float nz
property uchar diffuse_red
property uchar diffuse_green
property uchar diffuse_blue
property uchar class
property uchar detection
end_header
3.9591 7.8925 -1.5920 -0.426 -0.889 0.171 226 207 177 0 0
4.4432 7.8086 -1.4896 -0.203 -0.728 0.655 223 202 173 0 0
4.4731 7.8076 -1.4836 -0.332 -0.790 0.516 230 209 180 0 0
4.4878 7.8050 -1.4805 -0.243 -0.750 0.615 231 211 183 0 0
5.3712 9.7854 -1.4666 0.300 -0.876 -0.378 107 58 41 0 0
5.7197 9.9373 -1.4101 0.452 -0.799 -0.396 112 61 46 0 0
6.3826 10.2841 -1.3073 -0.134 -0.845 -0.518 109 63 48 0 0
6.4012 10.2807 -1.3034 -0.103 -0.867 -0.488 115 69 54 0 0
6.5654 10.3733 -1.2784 0.160 -0.960 0.229 132 82 70 0 0
6.6124 10.3987 -1.2712 0.536 -0.839 0.096 127 79 65 0 0
6.6723 10.3995 -1.2595 0.184 -0.891 -0.415 138 91 77 0 0
6.2214 8.4379 -1.1895 0.800 -0.596 -0.064 192 164 142 0 0
6.2492 8.4733 -1.1869 0.794 -0.599 -0.105 205 181 152 0 0
6.2777 8.5107 -1.1843 0.794 -0.599 -0.105 204 179 149 0 0
6.1864 7.8186 -1.1462 -0.942 -0.332 0.049 212 191 160 0 0
6.2165 7.7666 -1.1360 -0.928 -0.372 -0.014 211 189 158 0 0
6.2262 7.7483 -1.1327 -0.907 -0.389 0.160 212 189 157 0 0
6.5927 7.1927 -1.0152 -0.236 -0.968 0.081 209 190 160 0 0
6.6065 7.1896 -1.0123 -0.236 -0.968 0.081 207 187 159 0 0
6.8965 7.0226 -0.9415 -0.388 -0.904 -0.180 195 174 142 0 0
6.9234 7.0158 -0.9356 -0.279 -0.960 -0.005 196 177 145 0 0
7.1898 6.9451 -0.8773 -0.230 -0.969 0.091 199 182 152 0 0
7.6096 6.9714 -0.7965 0.089 -0.986 0.137 210 193 164 0 0
8.6184 7.8421 -0.6679 0.482 -0.546 0.685 247 247 247 0 0
1.2213 9.1480 -2.2512 -0.554 -0.676 0.485 196 154 138 0 0
1.9851 8.9375 -2.0832 -0.173 -0.646 0.743 191 140 120 0 0
2.0019 8.9258 -2.0789 -0.271 -0.631 0.727 182 131 113 0 0
2.5401 8.8803 -1.9690 -0.522 -0.559 0.644 183 135 114 0 0
2.7789 8.8418 -1.9187 0.121 -0.813 0.570 184 133 112 0 0
2.7948 8.8429 -1.9157 -0.027 -0.926 0.377 159 107 88 0 0
2.8106 8.8420 -1.9125 -0.111 -0.925 0.362 137 85 66 0 0
2.8903 8.8253 -1.8954 0.172 -0.910 0.378 191 136 115 0 0
3.1660 7.9785 -1.7710 0.040 -0.697 0.716 224 202 170 0 0
3.1807 7.9754 -1.7679 -0.251 -0.572 0.781 223 201 170 0 0
3.4737 7.9132 -1.7050 -0.333 -0.608 0.721 225 204 177 0 0
3.7086 7.8837 -1.6562 -0.172 -0.727 0.665 226 207 177 0 0
3.9134 7.8486 -1.6129 -0.032 -0.920 0.390 221 200 171 0 0
3.9283 7.8495 -1.6100 -0.109 -0.934 0.339 223 202 173 0 0
4.0325 7.8490 -1.5894 -0.254 -0.694 0.673 226 207 177 0 0
5.4602 9.8405 -1.4724 -0.439 -0.858 -0.265 106 59 41 0 0
5.4763 9.8293 -1.4683 -0.493 -0.819 -0.292 113 66 48 0 0
5.7281 9.9567 -1.4292 0.477 -0.783 -0.400 115 63 49 0 0
5.7529 9.9826 -1.4264 0.413 -0.781 -0.468 122 70 54 0 0
5.9203 10.0496 -1.3990 -0.046 -0.904 -0.426 112 64 49 0 0
6.4560 10.3215 -1.3158 0.358 -0.910 -0.212 132 85 69 0 0
6.5421 10.3467 -1.3009 0.155 -0.930 -0.334 135 88 76 0 0
6.5683 10.3692 -1.2976 0.160 -0.960 0.229 127 79 66 0 0
6.6844 10.4261 -1.2794 0.003 -0.935 -0.356 138 92 77 0 0
6.7228 10.4212 -1.2714 -0.123 -0.854 -0.506 123 75 61 0 0
6.3147 8.5627 -1.1983 0.765 -0.545 -0.344 205 178 148 0 0
6.1786 7.8818 -1.1689 -0.944 -0.278 0.180 209 186 155 0 0
6.1770 7.8281 -1.1648 -0.935 -0.339 0.102 214 191 160 0 0
6.1868 7.8096 -1.1613 -0.904 -0.425 -0.042 210 187 156 0 0
6.6334 7.1735 -1.0207 -0.402 -0.884 0.237 211 194 167 0 0
6.9003 7.0238 -0.9556 -0.388 -0.904 -0.180 196 175 145 0 0
6.9267 7.0160 -0.9498 -0.209 -0.978 0.000 197 180 150 0 0
7.0202 6.9911 -0.9293 -0.159 -0.967 0.200 197 180 150 0 0
7.0368 6.9950 -0.9263 0.021 -1.000 0.020 198 180 148 0 0
7.1911 6.9410 -0.8914 -0.177 -0.950 0.258 194 177 147 0 0
8.5670 7.7761 -0.6891 0.401 -0.434 0.807 246 246 246 0 0
8.6007 7.8052 -0.6848 0.482 -0.546 0.685 247 247 247 0 0
2.7982 8.8327 -1.9309 0.069 -0.886 0.458 177 124 103 0 0
2.8140 8.8355 -1.9281 -0.111 -0.925 0.362 183 127 107 0 0
2.8299 8.8351 -1.9249 -0.236 -0.895 0.380 177 121 101 0 0
2.8776 8.8272 -1.9148 -0.145 -0.972 0.187 157 102 79 0 0
2.8935 8.8276 -1.9117 0.171 -0.938 -0.301 151 99 77 0 0
2.9208 7.8775 -1.8263 0.563 -0.746 -0.356 151 100 78 0 0
2.9491 7.9491 -1.8268 0.540 -0.580 0.610 168 114 92 0 0
3.1244 7.9279 -1.7905 -0.160 -0.794 0.587 223 199 166 0 0
3.1390 7.9257 -1.7874 -0.167 -0.834 0.526 226 201 169 0 0
3.1535 7.9145 -1.7836 -0.263 -0.839 0.477 225 201 170 0 0
3.1684 7.9304 -1.7820 -0.248 -0.775 0.581 228 205 174 0 0
3.6812 7.8717 -1.6760 -0.223 -0.649 0.727 226 206 177 0 0
3.9307 7.8420 -1.6244 -0.024 -0.953 0.302 222 201 172 0 0
3.9456 7.8426 -1.6215 -0.024 -0.953 0.302 223 203 173 0 0
4.1095 7.8432 -1.5893 -0.287 -0.814 0.505 226 207 177 0 0
5.3826 9.8036 -1.5036 0.275 -0.902 -0.334 109 60 44 0 0
5.7601 9.9966 -1.4455 0.447 -0.894 -0.008 119 69 55 0 0
5.7825 10.0120 -1.4423 0.337 -0.922 -0.190 109 57 44 0 0
5.8205 10.0124 -1.4349 -0.114 -0.924 -0.365 115 67 52 0 0
6.3965 10.3046 -1.3460 -0.269 -0.908 -0.322 117 74 57 0 0
6.4143 10.2979 -1.3420 -0.269 -0.908 -0.322 142 99 83 0 0
6.4364 10.3069 -1.3384 0.269 -0.963 0.018 131 86 69 0 0
6.4566 10.3089 -1.3345 0.201 -0.979 -0.040 126 79 62 0 0
6.5273 10.3494 -1.3240 0.494 -0.866 -0.079 148 101 88 0 0
6.5501 10.3602 -1.3204 0.350 -0.881 -0.318 134 89 75 0 0
6.5739 10.3741 -1.3169 0.461 -0.831 -0.312 126 81 66 0 0
6.6227 10.4052 -1.3099 0.529 -0.818 -0.225 125 78 65 0 0
6.7571 10.4546 -1.2876 -0.286 -0.925 0.249 117 74 58 0 0
6.1876 8.4139 -1.2279 -0.705 -0.622 -0.339 113 76 58 0 0
6.2801 8.4954 -1.2166 0.756 -0.650 0.077 205 180 149 0 0
6.1779 7.8691 -1.1840 -0.884 -0.352 0.306 216 193 162 0 0
6.1795 7.8256 -1.1800 -0.918 -0.380 -0.114 217 194 163 0 0
6.1867 7.7991 -1.1763 -0.919 -0.389 0.067 206 183 152 0 0
6.3075 7.5126 -1.1284 -0.631 -0.740 -0.233 209 186 155 0 0
6.3934 7.4095 -1.1028 -0.555 -0.807 -0.205 208 189 159 0 0
6.5456 7.2487 -1.0593 -0.638 -0.763 0.099 210 190 158 0 0
6.7242 7.0941 -1.0111 -0.266 -0.956 0.121 191 172 140 0 0
6.7504 7.0851 -1.0052 -0.254 -0.960 0.120 195 175 143 0 0
6.7914 7.0760 -0.9963 -0.346 -0.936 -0.068 201 182 149 0 0
6.9062 6.9960 -0.9670 -0.105 -0.995 -0.001 198 181 152 0 0
7.0281 6.9688 -0.9406 -0.233 -0.969 0.080 200 184 154 0 0
7.2686 6.9399 -0.8908 -0.096 -0.989 0.113 194 173 142 0 0
7.3061 6.9247 -0.8822 -0.243 -0.970 0.008 199 177 145 0 0
0.3864 11.9785 -2.6922 -0.544 -0.212 0.811 240 239 237 0 0
1.3094 9.1256 -2.2658 -0.448 -0.638 0.626 173 122 101 0 0
1.3263 9.1176 -2.2618 -0.448 -0.653 0.610 159 108 87 0 0
1.5730 8.9216 -2.1964 -0.134 -0.791 0.598 170 120 102 0 0
1.5878 8.9260 -2.1939 -0.290 -0.808 0.513 192 144 124 0 0
1.6039 8.9217 -2.1903 -0.351 -0.687 0.637 177 130 111 0 0
2.8175 8.8225 -1.9430 -0.100 -0.886 0.453 185 128 108 0 0
2.8333 8.8237 -1.9400 -0.210 -0.883 0.420 149 93 72 0 0
2.8491 8.8252 -1.9370 -0.080 -0.966 0.245 140 86 65 0 0
2.8650 8.8229 -1.9337 -0.010 -0.985 0.173 136 82 61 0 0
2.9237 7.8776 -1.8411 0.463 -0.685 -0.563 140 90 67 0 0
2.9521 7.9375 -1.8406 0.540 -0.580 0.610 147 95 74 0 0
3.1418 7.9095 -1.8009 -0.178 -0.736 0.653 223 200 169 0 0
3.9178 7.8301 -1.6414 -0.347 -0.861 0.371 228 207 178 0 0
4.0484 7.8006 -1.6131 -0.555 -0.574 0.602 224 203 174 0 0
4.1387 7.8108 -1.5962 -0.386 -0.678 0.626 227 207 179 0 0
4.1802 7.7841 -1.5858 0.016 -0.794 0.607 229 208 182 0 0
4.7061 7.7066 -1.4756 -0.173 -0.744 0.645 228 208 177 0 0
5.5309 9.8752 -1.4994 0.278 -0.840 -0.465 109 60 44 0 0
6.4006 10.3046 -1.3651 0.070 -0.991 -0.118 138 91 75 0 0
6.4193 10.3012 -1.3611 -0.168 -0.984 -0.061 139 92 76 0 0
6.5566 10.3682 -1.3399 0.296 -0.918 -0.264 132 88 72 0 0
6.5793 10.3783 -1.3363 0.364 -0.892 -0.267 145 102 86 0 0
6.7251 10.4672 -1.3152 0.274 -0.870 -0.410 121 78 64 0 0
6.7590 10.4470 -1.3068 -0.242 -0.934 0.262 104 62 47 0 0
6.2099 8.4209 -1.2410 0.660 -0.739 -0.136 196 166 142 0 0
6.2355 8.4491 -1.2384 0.720 -0.685 -0.110 198 172 145 0 0
6.2603 8.4748 -1.2357 0.720 -0.685 -0.110 201 176 146 0 0
6.2912 8.5192 -1.2335 0.786 -0.599 -0.157 204 179 148 0 0
6.1723 7.8416 -1.1987 -0.902 -0.422 -0.096 211 188 157 0 0
6.1815 7.8212 -1.1952 -0.894 -0.446 -0.034 217 194 163 0 0
6.3952 7.4056 -1.1174 -0.592 -0.765 -0.256 209 191 161 0 0
6.6525 7.1307 -1.0432 -0.205 -0.971 -0.125 203 186 158 0 0
6.6984 7.0963 -1.0312 -0.463 -0.885 -0.040 198 179 148 0 0
6.9628 6.9820 -0.9694 0.013 -0.954 0.300 199 180 149 0 0
7.0309 6.9677 -0.9548 -0.235 -0.966 0.111 199 182 153 0 0
0.4827 11.7993 -2.6788 -0.527 -0.204 0.825 239 238 236 0 0
1.3174 9.0944 -2.2784 -0.221 -0.659 0.719 174 125 103 0 0
1.3333 9.0927 -2.2751 -0.221 -0.659 0.719 180 130 108 0 0
1.3493 9.0907 -2.2718 -0.397 -0.633 0.665 155 103 82 0 0
1.3672 9.0757 -2.2670 -0.700 -0.678 0.225 162 109 88 0 0
1.5763 8.9194 -2.2122 0.174 -0.871 0.460 191 144 126 0 0
2.5852 8.7891 -2.0025 -0.622 -0.661 0.420 198 146 124 0 0
2.8365 8.8209 -1.9559 0.125 -0.980 0.156 164 108 87 0 0
2.9266 7.8850 -1.8564 0.671 -0.736 -0.092 160 109 88 0 0
2.9552 7.9258 -1.8544 0.540 -0.580 0.610 153 109 85 0 0
2.9697 7.9399 -1.8527 0.385 -0.547 0.743 191 154 127 0 0
3.1154 7.8939 -1.8201 -0.285 -0.733 0.618 226 205 174 0 0
3.4227 7.8870 -1.7591 0.086 -0.749 0.657 226 202 171 0 0
3.5534 7.8532 -1.7304 -0.207 -0.750 0.629 211 191 162 0 0
3.5823 7.8448 -1.7240 -0.196 -0.761 0.618 219 200 168 0 0
3.9054 7.8231 -1.6586 -0.242 -0.807 0.539 224 203 174 0 0
3.9200 7.8208 -1.6555 -0.242 -0.807 0.539 226 205 176 0 0
3.9346 7.8184 -1.6525 -0.242 -0.807 0.539 227 206 177 0 0
5.5779 9.9025 -1.5116 0.380 -0.803 -0.458 102 53 36 0 0
6.5627 10.3748 -1.3593 0.375 -0.891 -0.255 142 98 82 0 0
6.5882 10.3942 -1.3560 0.541 -0.808 -0.234 143 100 84 0 0
6.7106 10.4714 -1.3387 0.308 -0.881 -0.360 131 88 73 0 0
6.7320 10.4761 -1.3349 0.211 -0.900 -0.382 110 69 55 0 0
6.7538 10.4818 -1.3311 0.203 -0.919 -0.338 125 85 70 0 0
6.7656 10.4549 -1.3264 -0.485 -0.860 -0.156 105 63 49 0 0
6.1838 8.4331 -1.2641 -0.661 -0.624 -0.417 113 74 56 0 0
6.2161 8.4294 -1.2574 0.660 -0.739 -0.136 198 170 143 0 0
6.2420 8.4586 -1.2549 0.720 -0.685 -0.110 197 172 142 0 0
6.2669 8.4843 -1.2522 0.720 -0.685 -0.110 199 174 144 0 0
6.2987 8.5318 -1.2501 0.814 -0.581 -0.024 201 176 146 0 0
6.1833 7.8166 -1.2103 -0.908 -0.410 -0.092 207 184 153 0 0
6.2890 7.5733 -1.1683 -0.636 -0.771 0.017 207 186 155 0 0
6.5606 7.2316 -1.0851 -0.561 -0.806 0.187 213 194 165 0 0
6.6413 7.1320 -1.0605 -0.299 -0.938 -0.173 202 185 155 0 0
7.0373 6.9423 -0.9661 -0.318 -0.871 0.374 196 178 148 0 0
1.3549 9.0745 -2.2861 -0.165 -0.646 0.746 179 128 107 0 0
1.3716 9.0674 -2.2822 -0.343 -0.678 0.650 167 115 94 0 0
1.5511 8.9003 -2.2321 -0.170 -0.727 0.665 201 152 134 0 0
1.5682 8.8882 -2.2276 -0.496 -0.619 0.609 196 148 130 0 0
1.7583 8.8503 -2.1870 -0.172 -0.617 0.768 184 131 109 0 0
1.9607 8.8385 -2.1462 -0.310 -0.602 0.736 169 113 93 0 0
2.0864 8.8223 -2.1200 -0.306 -0.663 0.684 171 115 94 0 0
2.3850 8.7856 -2.0582 -0.311 -0.721 0.619 183 131 114 0 0
2.9151 7.8814 -1.8737 0.692 -0.667 -0.277 161 113 90 0 0
2.9438 7.9013 -1.8698 0.658 -0.732 0.179 190 151 126 0 0
2.9728 7.9110 -1.8650 0.164 -0.560 0.812 222 195 165 0 0
3.5271 7.8556 -1.7512 -0.013 -0.749 0.662 224 204 175 0 0
3.5698 7.8297 -1.7405 -0.264 -0.669 0.695 226 205 175 0 0
3.5846 7.8318 -1.7378 -0.208 -0.742 0.638 226 205 175 0 0
3.8030 7.7992 -1.6920 -0.598 -0.697 0.396 227 206 175 0 0
3.8175 7.7957 -1.6889 -0.394 -0.771 0.500 225 205 173 0 0
3.8318 7.7908 -1.6856 -0.168 -0.779 0.604 225 207 176 0 0
3.9791 7.7878 -1.6564 -0.025 -0.773 0.634 223 203 173 0 0
3.9940 7.7891 -1.6536 -0.169 -0.733 0.659 230 209 180 0 0
4.0081 7.7821 -1.6502 -0.277 -0.759 0.589 228 207 178 0 0
4.1689 7.7622 -1.6169 0.258 -0.898 0.356 228 207 179 0 0
4.1825 7.7522 -1.6133 0.267 -0.961 0.072 226 204 176 0 0
4.2731 7.7636 -1.5966 -0.429 -0.699 0.573 225 204 174 0 0
4.2872 7.7577 -1.5933 -0.429 -0.699 0.573 226 205 176 0 0
4.3562 7.7181 -1.5762 -0.310 -0.669 0.676 227 206 177 0 0
4.3876 7.7301 -1.5711 0.030 -0.750 0.660 226 205 176 0 0
4.8012 7.6202 -1.4801 -0.351 -0.710 0.611 230 205 178 0 0
6.4897 10.3819 -1.3943 0.027 -0.868 -0.495 116 69 54 0 0
6.5304 10.3857 -1.3867 0.091 -0.935 -0.344 117 71 55 0 0
6.6979 10.4817 -1.3623 0.334 -0.731 -0.594 126 82 69 0 0
6.7172 10.4793 -1.3583 0.342 -0.866 -0.365 117 78 63 0 0
6.7544 10.4700 -1.3502 0.088 -0.919 -0.385 137 99 86 0 0
6.2010 8.4231 -1.2767 -0.637 -0.601 -0.483 172 139 117 0 0
6.2138 8.4106 -1.2731 -0.726 -0.553 -0.410 195 167 140 0 0
6.4025 7.4078 -1.1468 -0.622 -0.755 -0.206 211 190 159 0 0
6.8057 7.0517 -1.0360 -0.330 -0.943 0.039 194 175 143 0 0
7.0246 6.9726 -0.9860 -0.209 -0.974 0.090 189 168 137 0 0
7.0399 6.9408 -0.9802 -0.319 -0.948 0.007 197 176 146 0 0
7.6361 6.9327 -0.8624 0.127 -0.990 -0.060 201 180 149 0 0
7.9164 7.0556 -0.8183 0.318 -0.945 0.083 215 198 172 0 0
8.6126 7.7713 -0.7453 0.704 -0.616 0.354 247 247 247 0 0
0.5227 11.6261 -2.6972 -0.054 -0.321 0.946 236 235 233 0 0
1.5739 8.8689 -2.2414 -0.518 -0.664 0.540 186 137 120 0 0
1.6560 8.8300 -2.2217 -0.205 -0.613 0.763 175 125 106 0 0
1.8564 8.8291 -2.1824 -0.246 -0.603 0.759 180 125 102 0 0
2.3736 8.7684 -2.0754 -0.090 -0.641 0.763 174 125 108 0 0
2.3899 8.7579 -2.0713 -0.408 -0.637 0.654 191 141 124 0 0
2.4044 8.7756 -2.0701 -0.057 -0.865 0.498 199 152 134 0 0
2.7182 8.7595 -2.0071 -0.464 -0.793 0.395 155 103 82 0 0
2.9181 7.8742 -1.8877 0.757 -0.644 -0.106 182 145 119 0 0
2.9470 7.8788 -1.8825 0.033 -0.558 0.829 223 196 165 0 0
3.2954 7.8430 -1.8109 0.022 -0.807 0.590 227 206 179 0 0
3.3827 7.8342 -1.7930 -0.160 -0.821 0.548 223 202 172 0 0
3.5720 7.8158 -1.7542 -0.287 -0.668 0.687 228 207 178 0 0
3.5865 7.8128 -1.7511 -0.287 -0.668 0.687 228 207 178 0 0
3.8339 7.7796 -1.6995 -0.168 -0.779 0.604 227 209 179 0 0
3.8635 7.7822 -1.6940 0.241 -0.710 0.662 225 204 175 0 0
4.1400 7.7423 -1.6361 -0.271 -0.689 0.672 225 206 176 0 0
4.9815 7.6830 -1.4658 0.148 -0.287 0.947 118 73 55 0 0
4.9973 7.6868 -1.4630 0.078 -0.338 0.938 108 63 44 0 0
6.4020 10.3355 -1.4274 0.479 -0.851 -0.215 121 78 64 0 0
6.4971 10.3932 -1.4139 0.079 -0.889 -0.452 133 89 74 0 0
6.5177 10.3960 -1.4102 -0.096 -0.754 -0.650 121 77 62 0 0
6.5396 10.4031 -1.4065 0.197 -0.795 -0.574 122 78 62 0 0
6.7279 10.5011 -1.3784 0.312 -0.746 -0.588 123 83 68 0 0
6.7614 10.4792 -1.3699 0.090 -0.901 -0.425 138 101 88 0 0
6.2607 8.5498 -1.2934 0.265 -0.474 -0.840 195 168 141 0 0
6.6293 7.1607 -1.0953 -0.262 -0.955 0.141 207 190 160 0 0
7.0429 6.9404 -0.9943 -0.354 -0.933 0.067 197 176 145 0 0
7.0569 6.9385 -0.9913 -0.212 -0.958 0.194 201 180 149 0 0
7.0670 6.9282 -0.9884 -0.199 -0.973 0.118 203 182 152 0 0
7.2704 6.8863 -0.9447 0.067 -0.911 0.407 206 187 155 0 0
7.2856 6.8869 -0.9418 -0.034 -0.919 0.392 203 182 151 0 0
7.3151 6.8862 -0.9360 0.089 -0.972 0.215 198 179 148 0 0
7.6541 6.9319 -0.8736 -0.016 -0.955 0.295 201 180 149 0 0
0.4259 11.2711 -2.7041 0.218 -0.943 0.252 240 239 237 0 0
0.4408 11.2894 -2.7029 -0.489 -0.844 0.219 240 239 237 0 0
0.5076 11.5247 -2.7115 -0.487 -0.179 0.855 236 235 233 0 0
1.4052 8.9891 -2.3020 -0.580 -0.709 0.401 176 124 103 0 0
1.6143 8.8204 -2.2455 -0.554 -0.815 0.170 187 137 117 0 0
1.6615 8.8111 -2.2354 -0.205 -0.613 0.763 192 141 121 0 0
1.8287 8.8286 -2.2043 0.292 -0.672 0.680 162 106 85 0 0
2.0181 8.7903 -2.1637 -0.294 -0.523 0.800 179 130 111 0 0
2.0339 8.7870 -2.1603 -0.367 -0.534 0.762 188 140 120 0 0
2.1447 8.7588 -2.1360 -0.218 -0.679 0.701 179 123 103 0 0
2.1916 8.7526 -2.1262 -0.286 -0.690 0.665 180 130 113 0 0
2.7217 8.7473 -2.0219 -0.515 -0.846 0.139 170 120 99 0 0
2.7377 8.7382 -2.0179 -0.515 -0.846 0.139 163 110 89 0 0
2.9209 7.8810 -1.9031 0.744 -0.666 -0.046 224 197 167 0 0
2.9356 7.8576 -1.8980 -0.082 -0.533 0.842 224 202 170 0 0
2.9935 7.8451 -1.8855 0.013 -0.871 0.492 224 201 169 0 0
3.0080 7.8469 -1.8829 0.013 -0.871 0.492 222 200 168 0 0
3.0948 7.8407 -1.8653 0.142 -0.677 0.722 219 199 168 0 0
3.3999 7.8229 -1.8039 -0.169 -0.742 0.649 226 206 176 0 0
3.5019 7.8178 -1.7834 -0.353 -0.786 0.507 224 202 173 0 0
3.5309 7.8129 -1.7773 0.035 -0.782 0.623 226 206 176 0 0
3.5458 7.8174 -1.7748 -0.173 -0.816 0.551 225 206 175 0 0
3.7051 7.7857 -1.7407 0.070 -0.800 0.596 227 205 177 0 0
3.7783 7.7821 -1.7260 -0.221 -0.796 0.564 223 202 172 0 0
3.7928 7.7802 -1.7230 -0.221 -0.796 0.564 224 203 174 0 0
3.8361 7.7697 -1.7135 -0.114 -0.745 0.658 230 209 180 0 0
4.0113 7.7536 -1.6777 -0.131 -0.761 0.635 229 208 180 0 0
4.9761 7.6414 -1.4784 0.137 -0.303 0.943 134 95 73 0 0
4.9929 7.6499 -1.4759 0.078 -0.338 0.938 107 64 44 0 0
6.4555 10.3712 -1.4401 0.473 -0.866 -0.162 115 71 57 0 0
6.5043 10.4038 -1.4336 0.079 -0.889 -0.452 131 87 71 0 0
6.5276 10.4161 -1.4301 0.016 -0.819 -0.574 131 88 72 0 0
6.7745 10.5083 -1.3903 0.316 -0.945 0.090 128 95 82 0 0
6.2785 8.5953 -1.3112 0.381 -0.446 -0.810 194 166 138 0 0
6.2357 8.4044 -1.3020 -0.529 -0.598 -0.602 199 174 144 0 0
6.2863 8.5119 -1.3020 0.709 -0.661 -0.244 203 178 149 0 0
6.2364 7.6630 -1.2335 -0.824 -0.546 -0.155 213 190 159 0 0
7.2573 6.8833 -0.9617 -0.140 -0.975 0.171 212 194 164 0 0
1.6980 8.7900 -2.2428 -0.157 -0.624 0.765 167 115 94 0 0
1.9765 8.7740 -2.1868 -0.260 -0.546 0.796 182 130 109 0 0
2.0551 8.7586 -2.1700 -0.367 -0.534 0.762 177 124 104 0 0
2.1959 8.7371 -2.1404 -0.286 -0.690 0.665 186 139 121 0 0
2.7250 8.7427 -2.0374 -0.515 -0.846 0.139 172 122 100 0 0
2.7569 8.7263 -2.0297 -0.602 -0.798 -0.021 168 113 93 0 0
2.8516 7.8782 -1.9317 -0.563 -0.374 0.737 161 115 92 0 0
2.8663 7.8652 -1.9276 -0.515 -0.521 0.680 167 125 101 0 0
3.1700 7.8167 -1.8636 -0.283 -0.625 0.727 226 203 175 0 0
3.1988 7.8043 -1.8568 -0.393 -0.602 0.695 222 201 170 0 0
3.2279 7.8132 -1.8519 -0.167 -0.697 0.697 228 207 176 0 0
3.6776 7.7679 -1.7597 0.281 -0.727 0.627 228 207 178 0 0
3.7360 7.7660 -1.7481 -0.114 -0.804 0.584 229 205 177 0 0
3.7501 7.7580 -1.7446 0.094 -0.785 0.613 228 205 175 0 0
4.1421 7.7082 -1.6632 -0.331 -0.636 0.697 226 205 178 0 0
4.3606 7.6840 -1.6182 -0.107 -0.815 0.569 228 208 179 0 0
4.3755 7.6846 -1.6154 -0.273 -0.829 0.488 227 206 177 0 0
4.5217 7.6706 -1.5854 -0.035 -0.939 0.343 222 199 168 0 0
4.7913 7.5967 -1.5258 -0.208 -0.602 0.771 229 208 179 0 0
4.9676 7.5849 -1.4902 -0.081 -0.291 0.953 210 183 154 0 0
4.9883 7.6128 -1.4887 0.077 -0.327 0.942 129 93 69 0 0
5.0056 7.6238 -1.4864 0.078 -0.338 0.938 105 60 39 0 0
5.0226 7.6333 -1.4839 0.024 -0.358 0.934 124 74 57 0 0
5.0372 7.6315 -1.4809 -0.155 -0.371 0.916 123 73 56 0 0
5.9487 10.1296 -1.5367 0.456 -0.828 -0.328 120 73 57 0 0
6.4626 10.3815 -1.4598 0.503 -0.818 -0.280 134 89 74 0 0
6.5116 10.4148 -1.4533 0.211 -0.947 -0.243 124 80 65 0 0
6.5563 10.4323 -1.4462 0.100 -0.798 -0.594 118 76 61 0 0
6.7275 10.5385 -1.4226 0.179 -0.785 -0.593 137 106 94 0 0
6.7786 10.5078 -1.4098 0.316 -0.945 0.090 135 110 99 0 0
6.2431 8.4168 -1.3186 -0.504 -0.599 -0.623 199 173 142 0 0
6.4011 7.3774 -1.1902 -0.514 -0.856 0.056 209 190 160 0 0
6.4245 7.3580 -1.1839 -0.524 -0.846 0.096 210 191 163 0 0
6.6149 7.1463 -1.1268 -0.043 -0.983 -0.180 200 180 151 0 0
6.6435 7.1429 -1.1208 -0.191 -0.946 0.263 206 185 155 0 0
6.7463 7.0652 -1.0934 -0.152 -0.978 0.140 194 175 145 0 0
7.6590 6.9288 -0.9021 -0.235 -0.972 0.001 215 195 162 0 0
0.2787 11.4803 -2.7930 0.479 -0.628 -0.613 240 240 238 0 0
0.3029 11.4542 -2.7858 0.377 -0.637 -0.673 241 241 239 0 0
0.3245 11.4404 -2.7803 0.300 -0.951 -0.080 241 240 238 0 0
0.4448 11.4005 -2.7530 0.542 -0.817 -0.197 238 237 235 0 0
0.5510 11.7419 -2.7647 0.552 -0.511 0.659 234 230 227 0 0
2.0598 8.7405 -2.1838 -0.393 -0.550 0.736 182 127 107 0 0
2.2317 8.7140 -2.1477 -0.356 -0.570 0.740 193 147 130 0 0
2.2471 8.7152 -2.1448 -0.393 -0.611 0.687 176 129 111 0 0
2.3100 8.6999 -2.1311 -0.219 -0.757 0.615 190 143 126 0 0
2.3254 8.7007 -2.1282 -0.204 -0.750 0.629 191 144 128 0 0
2.3405 8.7050 -2.1256 -0.064 -0.815 0.577 180 132 116 0 0
2.5101 8.7238 -2.0942 -0.528 -0.839 0.132 168 122 99 0 0
2.7128 8.7343 -2.0556 -0.074 -0.811 0.581 162 106 86 0 0
2.7286 8.7303 -2.0522 -0.394 -0.813 0.429 163 108 87 0 0
2.8986 7.8295 -1.9331 -0.268 -0.614 0.742 222 199 168 0 0
2.9130 7.8269 -1.9300 -0.268 -0.614 0.742 221 199 167 0 0
2.9995 7.8098 -1.9115 -0.268 -0.629 0.729 227 204 173 0 0
3.2015 7.7944 -1.8705 -0.283 -0.625 0.727 225 203 172 0 0
3.2306 7.7988 -1.8653 -0.303 -0.702 0.644 227 205 175 0 0
3.2597 7.8053 -1.8602 -0.583 -0.595 0.553 229 207 178 0 0
3.2740 7.7958 -1.8565 -0.453 -0.798 0.397 229 207 179 0 0
3.8828 7.7312 -1.7314 -0.265 -0.699 0.664 225 204 175 0 0
4.3623 7.6740 -1.6322 -0.107 -0.815 0.569 226 205 176 0 0
4.5243 7.6676 -1.6000 0.034 -0.954 0.296 223 200 169 0 0
4.5392 7.6677 -1.5971 -0.165 -0.956 0.244 222 199 168 0 0
4.5531 7.6619 -1.5938 -0.356 -0.856 0.374 225 202 171 0 0
4.6313 7.5965 -1.5723 -0.182 -0.726 0.663 228 207 177 0 0
4.6916 7.6029 -1.5611 -0.176 -0.676 0.715 228 207 178 0 0
4.7756 7.5757 -1.5421 -0.251 -0.669 0.699 227 207 180 0 0
4.8054 7.5764 -1.5363 -0.212 -0.638 0.740 225 202 172 0 0
4.8192 7.5710 -1.5331 0.093 -0.643 0.760 220 198 167 0 0
4.9803 7.5591 -1.5005 0.012 -0.337 0.941 216 188 161 0 0
5.0186 7.5994 -1.4969 0.014 -0.396 0.918 114 71 49 0 0
5.7181 10.0227 -1.5911 0.178 -0.942 -0.286 90 47 29 0 0
5.7388 10.0305 -1.5878 0.353 -0.921 -0.166 100 58 42 0 0
5.7601 10.0406 -1.5846 0.473 -0.869 -0.147 108 66 50 0 0
6.2457 10.2919 -1.5137 0.382 -0.905 -0.189 122 74 59 0 0
6.2664 10.2962 -1.5100 0.249 -0.915 -0.318 126 78 64 0 0
6.2871 10.3006 -1.5064 0.249 -0.915 -0.318 123 76 61 0 0
6.3726 10.3266 -1.4922 0.409 -0.890 -0.200 118 78 66 0 0
6.3968 10.3429 -1.4890 0.327 -0.881 -0.342 127 86 74 0 0
6.5417 10.4359 -1.4695 0.480 -0.822 -0.305 123 79 66 0 0
6.5626 10.4395 -1.4658 0.154 -0.833 -0.532 127 85 72 0 0
6.7722 10.5389 -1.4343 0.635 -0.770 -0.064 187 173 163 0 0
6.3219 7.4884 -1.2316 -0.793 -0.601 0.103 211 190 161 0 0
6.3930 7.3879 -1.2081 -0.607 -0.786 0.119 209 190 160 0 0
6.4035 7.3750 -1.2048 -0.514 -0.856 0.056 210 191 161 0 0
6.5317 7.2325 -1.1662 -0.556 -0.830 0.038 209 191 161 0 0
6.6042 7.1490 -1.1441 -0.021 -0.989 -0.149 198 177 146 0 0
6.6189 7.1482 -1.1411 -0.021 -0.989 -0.149 206 185 154 0 0
6.6337 7.1478 -1.1382 -0.054 -0.997 0.062 205 184 153 0 0
6.6450 7.1386 -1.1351 -0.191 -0.946 0.263 204 183 154 0 0
6.7482 7.0621 -1.1076 -0.041 -0.973 0.229 197 178 148 0 0
6.7583 7.0505 -1.1046 -0.484 -0.853 -0.195 193 174 144 0 0
7.0012 6.9586 -1.0483 -0.363 -0.925 0.107 193 176 144 0 0
7.0300 6.9238 -1.0394 -0.032 -0.991 0.133 194 175 143 0 0
7.4257 6.8789 -0.9578 -0.259 -0.966 -0.026 174 153 122 0 0
0.2221 11.6793 -2.8438 0.500 -0.680 -0.537 240 241 239 0 0
0.2443 11.6641 -2.8380 0.178 -0.612 -0.770 240 240 238 0 0
0.2981 11.4953 -2.8111 0.374 -0.737 -0.564 240 239 237 0 0
0.3287 11.4377 -2.7995 -0.142 -0.662 0.736 241 238 237 0 0
0.4473 11.4070 -2.7734 0.542 -0.817 -0.197 237 236 234 0 0
2.2510 8.7041 -2.1595 -0.450 -0.690 0.567 174 126 108 0 0
2.2671 8.6949 -2.1554 -0.475 -0.635 0.609 169 121 102 0 0
2.3443 8.6943 -2.1403 -0.064 -0.815 0.577 182 132 112 0 0
2.5145 8.7001 -2.1076 -0.416 -0.829 0.373 170 121 99 0 0
2.5300 8.6993 -2.1045 -0.105 -0.815 0.570 170 120 98 0 0
2.6380 8.7265 -2.0861 0.356 -0.925 0.134 159 107 86 0 0
2.7707 7.8844 -1.9786 -0.604 -0.428 0.673 159 105 82 0 0
3.0313 7.7938 -1.9190 0.052 -0.740 0.671 226 205 175 0 0
3.0457 7.8002 -1.9168 0.176 -0.701 0.691 227 206 177 0 0
3.2909 7.7734 -1.8663 -0.192 -0.664 0.722 225 205 176 0 0
4.1719 7.6595 -1.6833 -0.351 -0.897 0.269 230 206 178 0 0
4.1860 7.6547 -1.6801 -0.561 -0.747 0.358 228 204 176 0 0
4.2298 7.6526 -1.6713 -0.046 -0.867 0.495 227 206 177 0 0
4.2467 7.6698 -1.6697 0.197 -0.858 0.473 229 208 179 0 0
4.3643 7.6663 -1.6464 0.012 -0.739 0.673 228 206 177 0 0
4.6613 7.5817 -1.5802 -0.248 -0.713 0.656 227 206 177 0 0
5.7231 10.0270 -1.6099 0.275 -0.925 -0.263 113 65 48 0 0
5.9195 10.1341 -1.5819 0.093 -0.830 -0.549 113 65 50 0 0
6.2525 10.3019 -1.5332 0.384 -0.862 -0.330 122 76 61 0 0
6.2746 10.3115 -1.5298 0.136 -0.843 -0.521 123 76 62 0 0
6.3798 10.3378 -1.5118 0.261 -0.919 -0.296 136 94 82 0 0
6.4012 10.3440 -1.5082 0.315 -0.931 -0.185 117 75 63 0 0
6.5495 10.4486 -1.4894 0.530 -0.825 -0.196 119 77 64 0 0
6.5677 10.4427 -1.4853 -0.240 -0.806 -0.541 135 100 86 0 0
6.7310 10.5218 -1.4611 -0.335 -0.793 0.509 197 187 180 0 0
6.7411 10.4887 -1.4559 0.096 -0.726 0.681 200 191 184 0 0
6.2118 7.6999 -1.2890 -0.884 -0.386 -0.264 201 178 147 0 0
6.3138 7.4996 -1.2497 -0.792 -0.596 0.132 218 196 166 0 0
6.3365 7.4770 -1.2431 -0.679 -0.710 0.188 212 194 164 0 0
6.3471 7.4636 -1.2397 -0.680 -0.716 0.161 209 192 162 0 0
6.3951 7.3847 -1.2227 -0.613 -0.790 -0.004 213 195 166 0 0
6.4059 7.3728 -1.2194 -0.456 -0.873 -0.174 208 190 160 0 0
6.5339 7.2298 -1.1806 -0.529 -0.848 -0.008 207 188 157 0 0
6.5970 7.1604 -1.1616 -0.358 -0.897 -0.260 202 181 150 0 0
6.6082 7.1510 -1.1585 -0.021 -0.989 -0.149 205 184 153 0 0
6.6234 7.1515 -1.1555 -0.192 -0.971 -0.144 207 186 155 0 0
6.6373 7.1487 -1.1525 -0.012 -0.998 -0.054 203 182 151 0 0
0.2419 11.6937 -2.8620 0.358 -0.590 -0.724 241 240 238 0 0
0.3357 11.4214 -2.8169 -0.391 -0.674 0.626 242 238 237 0 0
0.3559 11.4142 -2.8123 -0.452 -0.773 0.445 241 237 236 0 0
0.4130 11.3157 -2.7914 -0.422 -0.906 -0.005 238 237 235 0 0
0.4497 11.4136 -2.7939 0.542 -0.817 -0.197 236 235 233 0 0
0.5070 11.6070 -2.8018 -0.817 -0.267 0.511 233 232 230 0 0
0.5401 11.5320 -2.7880 -0.785 -0.287 0.549 233 232 230 0 0
1.8999 8.7132 -2.2453 -0.257 -0.593 0.764 177 130 110 0 0
2.1947 8.6751 -2.1840 -0.189 -0.741 0.644 199 154 135 0 0
2.2716 8.6757 -2.1691 -0.482 -0.613 0.625 164 114 96 0 0
2.2876 8.6676 -2.1652 -0.473 -0.631 0.615 190 142 123 0 0
2.3195 8.6519 -2.1574 -0.620 -0.643 0.449 173 124 106 0 0
2.3332 8.6764 -2.1572 -0.139 -0.940 0.312 177 127 108 0 0
2.5337 8.6891 -2.1193 0.045 -0.973 0.227 172 119 97 0 0
2.9769 7.7630 -1.9417 -0.237 -0.794 0.560 229 208 179 0 0
2.9912 7.7630 -1.9389 -0.184 -0.863 0.471 225 204 175 0 0
3.2934 7.7583 -1.8795 -0.192 -0.664 0.722 227 206 176 0 0
3.5970 7.7359 -1.8181 0.086 -0.920 0.383 229 208 179 0 0
3.6122 7.7463 -1.8162 0.107 -0.910 0.401 225 204 175 0 0
3.7406 7.7060 -1.7872 -0.313 -0.680 0.663 226 205 174 0 0
3.8717 7.7028 -1.7613 -0.209 -0.751 0.626 221 201 170 0 0
4.0733 7.6690 -1.7187 -0.012 -0.654 0.756 226 206 176 0 0
4.1739 7.6517 -1.6974 -0.240 -0.911 0.334 227 203 175 0 0
4.2032 7.6508 -1.6916 -0.051 -0.915 0.399 227 204 173 0 0
4.2169 7.6431 -1.6881 -0.142 -0.742 0.655 232 209 178 0 0
4.2327 7.6516 -1.6859 0.184 -0.911 0.370 230 206 177 0 0
4.2488 7.6625 -1.6838 0.197 -0.858 0.473 228 205 177 0 0
4.4929 7.6169 -1.6317 -0.110 -0.792 0.600 227 206 175 0 0
4.5072 7.6139 -1.6286 0.038 -0.792 0.609 226 205 175 0 0
4.5350 7.6028 -1.6221 -0.363 -0.713 0.600 226 205 176 0 0
4.5547 7.6335 -1.6213 0.260 -0.914 0.311 228 208 179 0 0
5.6937 10.0469 -1.6369 0.306 -0.860 -0.407 122 73 57 0 0
6.2808 10.3195 -1.5492 0.089 -0.984 -0.152 119 74 59 0 0
6.3229 10.3299 -1.5421 0.283 -0.921 -0.269 117 74 61 0 0
6.3858 10.3444 -1.5312 0.226 -0.967 -0.120 129 87 74 0 0
6.4354 10.3810 -1.5252 -0.161 -0.864 -0.478 104 63 52 0 0
6.6478 10.5659 -1.5020 0.641 -0.588 -0.494 181 169 159 0 0
6.7117 10.5100 -1.4840 -0.262 -0.520 0.813 205 197 190 0 0
6.7220 10.4775 -1.4788 0.082 -0.806 0.587 206 199 191 0 0
6.2160 7.7023 -1.3042 -0.895 -0.394 -0.211 203 179 150 0 0
6.3992 7.3871 -1.2374 -0.351 -0.931 0.095 212 195 167 0 0
6.4093 7.3731 -1.2341 -0.401 -0.902 -0.160 210 193 165 0 0
6.4123 7.3401 -1.2302 -0.692 -0.719 -0.059 211 192 162 0 0
6.4365 7.3233 -1.2239 -0.358 -0.863 0.357 210 191 160 0 0
6.4490 7.3163 -1.2207 -0.345 -0.914 0.213 205 186 154 0 0
6.6008 7.1621 -1.1760 -0.287 -0.949 -0.132 206 186 153 0 0
6.6139 7.1572 -1.1729 -0.203 -0.977 -0.068 211 191 159 0 0
7.0630 6.9171 -1.0617 -0.093 -0.982 -0.163 190 173 143 0 0
7.2234 6.8791 -1.0267 -0.349 -0.935 -0.069 174 155 123 0 0
0.2533 11.6566 -2.8768 0.405 -0.613 -0.679 239 238 236 0 0
0.4161 11.3187 -2.8113 -0.598 -0.800 -0.048 237 236 234 0 0
0.4792 11.2813 -2.7953 0.117 -0.962 -0.248 236 235 233 0 0
0.5023 11.3540 -2.7981 0.592 -0.805 0.046 235 234 232 0 0
1.4004 8.9181 -2.3794 -0.425 -0.721 0.547 192 141 122 0 0
1.9212 8.6851 -2.2547 -0.150 -0.696 0.702 171 121 100 0 0
2.1527 8.6635 -2.2074 -0.131 -0.710 0.692 202 155 137 0 0
2.1989 8.6617 -2.1983 -0.189 -0.741 0.644 207 161 141 0 0
2.3231 8.6441 -2.1723 -0.421 -0.881 0.216 171 122 102 0 0
2.5524 8.6881 -2.1321 -0.138 -0.841 0.524 170 116 92 0 0
3.0515 7.7783 -1.9438 0.207 -0.688 0.696 226 203 172 0 0
3.5270 7.7302 -1.8464 -0.440 -0.640 0.630 228 207 178 0 0
3.5843 7.7160 -1.8338 -0.367 -0.709 0.602 225 206 176 0 0
3.7425 7.6915 -1.8006 -0.239 -0.708 0.665 224 203 174 0 0
4.0471 7.6702 -1.7391 -0.371 -0.703 0.607 223 202 173 0 0
4.1905 7.6418 -1.7084 -0.136 -0.899 0.417 227 204 175 0 0
4.2188 7.6336 -1.7020 -0.201 -0.702 0.683 229 206 175 0 0
4.2333 7.6325 -1.6991 -0.358 -0.684 0.635 226 203 172 0 0
6.2874 10.3288 -1.5688 0.085 -0.915 -0.393 117 74 58 0 0
6.4234 10.3940 -1.5489 0.484 -0.785 -0.386 124 86 73 0 0
6.4467 10.4066 -1.5456 -0.009 -0.854 -0.520 126 91 79 0 0
6.2171 7.6958 -1.3191 -0.913 -0.375 -0.161 202 181 152 0 0
6.3731 7.3905 -1.2581 -0.557 -0.826 0.092 211 190 161 0 0
6.3878 7.3889 -1.2551 -0.555 -0.825 -0.110 212 192 164 0 0
6.4006 7.3820 -1.2519 -0.449 -0.887 0.110 212 195 168 0 0
6.4117 7.3707 -1.2487 -0.314 -0.935 0.162 212 195 168 0 0
6.4385 7.3200 -1.2384 -0.413 -0.906 -0.096 212 193 163 0 0
6.5230 7.2238 -1.2123 -0.585 -0.798 0.143 200 179 148 0 0
6.6027 7.1586 -1.1902 -0.230 -0.971 0.060 208 189 156 0 0
6.6134 7.1481 -1.1871 -0.127 -0.956 0.266 197 178 146 0 0
6.7096 7.0900 -1.1625 -0.463 -0.862 0.206 199 180 150 0 0
6.9626 6.9506 -1.0993 -0.253 -0.943 0.217 166 145 116 0 0
7.4204 6.8788 -1.0030 0.049 -0.999 -0.022 192 173 146 0 0
0.3799 11.3318 -2.8399 0.033 -0.972 0.233 238 237 235 0 0
0.3983 11.3332 -2.8364 0.033 -0.972 0.233 237 236 234 0 0
0.3953 11.6319 -2.8674 -0.363 -0.433 0.825 236 235 233 0 0
0.4393 11.6017 -2.8557 0.230 -0.910 0.345 235 234 232 0 0
0.4894 11.5388 -2.8396 0.772 -0.508 0.383 234 233 231 0 0
0.4918 11.7274 -2.8583 -0.788 -0.267 0.554 232 231 229 0 0
1.5761 8.7855 -2.3484 -0.388 -0.862 0.326 183 132 113 0 0
1.8489 8.6774 -2.2843 -0.276 -0.556 0.784 201 153 131 0 0
2.3423 8.6321 -2.1837 -0.049 -0.965 0.258 158 109 92 0 0
3.7159 7.6842 -1.8202 -0.408 -0.745 0.528 227 207 180 0 0
3.7300 7.6788 -1.8169 -0.408 -0.745 0.528 227 207 179 0 0
3.7445 7.6778 -1.8140 -0.234 -0.669 0.705 228 207 179 0 0
4.2067 7.6299 -1.7192 -0.365 -0.859 0.358 225 203 174 0 0
4.2346 7.6192 -1.7127 -0.358 -0.684 0.635 227 205 173 0 0
5.0665 7.4876 -1.5375 -0.058 -0.385 0.921 228 204 173 0 0
5.0829 7.4945 -1.5350 -0.037 -0.413 0.910 186 155 130 0 0
5.9200 10.1658 -1.6437 0.061 -0.888 -0.457 114 67 52 0 0
6.4094 10.3999 -1.5722 0.519 -0.840 -0.162 120 82 71 0 0
6.4553 10.4222 -1.5656 0.126 -0.881 -0.456 141 116 106 0 0
6.3753 7.3874 -1.2727 -0.557 -0.826 0.092 207 190 159 0 0
6.3866 7.3766 -1.2694 -0.663 -0.744 0.088 206 189 159 0 0
6.4023 7.3780 -1.2665 -0.465 -0.877 0.120 211 192 164 0 0
6.4972 7.2663 -1.2367 -0.672 -0.733 0.106 208 189 158 0 0
6.5697 7.1810 -1.2139 -0.641 -0.766 0.045 207 188 158 0 0
7.0709 6.9203 -1.0899 -0.085 -0.988 -0.127 187 168 137 0 0
7.1672 6.9035 -1.0695 -0.405 -0.914 0.028 171 154 122 0 0
7.1935 6.8963 -1.0636 -0.201 -0.975 -0.089 184 165 133 0 0
7.3655 6.8522 -1.0257 -0.047 -0.990 0.130 186 169 141 0 0
0.4058 11.5977 -2.8825 -0.338 -0.451 0.826 235 234 232 0 0
0.4453 11.5903 -2.8740 -0.154 -0.969 0.195 234 233 231 0 0
0.4944 11.5321 -2.8585 0.772 -0.508 0.383 233 232 230 0 0
0.6984 11.5599 -2.8217 -0.889 -0.322 -0.325 228 224 223 0 0
0.7237 11.5237 -2.8131 -0.872 -0.305 -0.383 227 223 222 0 0
2.3911 8.6393 -2.1914 -0.112 -0.953 0.283 179 128 107 0 0
2.5749 8.6712 -2.1589 -0.119 -0.922 0.368 168 113 92 0 0
2.5907 8.6657 -2.1553 0.013 -0.872 0.490 170 116 95 0 0
2.6061 8.6675 -2.1525 0.013 -0.872 0.490 169 117 96 0 0
2.7593 7.6878 -2.0216 -0.702 -0.645 -0.301 153 113 88 0 0
2.8718 7.7245 -2.0035 -0.437 -0.725 0.533 222 199 168 0 0
3.1573 7.7097 -1.9465 -0.042 -0.766 0.642 223 203 173 0 0
3.5888 7.6916 -1.8608 -0.217 -0.682 0.699 226 206 179 0 0
3.7169 7.6569 -1.8324 -0.444 -0.659 0.607 234 214 187 0 0
3.7322 7.6677 -1.8305 -0.417 -0.673 0.611 227 207 179 0 0
3.7464 7.6635 -1.8273 -0.208 -0.685 0.698 228 207 178 0 0
3.9612 7.6272 -1.7818 -0.140 -0.753 0.643 223 202 171 0 0
5.9266 10.1762 -1.6631 0.061 -0.888 -0.457 120 72 58 0 0
5.9585 10.2284 -1.6622 0.137 -0.906 -0.400 123 77 62 0 0
6.1699 10.2972 -1.6282 0.334 -0.924 -0.187 114 72 55 0 0
6.5729 10.4716 -1.5679 0.671 -0.704 0.233 208 200 193 0 0
6.5997 10.4950 -1.5652 0.607 -0.780 0.151 210 202 195 0 0
6.6211 10.4999 -1.5615 0.219 -0.679 0.701 210 203 196 0 0
6.6441 10.5101 -1.5581 0.170 -0.687 0.706 211 204 196 0 0
6.3781 7.3863 -1.2873 -0.410 -0.686 0.601 208 191 162 0 0
6.5800 7.1610 -1.2249 -0.534 -0.826 0.180 212 193 162 0 0
0.4410 11.6316 -2.8998 -0.619 -0.510 0.597 234 233 231 0 0
0.4573 11.6462 -2.8982 -0.579 -0.806 0.123 233 232 230 0 0
0.5229 11.6019 -2.8808 0.761 -0.649 -0.013 232 231 229 0 0
0.7380 11.4632 -2.8245 -0.844 -0.333 -0.421 228 224 223 0 0
2.3034 8.6182 -2.2226 -0.071 -0.979 0.192 150 99 77 0 0
2.3185 8.6220 -2.2200 -0.148 -0.988 0.042 165 114 93 0 0
2.5783 8.6647 -2.1741 -0.119 -0.922 0.368 171 116 95 0 0
2.6097 8.6568 -2.1672 -0.056 -0.780 0.623 166 111 91 0 0
2.8180 7.7175 -2.0283 -0.350 -0.670 0.654 223 201 168 0 0
3.1601 7.6973 -1.9598 -0.019 -0.769 0.639 223 202 172 0 0
3.1887 7.6998 -1.9545 -0.022 -0.744 0.668 226 206 179 0 0
3.2029 7.6903 -1.9507 -0.391 -0.688 0.611 226 206 178 0 0
3.7047 7.6472 -1.8488 -0.604 -0.652 0.459 225 204 175 0 0
3.7342 7.6554 -1.8440 -0.542 -0.775 0.324 225 206 176 0 0
3.7484 7.6504 -1.8407 -0.326 -0.765 0.555 228 206 177 0 0
3.9336 7.6120 -1.8007 -0.086 -0.711 0.698 225 203 172 0 0
3.9486 7.6168 -1.7983 -0.295 -0.711 0.638 226 205 175 0 0
3.9630 7.6153 -1.7954 -0.140 -0.753 0.643 226 206 175 0 0
4.7485 7.4893 -1.6297 -0.362 -0.652 0.666 227 208 178 0 0
4.9166 7.4469 -1.5926 -0.213 -0.688 0.694 228 208 181 0 0
4.9309 7.4453 -1.5897 -0.195 -0.663 0.723 223 202 174 0 0
5.9325 10.1842 -1.6823 -0.006 -0.782 -0.624 127 81 65 0 0
6.1971 10.3108 -1.6443 0.306 -0.951 -0.035 110 67 50 0 0
6.5640 10.6362 -1.6072 0.532 -0.475 -0.701 206 200 194 0 0
6.5862 10.4341 -1.5817 0.179 -0.851 0.494 211 204 196 0 0
6.6065 10.4354 -1.5779 -0.177 -0.820 0.545 212 205 197 0 0
6.6958 10.5346 -1.5709 -0.179 -0.701 -0.691 215 208 202 0 0
6.2100 7.7386 -1.3722 -0.863 -0.485 0.138 200 175 141 0 0
6.3146 7.4993 -1.3268 -0.806 -0.589 0.064 206 185 154 0 0
6.4670 7.2894 -1.2752 -0.313 -0.923 0.223 208 189 159 0 0
6.4930 7.2781 -1.2690 -0.471 -0.874 0.120 205 185 156 0 0
6.7310 7.0464 -1.1985 -0.136 -0.965 0.226 197 180 151 0 0
6.7723 7.0383 -1.1897 -0.285 -0.948 0.139 190 171 141 0 0
6.8190 7.0080 -1.1774 -0.287 -0.925 0.247 195 176 146 0 0
6.8304 7.0000 -1.1744 -0.222 -0.975 0.021 195 176 146 0 0
6.8448 6.9989 -1.1715 -0.300 -0.938 0.172 196 178 148 0 0
7.0032 6.9207 -1.1325 0.080 -0.987 0.138 186 165 134 0 0
7.3677 6.8437 -1.0537 -0.237 -0.964 -0.122 190 173 143 0 0
0.4709 11.5951 -2.9108 -0.615 -0.571 0.544 233 232 230 0 0
0.5140 11.5680 -2.8996 0.726 -0.626 0.283 231 230 228 0 0
0.5817 11.4088 -2.8695 -0.929 -0.355 0.107 230 229 227 0 0
1.8364 8.6006 -2.3276 -0.353 -0.582 0.732 190 144 127 0 0
1.8518 8.5984 -2.3243 -0.162 -0.601 0.783 202 157 140 0 0
2.1575 8.5710 -2.2622 -0.086 -0.885 0.458 188 137 116 0 0
2.1863 8.5911 -2.2587 -0.009 -0.943 0.333 163 112 90 0 0
2.2024 8.5804 -2.2545 -0.125 -0.974 0.189 158 106 84 0 0
2.3823 8.6335 -2.2252 -0.055 -0.954 0.293 143 92 72 0 0
2.3983 8.6224 -2.2209 -0.345 -0.900 0.265 167 116 95 0 0
2.5670 8.6415 -2.1903 0.169 -0.938 0.304 121 66 45 0 0
2.5817 8.6588 -2.1893 -0.025 -0.872 0.488 144 89 68 0 0
2.6285 8.6525 -2.1795 -0.304 -0.850 0.431 132 77 57 0 0
3.2056 7.6771 -1.9639 -0.391 -0.688 0.611 224 204 177 0 0
3.2198 7.6720 -1.9606 -0.391 -0.688 0.611 226 207 179 0 0
3.5342 7.6417 -1.8964 -0.514 -0.632 0.580 227 206 176 0 0
3.6637 7.6378 -1.8709 0.148 -0.857 0.494 226 203 171 0 0
3.6786 7.6458 -1.8689 -0.368 -0.784 0.501 223 200 169 0 0
3.6930 7.6446 -1.8659 -0.557 -0.685 0.470 228 206 175 0 0
3.7069 7.6358 -1.8623 -0.557 -0.685 0.470 224 203 174 0 0
3.7209 7.6303 -1.8590 -0.478 -0.733 0.484 226 205 174 0 0
3.9354 7.5997 -1.8142 -0.340 -0.711 0.615 225 204 174 0 0
4.7625 7.4690 -1.6399 -0.397 -0.642 0.656 225 205 176 0 0
4.7765 7.4655 -1.6368 -0.430 -0.672 0.603 226 205 175 0 0
4.7901 7.4597 -1.6336 -0.430 -0.672 0.603 227 206 175 0 0
4.8453 7.4421 -1.6210 -0.283 -0.639 0.716 224 203 174 0 0
5.0601 7.4158 -1.5766 -0.026 -0.674 0.739 223 200 169 0 0
5.1376 7.4331 -1.5634 -0.003 -0.379 0.926 138 105 81 0 0
5.9474 10.2292 -1.7039 0.319 -0.861 -0.397 129 83 68 0 0
5.9718 10.2497 -1.7013 0.145 -0.838 -0.526 110 64 48 0 0
6.4763 10.3821 -1.6176 0.024 -0.633 0.773 208 201 195 0 0
6.5029 10.4063 -1.6150 -0.063 -0.763 0.643 211 203 196 0 0
6.6679 10.2937 -1.5711 0.561 -0.697 0.446 217 210 204 0 0
6.4688 7.2857 -1.2896 -0.300 -0.929 0.217 208 189 159 0 0
6.4824 7.2815 -1.2866 -0.471 -0.874 0.120 205 186 156 0 0
6.4951 7.2750 -1.2834 -0.471 -0.874 0.120 199 180 150 0 0
6.7327 7.0428 -1.2127 -0.136 -0.965 0.226 203 184 157 0 0
6.8195 7.0018 -1.1915 -0.198 -0.957 0.213 196 177 147 0 0
7.3852 6.8425 -1.0649 -0.083 -0.993 -0.078 185 168 138 0 0
7.5858 6.8834 -1.0303 -0.077 -0.980 0.185 185 166 134 0 0
0.5972 11.3449 -2.8800 -0.954 -0.298 -0.016 231 230 228 0 0
0.7448 10.9412 -2.8078 0.002 -0.897 0.442 231 227 226 0 0
1.8424 8.5750 -2.3398 -0.330 -0.668 0.667 196 152 136 0 0
2.1612 8.5636 -2.2769 -0.103 -0.905 0.412 179 124 103 0 0
2.4169 8.6200 -2.2334 -0.050 -0.942 0.333 161 107 87 0 0
2.4633 8.6170 -2.2242 -0.285 -0.942 0.177 160 108 86 0 0
2.5852 8.6506 -2.2042 -0.216 -0.907 0.361 168 113 92 0 0
2.6009 8.6442 -2.2004 -0.087 -0.976 0.201 175 120 99 0 0
2.7667 7.7261 -2.0692 -0.508 -0.832 0.223 215 192 160 0 0
2.7812 7.7143 -2.0651 -0.522 -0.779 0.346 215 192 160 0 0
3.3655 7.6576 -1.9459 -0.183 -0.670 0.719 225 204 174 0 0
3.3798 7.6568 -1.9430 -0.183 -0.670 0.719 226 205 175 0 0
3.6511 7.6216 -1.8867 0.270 -0.861 0.431 228 205 174 0 0
3.6660 7.6292 -1.8846 -0.050 -0.918 0.393 226 203 171 0 0
3.6804 7.6283 -1.8817 -0.502 -0.629 0.593 219 196 165 0 0
4.0800 7.5668 -1.7977 0.009 -0.765 0.644 225 202 171 0 0
4.7909 7.4479 -1.6472 -0.166 -0.738 0.655 226 204 173 0 0
5.0864 7.3882 -1.5836 -0.246 -0.485 0.839 219 197 165 0 0
5.1007 7.3862 -1.5806 -0.246 -0.485 0.839 224 202 170 0 0
5.1322 7.3956 -1.5755 0.117 -0.340 0.933 205 179 150 0 0
5.1508 7.4125 -1.5737 -0.004 -0.358 0.934 145 113 88 0 0
5.1589 7.3839 -1.5691 -0.860 -0.410 -0.304 135 93 74 0 0
5.9548 10.2429 -1.7236 0.224 -0.952 -0.210 124 79 64 0 0
5.9757 10.2494 -1.7203 0.146 -0.947 -0.285 101 54 39 0 0
5.9962 10.2538 -1.7168 0.080 -0.934 -0.347 118 70 56 0 0
6.0160 10.2557 -1.7132 0.198 -0.883 -0.426 129 82 66 0 0
6.3915 10.5640 -1.6737 0.525 -0.430 -0.735 205 196 190 0 0
6.4248 10.6127 -1.6725 0.603 -0.401 -0.690 203 197 189 0 0
6.4942 10.3609 -1.6319 -0.422 -0.668 0.613 213 204 200 0 0
6.5208 10.3846 -1.6294 0.113 -0.842 0.527 213 206 200 0 0
6.5440 10.3965 -1.6261 0.270 -0.962 -0.038 214 207 201 0 0
6.6576 10.6507 -1.6316 0.070 -0.940 0.333 215 208 202 0 0
6.1903 8.4681 -1.4864 -0.999 0.025 -0.033 224 216 207 0 0
6.1886 8.4079 -1.4803 -1.000 0.021 -0.010 190 177 159 0 0
6.1866 8.3480 -1.4741 -1.000 0.025 -0.015 191 165 139 0 0
6.3567 7.4267 -1.3418 -0.765 -0.586 -0.267 204 183 152 0 0
6.4440 7.2914 -1.3103 -0.634 -0.754 0.175 206 187 157 0 0
6.6531 7.0953 -1.2486 -0.573 -0.800 0.179 198 180 148 0 0
6.7510 7.0435 -1.2240 -0.276 -0.960 -0.051 198 179 149 0 0
6.7631 7.0368 -1.2210 -0.349 -0.937 0.021 198 179 149 0 0
6.7760 7.0321 -1.2179 -0.349 -0.937 0.021 194 175 144 0 0
7.3751 6.8457 -1.0818 -0.489 -0.824 -0.286 176 158 128 0 0
7.3882 6.8420 -1.0789 -0.258 -0.966 -0.016 194 177 147 0 0
7.4013 6.8385 -1.0760 -0.258 -0.966 -0.016 188 171 141 0 0
0.4604 11.7902 -2.9755 -0.951 -0.310 0.005 232 231 229 0 0
1.8476 8.5560 -2.3529 -0.275 -0.703 0.656 206 165 147 0 0
1.8629 8.5538 -2.3497 -0.041 -0.718 0.695 194 153 135 0 0
2.0273 8.5686 -2.3195 -0.067 -0.827 0.558 178 129 108 0 0
2.0425 8.5677 -2.3165 -0.166 -0.810 0.563 172 118 98 0 0
2.7698 7.7183 -2.0828 -0.616 -0.757 0.216 225 202 169 0 0
2.7844 7.7045 -2.0785 -0.540 -0.793 0.282 226 204 172 0 0
2.9127 7.6508 -2.0477 -0.185 -0.626 0.758 226 207 177 0 0
3.2821 7.6428 -1.9754 0.212 -0.806 0.553 227 206 177 0 0
3.2961 7.6329 -1.9716 -0.204 -0.800 0.564 222 202 172 0 0
3.6102 7.6109 -1.9085 -0.362 -0.620 0.696 230 207 176 0 0
3.6373 7.5849 -1.9004 0.095 -0.731 0.675 227 202 173 0 0
3.9794 7.5448 -1.8298 -0.473 -0.585 0.659 221 200 171 0 0
4.4353 7.4840 -1.7350 -0.083 -0.661 0.746 227 206 175 0 0
4.9830 7.3699 -1.6166 -0.232 -0.690 0.686 229 209 179 0 0
4.9972 7.3680 -1.6136 -0.232 -0.690 0.686 228 208 180 0 0
5.0117 7.3673 -1.6107 -0.000 -0.631 0.776 229 209 181 0 0
5.1720 7.3637 -1.5793 -0.859 -0.413 -0.303 134 93 74 0 0
5.1833 7.3495 -1.5756 -0.891 -0.437 -0.125 131 87 68 0 0
5.1885 7.3094 -1.5702 -0.779 -0.417 -0.469 138 92 74 0 0
5.2109 7.3421 -1.5694 -0.319 -0.767 0.557 119 74 57 0 0
5.9132 10.2135 -1.7482 0.291 -0.955 -0.056 117 72 57 0 0
5.9810 10.2542 -1.7395 0.276 -0.956 -0.104 124 76 62 0 0
6.0022 10.2615 -1.7363 0.080 -0.934 -0.347 125 77 62 0 0
6.4214 10.6582 -1.6986 0.528 -0.383 -0.758 207 199 192 0 0
6.4500 10.6891 -1.6965 0.630 -0.404 -0.663 208 201 194 0 0
6.5004 10.7252 -1.6907 0.696 -0.460 -0.551 210 203 195 0 0
6.4231 10.3034 -1.6594 -0.304 -0.586 0.751 212 205 199 0 0
6.5525 10.4116 -1.6463 0.237 -0.969 -0.068 215 208 202 0 0
6.5731 10.4139 -1.6425 0.514 -0.857 -0.027 216 209 203 0 0
6.1874 8.3928 -1.4957 -1.000 0.028 -0.001 193 177 158 0 0
6.1864 8.3359 -1.4897 -1.000 0.019 0.006 189 163 134 0 0
6.3797 7.3970 -1.3494 -0.582 -0.768 -0.269 206 186 157 0 0
6.6879 7.0995 -1.2572 -0.312 -0.938 -0.152 195 177 146 0 0
6.7001 7.0928 -1.2541 -0.316 -0.941 -0.125 196 177 146 0 0
6.8249 6.9997 -1.2198 -0.261 -0.965 -0.042 193 175 145 0 0
7.0837 6.9135 -1.1603 -0.035 -0.988 0.147 183 166 135 0 0
7.0958 6.9075 -1.1573 -0.028 -1.000 0.013 182 165 135 0 0
7.4042 6.8379 -1.0900 -0.258 -0.966 -0.016 202 184 153 0 0
0.6011 11.3639 -2.9219 -0.938 -0.319 -0.136 230 229 227 0 0
2.0468 8.5551 -2.3305 -0.262 -0.807 0.530 166 108 90 0 0
2.4388 8.6145 -2.2613 0.404 -0.908 -0.111 147 92 72 0 0
2.4698 8.6114 -2.2550 -0.200 -0.975 0.091 151 99 77 0 0
2.5162 8.6065 -2.2455 -0.073 -0.995 0.066 159 105 81 0 0
2.8451 7.6467 -2.0753 -0.189 -0.593 0.783 226 207 177 0 0
2.8592 7.6459 -2.0725 -0.189 -0.593 0.783 225 206 176 0 0
2.8733 7.6455 -2.0697 -0.115 -0.632 0.766 226 207 177 0 0
3.0855 7.6196 -2.0258 -0.188 -0.795 0.577 223 202 173 0 0
3.2276 7.6253 -1.9990 -0.473 -0.640 0.606 226 206 177 0 0
3.2700 7.6131 -1.9895 0.202 -0.841 0.503 225 204 174 0 0
3.4121 7.5994 -1.9605 -0.151 -0.724 0.673 225 204 173 0 0
3.5552 7.6012 -1.9331 -0.143 -0.665 0.733 226 206 178 0 0
3.6248 7.5677 -1.9159 0.079 -0.716 0.693 228 205 174 0 0
3.6395 7.5730 -1.9136 0.095 -0.731 0.675 228 204 175 0 0
4.3648 7.4780 -1.7630 -0.457 -0.663 0.593 223 202 172 0 0
4.7909 7.4162 -1.6738 -0.334 -0.626 0.705 229 207 176 0 0
4.9654 7.3415 -1.6318 -0.143 -0.901 0.409 221 202 171 0 0
4.9805 7.3438 -1.6291 -0.015 -0.957 0.290 227 208 179 0 0
4.9960 7.3480 -1.6266 0.177 -0.891 0.418 225 205 177 0 0
5.0263 7.3534 -1.6213 -0.164 -0.580 0.798 225 206 178 0 0
5.0964 7.3400 -1.6063 -0.298 -0.561 0.772 222 201 169 0 0
5.1749 7.3630 -1.5937 0.049 -0.358 0.933 190 158 137 0 0
5.1887 7.3590 -1.5906 -0.585 -0.456 0.670 124 85 65 0 0
5.1994 7.3423 -1.5867 -0.508 -0.481 0.714 136 92 73 0 0
5.2118 7.3329 -1.5832 -0.543 -0.402 0.737 129 81 64 0 0
5.9651 10.2519 -1.7621 0.284 -0.935 -0.210 118 74 60 0 0
5.9858 10.2573 -1.7587 0.271 -0.961 -0.050 123 78 63 0 0
6.0076 10.2671 -1.7556 0.258 -0.946 -0.197 126 81 65 0 0
6.0297 10.2780 -1.7525 0.426 -0.888 -0.176 126 81 65 0 0
6.2783 10.5576 -1.7356 0.761 -0.492 -0.422 204 196 186 0 0
6.3117 10.6087 -1.7348 0.761 -0.492 -0.422 206 197 189 0 0
6.3494 10.6748 -1.7349 0.607 -0.429 -0.668 207 198 191 0 0
6.3872 10.7411 -1.7349 0.609 -0.423 -0.670 208 199 192 0 0
6.5133 10.8301 -1.7205 0.685 -0.415 -0.598 211 204 196 0 0
6.5788 10.4192 -1.6622 0.237 -0.969 -0.068 217 210 204 0 0
6.2119 8.6259 -1.5337 -0.991 0.001 -0.130 223 216 210 0 0
6.3601 7.4181 -1.3709 -0.640 -0.767 0.043 208 188 156 0 0
6.6701 7.0848 -1.2739 -0.604 -0.797 0.004 200 179 146 0 0
6.6854 7.0855 -1.2711 -0.547 -0.837 0.013 197 175 144 0 0
6.7028 7.0916 -1.2684 -0.204 -0.960 -0.194 194 173 142 0 0
6.8140 7.0013 -1.2369 -0.332 -0.934 0.129 193 176 145 0 0
6.8284 7.0002 -1.2340 -0.316 -0.940 -0.132 192 175 145 0 0
6.8404 6.9937 -1.2309 -0.179 -0.984 -0.013 194 176 146 0 0
6.8554 6.9939 -1.2280 -0.305 -0.951 -0.045 190 171 140 0 0
7.4213 6.8358 -1.1012 -0.204 -0.977 -0.056 193 174 144 0 0
0.8701 10.9094 -2.8391 0.220 -0.721 0.657 228 224 221 0 0
1.6816 8.6084 -2.4231 -0.393 -0.804 0.447 166 113 92 0 0
1.9016 8.5301 -2.3719 -0.136 -0.881 0.454 182 137 118 0 0
1.9168 8.5281 -2.3687 -0.177 -0.950 0.259 159 113 94 0 0
1.9321 8.5262 -2.3655 -0.177 -0.950 0.259 178 128 111 0 0
1.9473 8.5242 -2.3624 -0.177 -0.950 0.259 194 143 124 0 0
1.9626 8.5222 -2.3592 -0.177 -0.950 0.259 174 123 103 0 0
2.2920 8.5646 -2.3004 0.142 -0.933 0.332 157 105 84 0 0
2.3067 8.5724 -2.2985 -0.044 -0.985 0.164 156 104 83 0 0
2.4728 8.6124 -2.2709 -0.101 -0.981 0.165 161 108 84 0 0
2.7501 7.6239 -2.1060 -0.076 -0.636 0.768 224 203 172 0 0
2.8768 7.6081 -2.0797 -0.333 -0.608 0.721 227 208 178 0 0
2.9189 7.6181 -2.0728 -0.614 -0.721 0.321 224 204 176 0 0
3.0600 7.5943 -2.0428 -0.081 -0.743 0.664 222 200 170 0 0
3.3722 7.6002 -1.9833 -0.461 -0.588 0.665 224 203 173 0 0
3.4567 7.5752 -1.9641 -0.223 -0.842 0.491 221 198 167 0 0
3.4709 7.5731 -1.9612 -0.213 -0.794 0.569 228 205 174 0 0
3.6844 7.5582 -1.9183 -0.263 -0.861 0.435 225 206 176 0 0
4.1256 7.5075 -1.8274 -0.209 -0.714 0.668 227 207 177 0 0
4.1959 7.4913 -1.8121 -0.206 -0.680 0.703 227 206 179 0 0
4.8143 7.3706 -1.6791 0.032 -0.743 0.668 226 205 174 0 0
4.9547 7.3450 -1.6492 -0.368 -0.686 0.627 226 206 176 0 0
4.9669 7.3343 -1.6456 -0.090 -0.861 0.500 226 207 177 0 0
4.9826 7.3395 -1.6431 -0.015 -0.957 0.290 224 204 175 0 0
4.9964 7.3360 -1.6401 0.007 -0.912 0.409 228 208 181 0 0
5.0112 7.3371 -1.6374 0.053 -0.922 0.384 228 208 181 0 0
5.1695 7.3268 -1.6057 0.113 -0.337 0.935 223 201 176 0 0
5.1855 7.3327 -1.6032 -0.437 -0.382 0.814 196 166 142 0 0
5.9915 10.2639 -1.7781 0.295 -0.932 -0.210 122 87 74 0 0
6.0186 10.2953 -1.7764 0.186 -0.869 -0.458 131 98 84 0 0
6.0349 10.2825 -1.7719 0.399 -0.878 -0.263 114 82 68 0 0
6.0612 10.3099 -1.7699 0.532 -0.796 -0.289 124 96 84 0 0
6.1739 10.4450 -1.7634 0.558 -0.478 -0.678 201 193 186 0 0
6.1953 10.4515 -1.7600 0.465 -0.717 -0.520 204 196 190 0 0
6.3307 10.6644 -1.7578 0.779 -0.497 -0.383 208 201 193 0 0
6.3751 10.7557 -1.7596 0.798 -0.467 -0.381 208 201 193 0 0
6.3977 10.7643 -1.7562 0.847 -0.487 -0.213 209 202 195 0 0
6.4174 10.7619 -1.7521 0.891 -0.448 0.071 210 203 196 0 0
6.4624 10.8531 -1.7537 0.891 -0.446 0.089 211 204 196 0 0
6.4914 10.8843 -1.7516 0.530 -0.655 -0.539 211 204 196 0 0
6.5260 10.9357 -1.7507 0.626 -0.422 -0.655 212 205 199 0 0
6.5494 10.3717 -1.6826 -0.033 -0.881 0.472 218 211 205 0 0
6.2151 8.6243 -1.5502 -0.992 -0.014 -0.125 223 218 212 0 0
6.1952 8.5041 -1.5404 -0.996 0.017 -0.087 224 219 213 0 0
6.3950 7.3791 -1.3751 -0.723 -0.683 -0.105 205 186 154 0 0
6.6760 7.0914 -1.2884 -0.547 -0.837 0.013 195 171 138 0 0
6.6878 7.0837 -1.2853 -0.547 -0.837 0.013 193 170 138 0 0
6.8160 6.9986 -1.2510 -0.332 -0.934 0.129 190 173 141 0 0
7.1013 6.9054 -1.1854 -0.036 -0.991 0.130 187 170 140 0 0
7.4245 6.8359 -1.1152 -0.204 -0.977 -0.056 200 180 150 0 0
0.7115 10.1604 -2.8037 -0.893 -0.247 0.377 234 233 231 0 0
0.8065 11.3042 -2.9161 -0.957 -0.289 0.027 228 224 221 0 0
1.9059 8.5184 -2.3858 -0.117 -0.939 0.325 192 144 127 0 0
1.9209 8.5184 -2.3829 -0.105 -0.964 0.244 181 132 115 0 0
1.9358 8.5197 -2.3802 0.044 -0.986 0.160 147 100 83 0 0
1.9507 8.5208 -2.3774 0.044 -0.986 0.160 157 108 91 0 0
1.9662 8.5159 -2.3739 -0.162 -0.957 0.239 164 116 97 0 0
2.2956 8.5568 -2.3151 0.061 -0.930 0.362 160 108 87 0 0
