ply
format ascii 1.0
element vertex 827
property float x
property float y
property float z
property float nx
property float ny
property float nz
property uchar diffuse_red
property uchar diffuse_green
property uchar diffuse_blue
property uchar class
property uchar detection
end_header
8.2136 7.7396 -3.0135 0.480 -0.776 0.410 225 225 225 0 0
8.2581 7.7618 -3.0186 -0.021 -0.605 0.796 225 225 224 0 0
8.3254 7.7584 -3.0218 -0.140 -0.498 0.856 226 226 224 0 0
0.8570 10.8535 -3.0093 -0.927 -0.359 -0.111 225 221 218 0 0
1.1212 10.6368 -2.9974 -0.912 -0.317 -0.262 218 213 208 0 0
2.6574 8.9201 -2.8728 0.150 -0.830 -0.537 117 72 56 0 0
2.7636 8.9998 -2.8882 0.126 -0.910 -0.394 112 70 56 0 0
2.9131 9.1038 -2.9090 0.470 -0.808 -0.354 111 69 55 0 0
2.9341 9.1166 -2.9116 0.344 -0.876 -0.338 103 62 50 0 0
2.9531 9.1224 -2.9134 0.284 -0.866 -0.412 74 34 23 0 0
2.9740 9.1344 -2.9160 0.109 -0.881 -0.459 80 42 30 0 0
2.9917 9.1357 -2.9171 -0.104 -0.802 -0.588 103 65 52 0 0
3.0174 9.1629 -2.9218 0.006 -0.687 -0.727 111 72 59 0 0
2.5267 7.3112 -2.6708 0.575 -0.687 -0.444 191 164 140 0 0
2.5320 7.1956 -2.6571 -0.636 -0.533 -0.558 221 198 167 0 0
2.5847 6.9743 -2.6331 -0.350 -0.643 0.682 226 205 176 0 0
2.5969 6.9691 -2.6332 -0.380 -0.659 0.649 224 203 174 0 0
2.6107 6.9687 -2.6339 -0.668 -0.651 0.360 224 204 174 0 0
2.6463 6.9104 -2.6287 -0.198 -0.746 0.636 225 206 176 0 0
2.8428 6.8330 -2.6300 -0.294 -0.663 0.689 227 208 179 0 0
2.8552 6.8284 -2.6302 -0.425 -0.606 0.672 225 207 176 0 0
2.8653 6.8180 -2.6294 -0.505 -0.552 0.663 225 207 176 0 0
2.8750 6.8064 -2.6286 -0.585 -0.511 0.630 225 206 176 0 0
3.0139 6.7623 -2.6308 0.089 -0.816 0.572 226 206 176 0 0
3.0283 6.7624 -2.6316 -0.173 -0.737 0.654 226 207 177 0 0
3.1799 6.7124 -2.6337 -0.447 -0.577 0.684 227 208 178 0 0
3.3959 6.6417 -2.6369 -0.230 -0.659 0.717 227 206 177 0 0
3.6950 6.4964 -2.6355 -0.083 -0.910 0.407 230 209 181 0 0
3.7129 6.5023 -2.6372 -0.354 -0.802 0.481 232 212 184 0 0
3.7443 6.4762 -2.6358 -0.310 -0.506 0.805 229 209 180 0 0
3.8801 6.4204 -2.6364 -0.218 -0.675 0.705 225 205 178 0 0
4.2965 6.2411 -2.6373 -0.564 -0.535 0.629 227 208 178 0 0
4.5590 6.1136 -2.6361 -0.223 -0.707 0.671 227 207 180 0 0
8.1459 8.2294 -3.0871 0.045 -0.374 0.926 213 213 212 0 0
7.8563 7.7272 -3.0106 -0.310 -0.887 -0.343 217 217 215 0 0
8.0850 7.7018 -3.0199 0.126 -0.893 -0.432 222 222 222 0 0
8.1482 7.7197 -3.0255 0.197 -0.556 0.808 223 223 223 0 0
8.2403 7.7185 -3.0304 -0.160 -0.495 0.854 226 226 224 0 0
8.3119 7.6955 -3.0315 -0.682 -0.296 0.669 228 228 226 0 0
1.0887 10.8046 -3.0337 -0.754 -0.332 -0.566 219 214 211 0 0
1.1012 10.7628 -3.0293 -0.877 -0.296 -0.378 218 214 210 0 0
2.6605 8.9310 -2.8904 0.284 -0.844 -0.455 117 73 57 0 0
2.7659 9.0076 -2.9056 0.126 -0.910 -0.394 109 67 53 0 0
2.8454 9.0484 -2.9150 0.382 -0.801 -0.461 114 71 56 0 0
2.9178 9.1192 -2.9276 0.483 -0.754 -0.445 104 63 49 0 0
2.9365 9.1243 -2.9293 0.344 -0.876 -0.338 93 52 39 0 0
2.9630 9.1547 -2.9345 0.226 -0.795 -0.564 100 60 47 0 0
2.9779 9.1470 -2.9343 -0.022 -0.883 -0.468 103 63 49 0 0
2.9961 9.1501 -2.9357 0.135 -0.927 -0.349 108 69 53 0 0
3.0157 9.1576 -2.9377 0.165 -0.890 -0.425 108 68 53 0 0
2.5357 7.2071 -2.6723 -0.636 -0.533 -0.558 221 198 167 0 0
2.5914 6.9534 -2.6442 -0.309 -0.582 0.752 226 205 175 0 0
2.6303 6.9045 -2.6404 -0.453 -0.586 0.672 224 204 175 0 0
2.8511 6.8177 -2.6419 -0.347 -0.592 0.727 227 208 178 0 0
2.8613 6.8076 -2.6412 -0.505 -0.552 0.663 223 203 174 0 0
2.8718 6.7981 -2.6406 -0.460 -0.561 0.688 225 205 176 0 0
2.8827 6.7898 -2.6402 -0.460 -0.561 0.688 227 206 178 0 0
3.4336 6.5967 -2.6468 -0.080 -0.686 0.723 225 206 174 0 0
3.6011 6.5464 -2.6498 -0.112 -0.664 0.739 230 209 180 0 0
3.6690 6.5040 -2.6483 -0.107 -0.823 0.558 228 207 179 0 0
3.6835 6.5032 -2.6490 -0.074 -0.691 0.719 228 209 180 0 0
3.6923 6.4911 -2.6480 -0.083 -0.910 0.407 228 208 181 0 0
3.7058 6.4883 -2.6484 -0.313 -0.817 0.484 230 209 183 0 0
3.7284 6.4742 -2.6479 -0.504 -0.464 0.728 227 206 177 0 0
3.9095 6.4189 -2.6511 0.005 -0.771 0.637 225 204 173 0 0
4.1162 6.2998 -2.6479 -0.568 -0.516 0.641 227 208 180 0 0
4.3006 6.2224 -2.6485 -0.144 -0.675 0.724 227 208 178 0 0
4.3618 6.1711 -2.6456 -0.345 -0.576 0.741 228 208 181 0 0
4.5518 6.1027 -2.6476 -0.478 -0.544 0.689 228 208 181 0 0
4.5669 6.1017 -2.6484 -0.511 -0.535 0.673 228 208 181 0 0
7.2410 8.1936 -3.0516 0.453 -0.870 0.195 201 201 199 0 0
6.9826 7.7894 -2.9879 -0.159 -0.975 -0.152 201 201 199 0 0
7.1560 7.8170 -3.0008 -0.964 -0.194 0.183 202 202 200 0 0
7.1171 7.7435 -2.9897 -0.847 -0.285 -0.449 202 202 200 0 0
7.1572 7.6363 -2.9787 -0.547 -0.749 0.374 204 204 202 0 0
8.2636 8.2012 -3.1088 -0.615 -0.387 0.687 217 218 215 0 0
8.0031 7.8379 -3.0499 -0.829 -0.116 0.547 218 218 217 0 0
7.9576 7.7132 -3.0321 -0.716 -0.314 0.623 220 220 219 0 0
8.0436 7.7069 -3.0361 0.085 -0.937 -0.339 222 222 221 0 0
8.0695 7.7099 -3.0379 0.085 -0.937 -0.339 222 222 220 0 0
8.0471 7.6614 -3.0307 0.034 -0.997 0.076 222 222 221 0 0
8.1326 7.7032 -3.0405 0.217 -0.786 0.579 223 223 223 0 0
8.1591 7.7067 -3.0424 0.332 -0.724 0.605 224 224 223 0 0
8.2334 7.7113 -3.0470 0.020 -0.478 0.878 226 226 224 0 0
0.6548 10.3644 -2.9728 -0.943 -0.156 -0.296 231 227 224 0 0
0.7169 10.7666 -3.0261 -0.487 -0.379 0.787 230 227 223 0 0
0.8582 10.8674 -3.0465 -0.951 -0.258 0.172 227 223 218 0 0
0.9107 10.7063 -3.0294 -0.788 -0.613 0.067 224 221 217 0 0
1.1267 10.6872 -3.0391 -0.851 -0.331 -0.407 220 215 212 0 0
1.1394 10.6497 -3.0351 -0.851 -0.331 -0.407 218 214 211 0 0
1.4181 9.6445 -2.9260 -0.769 -0.480 -0.422 155 107 93 0 0
1.4308 9.6232 -2.9240 -0.461 -0.680 -0.570 173 125 111 0 0
1.7474 8.5294 -2.8060 -0.618 -0.570 -0.541 163 112 94 0 0
2.0852 8.5555 -2.8280 0.087 -0.924 -0.373 111 65 52 0 0
2.1023 8.5630 -2.8299 -0.036 -0.962 -0.270 112 68 55 0 0
2.1194 8.5702 -2.8317 0.180 -0.964 -0.194 116 70 57 0 0
2.6411 8.9211 -2.9042 0.300 -0.859 -0.414 110 64 48 0 0
2.6633 8.9412 -2.9079 0.335 -0.869 -0.363 112 67 50 0 0
2.7681 9.0155 -2.9230 0.126 -0.910 -0.394 104 60 47 0 0
2.8494 9.0619 -2.9333 0.385 -0.769 -0.510 94 50 37 0 0
2.9226 9.1352 -2.9464 0.464 -0.746 -0.477 97 55 41 0 0
2.9389 9.1321 -2.9469 0.351 -0.878 -0.327 105 63 49 0 0
2.9678 9.1706 -2.9533 0.273 -0.778 -0.566 105 63 49 0 0
2.9780 9.1474 -2.9510 0.549 -0.793 -0.264 107 64 49 0 0
2.9989 9.1591 -2.9536 0.446 -0.829 -0.338 114 71 56 0 0
2.8467 6.8063 -2.6534 -0.251 -0.589 0.768 224 205 175 0 0
2.8573 6.7972 -2.6529 -0.505 -0.552 0.663 225 206 176 0 0
2.8680 6.7881 -2.6523 -0.505 -0.552 0.663 224 204 175 0 0
3.0395 6.7201 -2.6534 -0.320 -0.683 0.656 225 204 175 0 0
3.0515 6.7145 -2.6534 -0.333 -0.738 0.586 225 204 175 0 0
3.3506 6.6068 -2.6567 -0.513 -0.651 0.560 225 204 176 0 0
3.3621 6.6002 -2.6565 -0.087 -0.848 0.522 226 204 177 0 0
3.3919 6.6014 -2.6583 -0.287 -0.845 0.451 227 204 176 0 0
3.4112 6.5802 -2.6568 -0.591 -0.648 0.480 224 204 173 0 0
3.4216 6.5712 -2.6562 -0.591 -0.648 0.480 224 203 172 0 0
3.4320 6.5621 -2.6557 -0.591 -0.648 0.480 225 206 174 0 0
3.4481 6.5653 -2.6570 -0.286 -0.918 0.274 226 207 176 0 0
3.5971 6.5383 -2.6619 0.061 -0.744 0.665 229 207 176 0 0
3.6760 6.4884 -2.6601 -0.070 -0.785 0.615 230 210 183 0 0
3.6857 6.4782 -2.6594 -0.231 -0.703 0.673 226 208 182 0 0
3.6988 6.4747 -2.6596 -0.452 -0.532 0.716 225 205 178 0 0
3.7116 6.4706 -2.6598 -0.493 -0.524 0.694 226 207 177 0 0
3.7440 6.4467 -2.6587 -0.394 -0.538 0.746 225 206 175 0 0
3.7994 6.4100 -2.6572 0.069 -0.718 0.692 226 205 175 0 0
3.8567 6.4049 -2.6598 0.095 -0.875 0.475 228 208 178 0 0
3.9107 6.3933 -2.6613 -0.261 -0.688 0.677 227 206 177 0 0
3.9392 6.3903 -2.6626 -0.741 -0.515 0.430 228 207 178 0 0
4.0024 6.3404 -2.6599 -0.422 -0.703 0.573 227 207 179 0 0
4.1059 6.2820 -2.6584 -0.303 -0.627 0.717 228 207 180 0 0
4.1530 6.2582 -2.6581 -0.193 -0.537 0.821 227 208 181 0 0
4.1595 6.2433 -2.6566 0.008 -0.718 0.696 231 211 184 0 0
4.3662 6.1533 -2.6569 0.060 -0.819 0.571 226 206 179 0 0
4.8168 5.9357 -2.6549 -0.281 -0.686 0.671 226 209 181 0 0
4.9875 5.9059 -2.6607 0.079 -0.996 0.045 211 189 157 0 0
7.2816 8.2165 -3.0747 0.594 -0.751 0.288 204 204 202 0 0
7.1466 7.8056 -3.0163 -0.897 -0.321 0.303 204 204 202 0 0
7.1268 7.7552 -3.0089 -0.595 -0.507 -0.623 204 204 202 0 0
7.0959 7.6401 -2.9929 0.351 -0.803 0.481 205 205 203 0 0
7.1245 7.6486 -2.9956 -0.033 -0.630 0.776 204 204 202 0 0
7.5316 7.7927 -3.0361 -0.330 -0.283 0.900 210 210 208 0 0
8.2244 8.1056 -3.1134 -0.768 -0.073 0.636 218 218 217 0 0
8.2492 8.1068 -3.1149 -0.669 -0.060 0.741 219 219 219 0 0
8.1596 7.9831 -3.0946 -0.428 -0.258 0.866 220 219 220 0 0
8.0661 7.7310 -3.0581 0.165 -0.781 -0.602 222 222 222 0 0
8.0975 7.7398 -3.0610 0.165 -0.781 -0.602 223 223 221 0 0
8.0179 7.6059 -3.0399 0.060 -0.965 0.257 223 223 222 0 0
8.0310 7.5713 -3.0364 -0.190 -0.705 0.683 224 224 222 0 0
8.1010 7.6209 -3.0464 0.205 -0.678 0.706 225 225 223 0 0
8.0702 7.5643 -3.0377 -0.224 -0.974 0.023 225 225 223 0 0
8.2612 7.7404 -3.0701 0.003 -0.595 0.804 226 226 224 0 0
8.2138 7.6664 -3.0583 -0.391 -0.226 0.892 227 227 225 0 0
0.6598 10.6583 -3.0268 -0.928 -0.298 -0.223 231 228 224 0 0
0.7044 10.6012 -3.0222 -0.630 -0.474 0.616 231 227 224 0 0
0.7953 10.7147 -3.0415 -0.573 -0.785 0.236 227 223 220 0 0
0.8580 10.8656 -3.0640 -0.947 -0.305 0.097 226 223 218 0 0
0.9105 10.7046 -3.0467 -0.788 -0.613 0.067 224 221 216 0 0
1.0990 10.5880 -3.0427 -0.120 -0.923 0.366 221 214 212 0 0
1.1155 10.5856 -3.0433 -0.120 -0.923 0.366 220 215 213 0 0
2.7705 9.0236 -2.9404 0.007 -0.881 -0.473 100 56 44 0 0
2.9607 9.1471 -2.9666 0.584 -0.754 -0.300 111 68 54 0 0
3.0027 9.1713 -2.9720 0.427 -0.874 -0.230 116 72 58 0 0
3.0255 9.1889 -2.9755 0.265 -0.892 -0.366 108 65 53 0 0
2.5613 7.3740 -2.7218 0.458 -0.706 -0.540 208 183 155 0 0
3.0594 6.6992 -2.6651 -0.230 -0.644 0.730 230 210 181 0 0
3.0686 6.6871 -2.6641 -0.388 -0.565 0.728 229 210 181 0 0
3.3073 6.6074 -2.6676 -0.620 -0.464 0.633 228 208 177 0 0
3.3166 6.5960 -2.6667 -0.634 -0.551 0.542 225 206 176 0 0
3.3286 6.5904 -2.6666 -0.475 -0.660 0.581 225 205 176 0 0
3.3444 6.5932 -2.6679 -0.455 -0.613 0.646 227 205 176 0 0
3.3527 6.5797 -2.6666 -0.142 -0.708 0.692 224 200 171 0 0
3.4279 6.5535 -2.6676 -0.336 -0.703 0.627 224 204 173 0 0
3.4395 6.5470 -2.6674 -0.347 -0.707 0.616 227 207 177 0 0
3.4532 6.5452 -2.6680 -0.161 -0.798 0.581 225 204 175 0 0
3.4681 6.5458 -2.6689 -0.155 -0.687 0.710 226 205 176 0 0
3.9061 6.3850 -2.6733 -0.296 -0.729 0.617 227 207 178 0 0
4.1372 6.2314 -2.6671 0.063 -0.757 0.651 226 209 181 0 0
4.1529 6.2321 -2.6680 0.008 -0.718 0.696 224 206 178 0 0
4.1667 6.2296 -2.6685 0.038 -0.840 0.540 224 205 176 0 0
4.1918 6.2204 -2.6687 -0.238 -0.582 0.778 227 207 180 0 0
4.5466 6.0237 -2.6640 -0.274 -0.808 0.522 228 208 181 0 0
4.5593 6.0193 -2.6642 -0.274 -0.808 0.522 228 208 181 0 0
4.5945 6.0252 -2.6669 -0.084 -0.854 0.513 228 210 184 0 0
4.6390 5.9981 -2.6660 -0.282 -0.593 0.755 226 208 182 0 0
5.0323 5.9228 -2.6787 0.345 -0.918 -0.195 205 192 174 0 0
5.0532 5.9291 -2.6806 0.263 -0.941 -0.211 214 210 201 0 0
7.2939 8.2039 -3.0919 0.227 -0.728 0.647 204 204 202 0 0
7.6241 8.4146 -3.1369 0.726 -0.635 0.263 205 205 205 0 0
7.1502 7.7053 -3.0213 -0.041 -0.905 -0.423 205 205 204 0 0
7.1233 7.6472 -3.0125 0.030 -0.516 0.856 206 206 204 0 0
7.1177 7.6148 -3.0081 -0.412 -0.477 0.777 207 207 206 0 0
7.1360 7.6111 -3.0087 -0.858 -0.401 0.322 207 207 207 0 0
7.1110 7.5053 -2.9940 0.300 -0.779 -0.551 207 207 206 0 0
7.6096 7.7797 -3.0564 -0.506 -0.037 0.861 213 214 210 0 0
7.9138 7.9177 -3.0908 -0.276 -0.739 0.614 216 217 216 0 0
7.9224 7.9016 -3.0893 0.128 -0.723 0.679 217 217 217 0 0
7.7462 7.4360 -3.0210 -0.392 -0.677 0.623 221 221 221 0 0
8.0332 7.6222 -3.0605 -0.714 -0.600 0.361 223 223 221 0 0
7.9917 7.5539 -3.0496 -0.503 -0.678 -0.536 223 223 223 0 0
8.0197 7.5593 -3.0518 -0.190 -0.705 0.683 224 224 224 0 0
8.0699 7.5640 -3.0552 -0.224 -0.974 0.023 225 225 225 0 0
8.0912 7.5623 -3.0562 -0.113 -0.993 0.013 227 227 227 0 0
0.7623 10.7147 -3.0571 -0.486 -0.863 0.134 229 225 222 0 0
1.1594 10.6771 -3.0749 -0.934 -0.272 -0.232 219 213 212 0 0
1.4225 9.6740 -2.9626 -0.709 -0.505 -0.493 172 124 108 0 0
1.8992 8.4700 -2.8370 0.131 -0.920 -0.369 132 84 70 0 0
2.8737 9.0863 -2.9706 0.111 -0.839 -0.533 106 63 47 0 0
2.8974 9.1083 -2.9747 0.281 -0.810 -0.515 111 68 52 0 0
2.9174 9.1179 -2.9771 0.230 -0.791 -0.567 120 78 62 0 0
2.9624 9.1528 -2.9840 0.600 -0.741 -0.302 112 68 55 0 0
2.9851 9.1705 -2.9876 0.594 -0.767 -0.241 104 60 47 0 0
3.0035 9.1740 -2.9891 0.423 -0.842 -0.334 117 73 61 0 0
3.0273 9.1947 -2.9930 0.287 -0.927 -0.240 114 71 59 0 0
3.0507 9.2140 -2.9968 0.281 -0.960 -0.012 86 46 36 0 0
2.5662 7.3892 -2.7378 0.375 -0.690 -0.619 208 182 155 0 0
2.6304 7.5421 -2.7609 0.853 -0.469 -0.229 211 188 157 0 0
2.8451 6.7654 -2.6745 0.063 -0.757 0.651 226 207 177 0 0
2.9427 6.7264 -2.6751 0.036 -0.795 0.606 225 205 178 0 0
2.9991 6.6908 -2.6738 -0.088 -0.722 0.687 223 203 173 0 0
3.3118 6.5854 -2.6782 -0.508 -0.677 0.533 225 206 175 0 0
3.3507 6.5754 -2.6792 -0.509 -0.660 0.553 228 205 174 0 0
3.3994 6.5549 -2.6794 -0.450 -0.594 0.667 228 208 179 0 0
3.4627 6.5343 -2.6803 -0.161 -0.798 0.581 227 206 177 0 0
3.5919 6.4979 -2.6831 0.040 -0.803 0.595 228 207 177 0 0
3.6375 6.4709 -2.6822 -0.324 -0.537 0.779 227 206 179 0 0
4.1581 6.2152 -2.6794 -0.008 -0.897 0.441 220 201 174 0 0
4.1754 6.2186 -2.6808 -0.068 -0.738 0.671 227 208 179 0 0
4.5309 6.0234 -2.6763 -0.298 -0.709 0.639 228 208 181 0 0
4.5418 6.0163 -2.6760 -0.395 -0.709 0.584 228 208 181 0 0
4.6718 5.9771 -2.6784 -0.275 -0.816 0.508 227 209 182 0 0
4.7039 5.9779 -2.6803 -0.230 -0.676 0.700 227 207 180 0 0
4.7929 5.8797 -2.6729 -0.300 -0.806 0.511 223 205 177 0 0
4.8066 5.8767 -2.6733 -0.225 -0.796 0.561 222 203 175 0 0
4.8731 5.8590 -2.6749 -0.406 -0.638 0.654 226 206 177 0 0
5.0351 5.9265 -2.6926 0.338 -0.894 -0.295 209 200 186 0 0
5.0553 5.9320 -2.6945 0.048 -0.929 -0.367 214 213 208 0 0
6.9096 8.2495 -3.0939 -0.388 -0.175 0.905 212 212 210 0 0
7.1582 7.7409 -3.0435 -0.583 -0.338 -0.739 207 207 207 0 0
7.1573 7.7139 -3.0400 -0.134 -0.858 -0.496 207 207 207 0 0
7.1262 7.5994 -3.0237 -0.177 -0.593 0.786 207 207 207 0 0
7.0478 7.4557 -3.0010 0.312 -0.935 -0.168 209 209 209 0 0
7.1585 7.5361 -3.0175 0.332 -0.851 -0.408 209 209 209 0 0
7.6594 7.6589 -3.0616 -0.225 -0.463 0.857 215 216 215 0 0
7.9349 7.9411 -3.1130 -0.644 -0.198 0.739 215 217 216 0 0
7.9750 7.9342 -3.1144 -0.571 -0.309 0.760 217 217 217 0 0
7.6282 7.3801 -3.0244 -0.296 -0.586 0.754 220 220 219 0 0
8.1433 7.7639 -3.1024 0.033 -0.943 0.332 223 223 221 0 0
8.0796 7.6470 -3.0839 -0.592 -0.745 -0.308 225 225 224 0 0
8.1106 7.6554 -3.0868 -0.516 -0.809 -0.281 225 225 225 0 0
1.0744 10.5144 -3.0668 -0.394 -0.662 0.637 220 216 213 0 0
1.1358 10.4688 -3.0645 -0.699 -0.707 -0.108 221 214 214 0 0
1.1930 10.5308 -3.0757 -0.913 -0.296 -0.282 217 211 212 0 0
1.8411 8.4780 -2.8496 -0.369 -0.827 -0.425 129 80 65 0 0
2.6306 8.9427 -2.9546 0.306 -0.855 -0.419 120 72 58 0 0
2.6490 8.9490 -2.9565 0.300 -0.859 -0.414 114 67 53 0 0
2.6954 8.9955 -2.9651 0.560 -0.770 -0.306 115 72 58 0 0
2.7153 9.0067 -2.9677 0.553 -0.761 -0.340 116 72 59 0 0
2.8773 9.0983 -2.9888 0.111 -0.839 -0.533 109 67 51 0 0
2.8980 9.1104 -2.9915 0.236 -0.887 -0.396 109 67 51 0 0
2.9265 9.1480 -2.9980 0.383 -0.831 -0.404 115 73 59 0 0
3.0083 9.1895 -3.0080 0.461 -0.848 -0.260 111 67 56 0 0
3.0288 9.1997 -3.0105 0.287 -0.927 -0.240 102 61 49 0 0
3.0508 9.2142 -3.0136 0.281 -0.960 -0.012 102 63 53 0 0
3.0682 9.2141 -3.0146 0.307 -0.951 -0.033 91 54 44 0 0
2.5724 7.4085 -2.7545 0.032 -0.584 -0.811 208 183 156 0 0
2.8628 6.7384 -2.6852 -0.230 -0.587 0.776 227 206 177 0 0
2.9391 6.7175 -2.6869 -0.115 -0.731 0.673 229 209 182 0 0
2.9953 6.6816 -2.6856 -0.270 -0.712 0.648 223 202 171 0 0
3.0516 6.6803 -2.6886 -0.120 -0.649 0.751 228 208 180 0 0
3.3185 6.5682 -2.6896 -0.543 -0.725 0.423 227 206 176 0 0
3.3453 6.5635 -2.6905 -0.418 -0.603 0.680 227 204 173 0 0
3.7811 6.3754 -2.6915 -0.084 -0.746 0.661 226 206 178 0 0
3.7995 6.3821 -2.6934 -0.081 -0.769 0.634 226 205 176 0 0
4.2243 6.1728 -2.6909 -0.562 -0.797 -0.220 226 206 177 0 0
4.4469 6.0373 -2.6864 -0.541 -0.464 0.701 224 205 178 0 0
4.4702 6.0255 -2.6862 -0.343 -0.631 0.696 227 209 181 0 0
4.4804 6.0175 -2.6858 0.152 -0.909 0.387 229 209 182 0 0
4.5144 6.0221 -2.6883 0.115 -0.940 0.321 226 206 179 0 0
4.5291 6.0207 -2.6890 -0.348 -0.920 0.178 230 210 183 0 0
4.5408 6.0149 -2.6889 -0.137 -0.985 -0.103 229 211 183 0 0
4.5547 6.0124 -2.6894 -0.585 -0.537 0.608 227 208 180 0 0
4.5652 6.0048 -2.6890 -0.171 -0.821 0.545 226 207 180 0 0
4.6255 5.9552 -2.6861 -0.374 -0.877 0.301 227 210 182 0 0
4.6676 5.9709 -2.6905 -0.275 -0.816 0.508 229 209 181 0 0
4.8789 5.8451 -2.6865 0.100 -0.791 0.604 217 196 164 0 0
5.0344 5.9257 -2.7058 0.263 -0.905 -0.335 212 206 194 0 0
5.0628 5.9420 -2.7095 0.155 -0.886 -0.436 215 215 211 0 0
7.1658 7.9088 -3.0827 0.664 -0.550 0.506 207 207 207 0 0
7.3148 8.0644 -3.1112 0.703 -0.587 0.401 207 208 207 0 0
7.4848 8.1074 -3.1265 -0.930 0.063 -0.363 208 208 208 0 0
7.0621 7.5484 -3.0305 -0.377 -0.700 0.607 209 209 208 0 0
7.1169 7.5882 -3.0388 -0.636 -0.537 0.553 208 208 208 0 0
7.2941 7.5688 -3.0465 -0.022 -0.999 0.040 212 212 212 0 0
7.6996 7.5061 -3.0618 0.127 -0.981 0.149 220 220 218 0 0
8.0485 7.7120 -3.1082 -0.234 -0.947 0.218 223 223 223 0 0
8.1294 7.7491 -3.1176 -0.073 -0.986 0.149 224 224 222 0 0
8.0029 7.5416 -3.0837 -0.479 -0.217 0.851 226 226 226 0 0
8.1139 7.6345 -3.1020 -0.860 -0.369 -0.354 227 227 227 0 0
8.1284 7.6013 -3.0986 -0.803 -0.273 -0.530 227 227 227 0 0
8.1101 7.5580 -3.0920 -0.398 -0.600 -0.694 228 228 228 0 0
0.7360 10.5887 -3.0741 0.489 -0.869 0.082 231 226 223 0 0
0.7637 10.7315 -3.0942 -0.838 -0.534 -0.115 230 226 223 0 0
0.8636 10.9295 -3.1257 -0.944 -0.268 -0.193 227 223 220 0 0
0.9318 10.7538 -3.1069 -0.833 -0.237 -0.500 225 221 218 0 0
2.1890 8.6666 -2.9093 0.260 -0.822 -0.506 125 82 72 0 0
2.6544 8.9684 -2.9755 0.337 -0.819 -0.464 107 62 46 0 0
2.6979 9.0043 -2.9826 0.560 -0.770 -0.306 107 65 51 0 0
2.8181 9.0709 -2.9983 -0.040 -0.784 -0.620 113 72 57 0 0
2.8488 9.1174 -3.0061 0.455 -0.889 -0.057 107 65 49 0 0
2.8690 9.1278 -3.0086 0.455 -0.889 -0.057 103 61 45 0 0
2.8803 9.1085 -3.0068 0.002 -0.741 -0.671 111 69 53 0 0
2.9040 9.1304 -3.0110 0.107 -0.936 -0.337 107 66 51 0 0
2.9157 9.1124 -3.0093 0.442 -0.674 -0.591 109 69 55 0 0
2.9920 9.1928 -3.0242 0.527 -0.749 -0.401 114 72 58 0 0
3.0116 9.2000 -3.0263 0.389 -0.795 -0.466 102 60 48 0 0
3.0561 9.2311 -3.0329 0.254 -0.800 -0.544 102 64 53 0 0
2.5805 7.4333 -2.7721 0.032 -0.584 -0.811 206 182 156 0 0
2.6385 7.5673 -2.7928 0.836 -0.474 -0.276 210 185 155 0 0
2.6529 6.8116 -2.6956 -0.041 -0.743 0.668 225 206 176 0 0
3.0518 6.6466 -2.6974 -0.282 -0.577 0.767 230 210 180 0 0
3.3054 6.5713 -2.7024 -0.469 -0.697 0.543 229 208 177 0 0
3.3797 6.5439 -2.7032 -0.213 -0.612 0.761 223 201 170 0 0
4.1224 6.2062 -2.7025 -0.059 -0.727 0.684 230 210 185 0 0
4.4525 6.0221 -2.6978 -0.129 -0.749 0.650 221 204 176 0 0
4.4655 6.0183 -2.6981 0.013 -0.791 0.611 222 205 177 0 0
4.4847 6.0240 -2.7000 0.130 -0.900 0.416 228 208 181 0 0
4.5545 6.0120 -2.7025 -0.527 -0.631 0.569 228 209 179 0 0
4.5608 5.9981 -2.7010 -0.432 -0.770 0.469 228 209 181 0 0
4.5718 5.9912 -2.7008 -0.526 -0.625 0.577 226 209 181 0 0
4.5790 5.9788 -2.6996 -0.518 -0.655 0.549 229 209 182 0 0
4.6246 5.9538 -2.6990 -0.459 -0.768 0.446 228 211 183 0 0
4.6656 5.9451 -2.7002 -0.477 -0.624 0.619 226 206 178 0 0
5.0385 5.9311 -2.7201 0.228 -0.852 -0.472 216 211 200 0 0
5.0546 5.9310 -2.7210 -0.434 -0.670 -0.602 216 216 211 0 0
6.8304 8.1449 -3.1114 -0.587 -0.107 0.802 214 214 212 0 0
7.0405 7.7288 -3.0696 0.507 -0.623 0.596 208 210 208 0 0
7.0687 7.7371 -3.0723 0.352 -0.618 0.703 208 210 207 0 0
7.0889 7.6060 -3.0565 -0.762 -0.585 0.277 208 208 206 0 0
7.1067 7.5762 -3.0537 -0.637 -0.477 0.606 210 210 209 0 0
7.1388 7.5382 -3.0506 0.510 -0.836 -0.200 211 211 211 0 0
7.1221 7.4933 -3.0438 0.427 -0.733 0.529 212 212 212 0 0
7.1589 7.5115 -3.0483 0.427 -0.733 0.529 212 212 212 0 0
7.3588 7.5933 -3.0706 -0.506 -0.827 -0.244 213 214 212 0 0
7.5951 7.6619 -3.0932 -0.933 -0.124 0.338 216 217 216 0 0
7.6593 7.5107 -3.0773 -0.468 -0.398 0.789 218 219 217 0 0
7.6935 7.4995 -3.0779 0.178 -0.907 0.382 220 221 219 0 0
7.7197 7.5037 -3.0799 -0.127 -0.967 0.222 221 221 220 0 0
8.0559 7.7200 -3.1275 -0.225 -0.968 0.109 224 224 224 0 0
8.0987 7.7411 -3.1327 0.092 -0.929 0.358 224 224 223 0 0
8.0003 7.5630 -3.1039 -0.550 -0.178 0.816 226 226 226 0 0
8.1253 7.5739 -3.1126 -0.451 -0.515 -0.729 228 228 228 0 0
0.8988 10.5775 -3.0994 -0.401 -0.803 -0.442 227 223 219 0 0
0.9147 10.5707 -3.0995 -0.180 -0.975 -0.127 226 222 219 0 0
0.9309 10.5678 -3.1000 -0.180 -0.975 -0.127 226 222 219 0 0
1.2107 10.6807 -3.1313 -0.891 -0.152 -0.427 218 214 211 0 0
1.2567 10.3678 -3.0930 -0.899 -0.371 -0.235 196 174 173 0 0
1.9766 8.5475 -2.8966 0.129 -0.923 -0.362 121 75 60 0 0
2.8203 9.0783 -3.0158 0.051 -0.876 -0.480 115 73 59 0 0
2.8389 9.0838 -3.0176 0.130 -0.854 -0.504 100 59 45 0 0
2.8694 9.1292 -3.0253 0.480 -0.871 -0.109 110 69 55 0 0
2.8854 9.1255 -3.0258 0.272 -0.690 -0.671 113 71 55 0 0
2.9037 9.1292 -3.0273 0.230 -0.847 -0.480 106 63 47 0 0
2.9535 9.1801 -3.0369 0.323 -0.704 -0.632 103 60 44 0 0
3.0166 9.2163 -3.0454 0.334 -0.782 -0.526 102 62 50 0 0
3.0605 9.2454 -3.0518 0.254 -0.800 -0.544 98 60 47 0 0
2.5899 7.4627 -2.7904 0.208 -0.634 -0.745 207 182 156 0 0
2.5191 6.8631 -2.7076 -0.467 -0.654 0.595 212 189 155 0 0
2.5289 6.8514 -2.7066 -0.292 -0.688 0.664 217 193 159 0 0
2.5418 6.8489 -2.7071 -0.433 -0.567 0.700 221 197 163 0 0
2.6473 6.7957 -2.7063 -0.147 -0.715 0.683 224 203 174 0 0
2.6596 6.7915 -2.7065 -0.150 -0.751 0.643 224 203 174 0 0
2.6721 6.7878 -2.7067 -0.345 -0.665 0.663 224 204 175 0 0
3.1191 6.6041 -2.7089 -0.522 -0.593 0.613 227 206 177 0 0
3.1354 6.5758 -2.7062 -0.429 -0.772 0.469 226 207 177 0 0
4.1164 6.1959 -2.7140 -0.059 -0.727 0.684 228 210 183 0 0
4.4536 6.0238 -2.7112 -0.502 -0.848 0.169 227 207 180 0 0
4.4616 6.0123 -2.7102 -0.127 -0.877 0.463 226 206 180 0 0
4.4772 6.0126 -2.7112 0.238 -0.960 0.150 226 206 180 0 0
4.6341 5.9449 -2.7115 -0.432 -0.758 0.489 229 209 182 0 0
4.6414 5.9328 -2.7103 0.078 -0.881 0.467 230 210 183 0 0
5.0469 5.9425 -2.7354 0.228 -0.849 -0.476 217 215 206 0 0
5.1110 5.9627 -2.7419 0.205 -0.705 0.679 216 216 214 0 0
6.7723 8.0401 -3.1119 -0.346 -0.462 0.817 214 214 214 0 0
7.0899 7.8958 -3.1116 0.483 -0.714 -0.508 210 210 210 0 0
7.2298 8.0417 -3.1390 0.030 -0.929 0.370 210 210 210 0 0
8.1124 8.9208 -3.3061 0.717 -0.686 0.120 210 210 208 0 0
7.0891 7.6062 -3.0736 -0.901 -0.431 -0.056 210 210 210 0 0
7.0997 7.5678 -3.0692 -0.584 -0.526 0.618 212 212 212 0 0
7.1555 7.5578 -3.0712 0.451 -0.829 -0.332 212 212 212 0 0
7.3407 7.5725 -3.0840 -0.519 -0.855 -0.017 216 216 214 0 0
7.6833 7.4883 -3.0931 0.161 -0.933 0.323 222 222 222 0 0
7.7184 7.5024 -3.0970 -0.202 -0.979 0.016 222 222 222 0 0
8.1253 7.8445 -3.1657 0.078 -0.401 0.913 223 223 223 0 0
8.1626 7.8344 -3.1666 -0.328 -0.427 0.843 225 225 225 0 0
0.7890 10.6381 -3.1183 0.375 -0.695 0.614 230 226 225 0 0
0.9588 10.5152 -3.1121 -0.856 -0.509 0.094 226 221 218 0 0
1.2158 10.7240 -3.1550 -0.866 -0.160 -0.473 218 214 211 0 0
1.2458 10.4144 -3.1158 -0.896 -0.416 -0.158 220 212 209 0 0
1.9770 8.5496 -2.9120 0.127 -0.855 -0.502 123 79 64 0 0
2.8037 9.0794 -3.0314 0.217 -0.778 -0.590 117 72 59 0 0
2.8231 9.0878 -3.0336 -0.058 -0.770 -0.635 124 79 66 0 0
2.8414 9.0923 -3.0353 0.109 -0.793 -0.599 101 57 44 0 0
2.8679 9.1241 -3.0411 0.385 -0.790 -0.477 109 67 53 0 0
2.8911 9.1446 -3.0452 0.208 -0.641 -0.739 115 73 58 0 0
2.9069 9.1399 -3.0455 0.248 -0.885 -0.395 105 62 46 0 0
3.0202 9.2278 -3.0639 0.273 -0.706 -0.654 91 52 39 0 0
2.5365 6.8336 -2.7178 -0.272 -0.634 0.724 216 192 158 0 0
2.9083 6.6754 -2.7189 -0.155 -0.754 0.639 226 204 176 0 0
3.1741 6.5665 -2.7203 0.079 -0.863 0.498 225 205 175 0 0
3.2963 6.5513 -2.7255 -0.436 -0.617 0.655 227 208 178 0 0
3.6062 6.4088 -2.7251 -0.052 -0.736 0.675 225 205 177 0 0
3.6812 6.3828 -2.7261 -0.375 -0.551 0.745 229 209 180 0 0
3.8369 6.3128 -2.7260 -0.225 -0.661 0.716 228 209 179 0 0
3.8636 6.3071 -2.7269 -0.600 -0.622 0.504 227 207 180 0 0
3.9234 6.2800 -2.7268 -0.260 -0.530 0.807 229 209 182 0 0
4.5922 5.9521 -2.7231 -0.499 -0.603 0.623 225 205 180 0 0
4.5997 5.9402 -2.7220 -0.578 -0.572 0.582 225 205 179 0 0
4.6108 5.9336 -2.7217 -0.311 -0.625 0.716 227 207 180 0 0
4.6228 5.9283 -2.7217 -0.298 -0.591 0.750 229 209 182 0 0
4.6356 5.9242 -2.7220 -0.100 -0.785 0.611 229 209 182 0 0
4.6506 5.9006 -2.7197 -0.610 -0.496 0.618 228 207 178 0 0
4.7848 5.8463 -2.7205 -0.179 -0.684 0.707 227 206 178 0 0
5.0387 5.9534 -2.7498 0.425 -0.804 -0.416 210 201 187 0 0
6.7257 8.0068 -3.1222 -0.492 -0.367 0.789 215 215 215 0 0
7.0424 8.1379 -3.1583 0.078 -0.276 0.958 213 213 213 0 0
7.1005 7.6198 -3.0931 -0.845 -0.534 0.034 211 211 211 0 0
7.1500 7.6277 -3.0971 0.054 -0.580 -0.813 212 212 212 0 0
7.2174 7.6565 -3.1049 -0.303 -0.360 -0.883 212 212 212 0 0
7.4553 7.9120 -3.1529 -0.925 -0.379 0.018 213 213 213 0 0
7.5092 7.9491 -3.1611 0.173 -0.983 0.055 214 214 214 0 0
7.7284 8.0463 -3.1870 0.353 -0.472 0.807 215 215 213 0 0
7.7727 8.0710 -3.1929 0.466 -0.565 0.681 215 215 213 0 0
7.6605 7.6602 -3.1317 -0.957 -0.257 0.138 217 219 218 0 0
7.8232 7.7660 -3.1554 0.144 -0.818 -0.557 219 219 219 0 0
7.7266 7.5356 -3.1192 -0.348 -0.724 0.596 222 222 222 0 0
7.7320 7.4929 -3.1138 0.189 -0.928 0.319 223 223 223 0 0
8.0659 7.7805 -3.1718 0.117 -0.830 0.546 224 224 224 0 0
8.0070 7.6676 -3.1533 -0.633 0.041 0.773 225 225 225 0 0
0.7193 10.5824 -3.1240 -0.226 -0.304 0.925 230 228 225 0 0
0.9275 10.5325 -3.1298 -0.436 -0.899 0.040 227 223 220 0 0
1.0135 10.2499 -3.0971 -0.770 -0.579 -0.269 223 218 215 0 0
1.1210 10.4852 -3.1351 -0.605 -0.685 0.407 221 217 215 0 0
1.2715 10.3534 -3.1264 -0.893 -0.364 -0.265 215 213 208 0 0
2.6443 8.9915 -3.0264 0.264 -0.787 -0.557 124 73 57 0 0
2.8261 9.0979 -3.0516 0.175 -0.932 -0.318 117 71 58 0 0
2.8468 9.1103 -3.0545 0.116 -0.863 -0.493 107 63 50 0 0
2.8990 9.1708 -3.0657 0.208 -0.641 -0.739 93 50 37 0 0
2.9180 9.1768 -3.0677 0.202 -0.658 -0.725 112 68 55 0 0
3.0502 9.2683 -3.0879 0.200 -0.688 -0.698 96 58 45 0 0
2.4882 6.8938 -2.7360 -0.531 -0.749 -0.397 217 198 166 0 0
2.4977 6.8812 -2.7349 -0.432 -0.896 0.106 219 199 167 0 0
2.5327 6.8224 -2.7291 -0.272 -0.634 0.724 221 195 162 0 0
2.6989 6.7473 -2.7290 -0.398 -0.638 0.659 226 203 171 0 0
3.1072 6.5763 -2.7306 -0.381 -0.566 0.731 225 205 175 0 0
3.1183 6.5692 -2.7304 -0.381 -0.566 0.731 223 204 174 0 0
3.1572 6.5605 -2.7315 -0.017 -0.814 0.580 223 204 174 0 0
3.2189 6.5387 -2.7323 -0.225 -0.580 0.783 227 206 177 0 0
3.8690 6.2896 -2.7380 -0.661 -0.593 0.459 228 208 181 0 0
3.8868 6.2678 -2.7361 -0.695 -0.607 0.386 227 207 179 0 0
3.8965 6.2584 -2.7355 -0.717 -0.697 -0.017 227 207 180 0 0
3.9081 6.2525 -2.7354 -0.325 -0.763 0.559 228 208 181 0 0
3.9212 6.2491 -2.7357 -0.177 -0.763 0.622 226 206 179 0 0
3.9901 6.2122 -2.7349 0.005 -0.739 0.674 228 207 177 0 0
4.4395 5.9785 -2.7305 -0.353 -0.594 0.722 226 207 177 0 0
4.4520 5.9740 -2.7307 -0.348 -0.657 0.669 225 206 176 0 0
4.6396 5.8847 -2.7300 -0.666 -0.495 0.559 227 206 178 0 0
4.6618 5.8942 -2.7326 -0.564 -0.634 0.529 227 207 178 0 0
4.7366 5.8447 -2.7305 -0.192 -0.715 0.672 224 204 174 0 0
4.7621 5.8364 -2.7309 -0.198 -0.716 0.669 226 203 172 0 0
4.7773 5.8356 -2.7317 -0.240 -0.676 0.697 223 201 170 0 0
4.8290 5.8199 -2.7327 -0.106 -0.796 0.595 216 194 162 0 0
4.8439 5.8187 -2.7334 0.006 -0.898 0.440 209 186 154 0 0
6.7112 7.9877 -3.1361 -0.412 -0.358 0.838 215 215 215 0 0
6.7288 7.9828 -3.1365 0.073 -0.593 0.802 216 216 215 0 0
8.1354 8.9190 -3.3464 0.740 -0.626 0.247 212 212 212 0 0
7.1985 7.7373 -3.1318 0.349 -0.906 -0.238 212 212 212 0 0
7.4578 7.9149 -3.1712 -0.865 -0.497 -0.060 214 214 214 0 0
7.7300 8.0217 -3.2018 0.392 -0.518 0.760 217 217 215 0 0
7.6620 7.6869 -3.1529 0.288 -0.936 0.202 218 218 218 0 0
7.6543 7.6532 -3.1479 -0.801 -0.444 -0.403 218 219 218 0 0
7.8216 7.7895 -3.1762 0.123 -0.864 -0.489 219 219 219 0 0
7.8385 7.7830 -3.1764 0.144 -0.818 -0.557 220 220 220 0 0
7.8435 7.7632 -3.1740 -0.725 -0.534 -0.434 220 220 220 0 0
7.6293 7.4777 -3.1229 -0.505 -0.300 0.809 222 222 222 0 0
7.7000 7.4823 -3.1278 0.173 -0.978 0.115 223 223 223 0 0
7.9816 7.7392 -3.1791 0.534 -0.807 0.252 225 225 225 0 0
8.0348 7.7718 -3.1867 0.478 -0.825 0.304 225 225 225 0 0
8.0667 7.7813 -3.1899 0.298 -0.796 0.526 225 225 225 0 0
8.1079 7.8007 -3.1949 -0.090 -0.714 0.694 226 226 226 0 0
0.9457 10.5502 -3.1506 -0.615 -0.739 -0.274 226 222 219 0 0
0.9576 10.5035 -3.1450 -0.921 -0.383 -0.063 227 222 219 0 0
0.9712 10.4745 -3.1419 -0.921 -0.373 0.109 226 221 218 0 0
1.0426 10.2193 -3.1116 -0.896 -0.295 0.333 223 219 216 0 0
1.8416 8.5518 -2.9344 -0.502 -0.712 -0.491 150 99 85 0 0
2.4253 8.8482 -3.0099 0.196 -0.899 -0.391 117 72 56 0 0
2.5441 8.9274 -3.0279 0.177 -0.851 -0.495 113 73 57 0 0
2.6488 9.0077 -3.0451 0.233 -0.808 -0.542 119 70 53 0 0
2.7922 9.0980 -3.0660 0.443 -0.880 -0.170 110 70 57 0 0
2.8273 9.1019 -3.0687 0.123 -0.972 -0.200 113 70 57 0 0
2.8993 9.1717 -3.0825 0.450 -0.830 -0.331 112 70 56 0 0
2.9225 9.1916 -3.0866 0.132 -0.673 -0.727 107 65 51 0 0
3.0280 9.2530 -3.1013 0.409 -0.775 -0.482 105 66 55 0 0
3.0497 9.2668 -3.1045 0.462 -0.794 -0.396 104 65 54 0 0
2.5724 6.7787 -2.7386 -0.497 -0.563 0.661 225 204 171 0 0
2.5814 6.7653 -2.7374 -0.672 -0.552 0.493 227 204 171 0 0
2.5899 6.7504 -2.7359 -0.673 -0.506 0.540 227 204 171 0 0
2.6026 6.7477 -2.7363 -0.603 -0.583 0.545 226 203 171 0 0
3.0293 6.5926 -2.7412 0.045 -0.735 0.676 225 204 173 0 0
3.2133 6.5261 -2.7433 -0.225 -0.580 0.783 227 208 178 0 0
4.2544 6.0723 -2.7451 -0.298 -0.809 0.506 228 207 180 0 0
4.3741 6.0198 -2.7452 -0.566 -0.523 0.638 222 203 175 0 0
4.4029 5.9931 -2.7433 -0.461 -0.554 0.693 227 207 178 0 0
4.6349 5.8778 -2.7418 -0.666 -0.495 0.559 228 208 181 0 0
4.6567 5.8869 -2.7444 -0.800 -0.367 0.475 227 208 180 0 0
4.7115 5.8534 -2.7432 -0.310 -0.709 0.633 225 205 178 0 0
4.7435 5.8323 -2.7422 -0.476 -0.783 0.400 223 202 173 0 0
4.7552 5.8267 -2.7422 -0.462 -0.690 0.557 225 202 171 0 0
4.7687 5.8236 -2.7426 -0.198 -0.716 0.669 224 201 170 0 0
6.7186 7.9695 -3.1515 -0.425 -0.494 0.759 215 215 214 0 0
8.0855 8.8589 -3.3548 0.685 -0.675 0.273 213 213 213 0 0
7.1575 7.6881 -3.1400 0.220 -0.762 -0.610 213 213 213 0 0
7.3711 7.8648 -3.1769 -0.143 -0.884 -0.445 214 214 214 0 0
7.3121 7.7688 -3.1603 0.097 -0.941 -0.323 214 214 214 0 0
7.3487 7.7861 -3.1649 -0.143 -0.884 -0.446 214 214 214 0 0
7.4830 7.8659 -3.1838 0.357 -0.638 0.682 215 215 215 0 0
7.6497 7.9552 -3.2060 0.308 -0.427 0.850 216 216 215 0 0
7.1948 7.2584 -3.0841 0.602 -0.690 -0.402 217 217 217 0 0
7.6699 7.6958 -3.1721 0.245 -0.859 -0.450 218 218 218 0 0
7.9229 7.9277 -3.2189 0.047 -0.480 -0.876 219 220 219 0 0
7.9536 7.9363 -3.2219 0.047 -0.480 -0.876 219 219 219 0 0
0.9578 10.5049 -3.1624 -0.884 -0.400 0.242 227 223 220 0 0
1.0941 10.3920 -3.1554 0.085 -0.848 0.523 222 217 214 0 0
1.9831 8.5766 -2.9615 0.219 -0.933 -0.286 133 84 70 0 0
2.3319 8.7972 -3.0130 0.369 -0.863 -0.347 135 87 73 0 0
2.6525 9.0210 -3.0633 0.233 -0.808 -0.542 123 77 61 0 0
2.6716 9.0295 -3.0657 0.236 -0.798 -0.555 130 83 67 0 0
2.8317 9.1171 -3.0875 0.138 -0.909 -0.392 113 71 56 0 0
2.8569 9.1445 -3.0928 0.247 -0.902 -0.354 116 73 58 0 0
2.8776 9.1566 -3.0957 0.263 -0.883 -0.389 115 71 58 0 0
2.9012 9.1781 -3.1001 0.536 -0.827 -0.170 116 74 59 0 0
2.9243 9.1979 -3.1042 0.502 -0.699 -0.509 111 69 55 0 0
2.9481 9.2192 -3.1086 0.510 -0.694 -0.509 114 72 58 0 0
2.9726 9.2428 -3.1133 0.318 -0.812 -0.489 120 76 65 0 0
3.0317 9.2650 -3.1200 0.446 -0.844 -0.299 112 70 60 0 0
3.0576 9.2920 -3.1252 0.322 -0.813 -0.486 105 65 55 0 0
3.0778 9.3005 -3.1276 0.089 -0.877 -0.472 108 68 58 0 0
2.6823 7.6560 -2.8784 0.812 -0.556 -0.180 212 187 157 0 0
2.5768 6.7521 -2.7483 -0.783 -0.541 0.306 224 200 168 0 0
2.5877 6.7441 -2.7478 -0.620 -0.603 0.502 226 201 170 0 0
2.5979 6.7342 -2.7471 -0.620 -0.603 0.502 226 203 171 0 0
2.6090 6.7270 -2.7468 -0.517 -0.836 -0.183 225 204 172 0 0
2.6202 6.7200 -2.7465 -0.517 -0.836 -0.183 227 206 175 0 0
2.6841 6.7070 -2.7487 -0.198 -0.822 0.534 221 200 167 0 0
2.9852 6.5881 -2.7509 -0.558 -0.598 0.575 225 206 175 0 0
2.9979 6.5846 -2.7512 -0.356 -0.670 0.651 225 204 173 0 0
3.0100 6.5802 -2.7513 -0.365 -0.604 0.709 226 205 174 0 0
3.0636 6.5735 -2.7537 -0.061 -0.802 0.594 226 206 179 0 0
3.5886 6.3737 -2.7585 -0.333 -0.647 0.686 228 208 181 0 0
3.8689 6.2622 -2.7605 -0.478 -0.614 0.628 229 209 179 0 0
3.9799 6.1680 -2.7544 -0.436 -0.651 0.622 223 201 169 0 0
3.9986 6.1746 -2.7564 -0.469 -0.728 0.501 226 203 171 0 0
4.2342 6.0642 -2.7558 -0.752 -0.523 0.400 229 208 181 0 0
4.2518 6.0680 -2.7574 -0.530 -0.827 0.187 228 207 180 0 0
4.5098 5.9217 -2.7532 -0.586 -0.731 0.350 228 211 185 0 0
4.7028 5.8411 -2.7540 -0.180 -0.851 0.494 225 205 178 0 0
4.7163 5.8380 -2.7544 -0.180 -0.851 0.494 225 205 178 0 0
4.7304 5.8359 -2.7550 -0.197 -0.827 0.527 223 203 175 0 0
4.7404 5.8279 -2.7545 -0.638 -0.691 0.340 226 205 176 0 0
4.7489 5.8179 -2.7536 -0.324 -0.747 0.581 227 204 174 0 0
4.8114 5.7957 -2.7544 0.041 -0.946 0.322 207 183 150 0 0
7.2633 8.0285 -3.2103 0.727 -0.659 0.196 214 214 214 0 0
8.0210 8.8103 -3.3637 0.716 -0.669 0.197 214 214 212 0 0
7.2094 7.7504 -3.1689 0.468 -0.783 -0.409 215 215 215 0 0
7.3521 7.8422 -3.1902 -0.504 -0.772 0.386 215 215 215 0 0
7.4036 7.8771 -3.1981 -0.910 -0.269 -0.316 215 215 215 0 0
7.3838 7.8015 -3.1866 -0.691 -0.448 -0.568 215 215 215 0 0
7.4826 7.8916 -3.2050 -0.330 -0.610 0.720 216 216 216 0 0
7.4612 7.8403 -3.1966 0.338 -0.647 0.683 216 216 216 0 0
7.4290 7.7767 -3.1860 0.290 -0.533 0.795 217 217 217 0 0
7.5587 7.8499 -3.2039 0.370 -0.475 0.799 217 217 217 0 0
7.9996 7.9873 -3.2498 0.183 -0.610 -0.771 220 220 220 0 0
7.6961 7.6003 -3.1782 -0.709 -0.247 0.660 222 222 222 0 0
7.5215 7.3592 -3.1345 -0.530 -0.290 0.797 223 223 223 0 0
8.0944 7.7862 -3.2281 0.219 -0.570 0.792 226 226 226 0 0
7.9348 7.5417 -3.1848 -0.671 -0.148 0.727 227 227 227 0 0
1.0116 10.3878 -3.1668 -0.552 -0.826 0.112 225 221 218 0 0
1.1924 10.2473 -3.1586 -0.893 -0.300 0.335 221 216 214 0 0
1.8240 8.6122 -2.9717 -0.380 -0.867 -0.321 156 108 94 0 0
1.8376 8.6047 -2.9715 -0.512 -0.747 -0.423 154 106 92 0 0
2.6923 9.0435 -3.0851 0.511 -0.820 -0.257 117 70 55 0 0
2.9272 9.2074 -3.1224 0.439 -0.802 -0.405 121 79 66 0 0
3.0818 9.3134 -3.1466 0.324 -0.918 -0.230 107 65 55 0 0
2.5752 6.7476 -2.7605 -0.783 -0.541 0.306 217 192 160 0 0
2.5850 6.7365 -2.7596 -0.639 -0.554 0.534 219 195 163 0 0
2.5954 6.7271 -2.7589 -0.660 -0.554 0.507 226 203 172 0 0
2.6203 6.7203 -2.7595 -0.615 -0.707 0.350 227 207 177 0 0
2.6393 6.6969 -2.7574 -0.459 -0.753 0.472 222 200 170 0 0
2.7519 6.6668 -2.7603 -0.364 -0.590 0.721 224 202 171 0 0
2.8144 6.6494 -2.7617 -0.295 -0.615 0.731 227 206 177 0 0
2.9086 6.6060 -2.7616 -0.077 -0.649 0.756 224 204 174 0 0
2.9344 6.6006 -2.7624 -0.444 -0.672 0.593 225 202 174 0 0
2.9455 6.5936 -2.7621 -0.294 -0.707 0.643 223 202 173 0 0
2.9575 6.5888 -2.7622 -0.365 -0.692 0.623 225 206 175 0 0
2.9690 6.5828 -2.7621 -0.365 -0.692 0.623 225 206 174 0 0
3.1372 6.5144 -2.7631 -0.023 -0.677 0.736 228 208 180 0 0
3.4004 6.4038 -2.7641 -0.486 -0.850 0.205 226 206 176 0 0
3.4117 6.3974 -2.7639 -0.486 -0.850 0.205 226 206 178 0 0
3.4674 6.3932 -2.7668 -0.314 -0.566 0.762 227 205 175 0 0
3.4771 6.3833 -2.7660 -0.116 -0.648 0.753 227 204 175 0 0
3.4907 6.3817 -2.7666 -0.703 -0.606 0.372 226 204 174 0 0
3.5973 6.3620 -2.7705 -0.069 -0.715 0.695 230 209 182 0 0
3.9753 6.1600 -2.7660 -0.319 -0.757 0.571 225 202 170 0 0
4.0012 6.1530 -2.7666 -0.493 -0.646 0.583 225 202 171 0 0
4.0209 6.1355 -2.7654 -0.456 -0.585 0.671 228 208 181 0 0
4.0610 6.1272 -2.7668 -0.257 -0.730 0.633 227 207 180 0 0
4.7026 5.8187 -2.7639 -0.124 -0.835 0.536 225 204 176 0 0
4.7319 5.8160 -2.7653 -0.423 -0.773 0.473 228 206 176 0 0
6.6792 7.8900 -3.1727 -0.205 -0.498 0.842 217 217 215 0 0
6.7149 7.9091 -3.1775 -0.022 -0.481 0.876 216 216 214 0 0
6.7143 7.8808 -3.1736 -0.425 -0.271 0.864 216 216 214 0 0
6.7750 7.9322 -3.1845 0.343 -0.555 0.758 216 216 215 0 0
6.8096 7.9494 -3.1890 0.403 -0.555 0.728 216 216 215 0 0
7.4035 8.1454 -3.2529 0.725 -0.686 -0.065 215 215 215 0 0
7.2812 7.8102 -3.1989 0.587 -0.779 -0.219 215 215 215 0 0
7.3526 7.8691 -3.2115 0.583 -0.766 -0.270 216 216 216 0 0
7.4256 7.9295 -3.2244 0.653 -0.748 -0.122 216 216 216 0 0
7.4529 7.8306 -3.2124 0.313 -0.717 0.623 216 217 217 0 0
7.3623 7.6734 -3.1851 -0.773 -0.314 0.551 217 218 217 0 0
7.6710 7.6719 -3.2040 -0.634 -0.321 -0.703 220 220 220 0 0
7.6058 7.5496 -3.1830 -0.072 -0.996 -0.049 221 221 221 0 0
7.6238 7.5450 -3.1835 -0.207 -0.973 0.100 221 221 221 0 0
7.6767 7.5789 -3.1915 -0.560 -0.820 -0.119 222 222 222 0 0
0.9720 10.3193 -3.1719 -0.450 -0.735 -0.507 226 222 219 0 0
0.9935 10.3707 -3.1805 -0.465 -0.472 -0.749 226 222 219 0 0
1.0118 10.3900 -3.1843 -0.488 -0.635 -0.599 226 222 219 0 0
1.0205 10.3166 -3.1746 -0.684 -0.474 -0.555 224 220 217 0 0
1.8855 8.5460 -2.9814 -0.442 -0.779 -0.445 142 93 82 0 0
1.9023 8.5540 -2.9836 -0.304 -0.903 -0.305 150 100 88 0 0
2.0758 8.6472 -3.0075 0.163 -0.890 -0.426 134 87 72 0 0
2.1644 8.6941 -3.0196 -0.042 -0.939 -0.342 126 78 64 0 0
2.5333 8.9481 -3.0781 0.189 -0.860 -0.473 127 84 70 0 0
2.6937 9.0485 -3.1022 0.544 -0.837 -0.061 129 83 68 0 0
2.8252 9.1529 -3.1250 0.394 -0.797 -0.457 109 67 53 0 0
2.8376 9.1369 -3.1236 -0.085 -0.676 -0.732 119 77 63 0 0
2.6371 6.6908 -2.7694 -0.459 -0.753 0.472 224 203 173 0 0
2.7689 6.6389 -2.7704 -0.437 -0.652 0.620 223 200 168 0 0
2.7954 6.6359 -2.7716 -0.162 -0.620 0.767 228 205 174 0 0
2.8654 6.6023 -2.7713 -0.132 -0.781 0.610 225 206 177 0 0
2.8793 6.6024 -2.7722 -0.077 -0.775 0.627 225 205 178 0 0
2.8932 6.6022 -2.7730 -0.232 -0.873 0.428 226 208 179 0 0
2.9031 6.5923 -2.7723 -0.187 -0.935 0.300 228 209 179 0 0
2.9266 6.5813 -2.7722 -0.430 -0.639 0.637 226 203 175 0 0
2.9552 6.5831 -2.7742 -0.207 -0.652 0.729 225 206 175 0 0
2.9651 6.5731 -2.7735 -0.318 -0.655 0.685 225 205 174 0 0
3.3244 6.4559 -2.7796 -0.649 -0.621 0.438 225 204 176 0 0
3.3306 6.4382 -2.7775 -0.672 -0.509 0.539 224 203 176 0 0
3.3397 6.4272 -2.7765 -0.672 -0.509 0.539 226 206 178 0 0
3.3855 6.4026 -2.7760 -0.006 -0.950 0.312 223 202 172 0 0
3.3967 6.3959 -2.7757 -0.478 -0.855 0.198 226 205 176 0 0
3.4108 6.3954 -2.7765 -0.530 -0.794 0.298 228 208 179 0 0
3.4190 6.3826 -2.7753 -0.485 -0.701 0.522 228 208 178 0 0
3.4307 6.3770 -2.7752 -0.407 -0.717 0.567 227 206 175 0 0
3.4564 6.3705 -2.7759 -0.142 -0.658 0.739 227 206 177 0 0
3.4687 6.3662 -2.7761 0.015 -0.774 0.633 226 206 177 0 0
3.4835 6.3669 -2.7771 0.031 -0.684 0.729 230 209 180 0 0
3.5100 6.3621 -2.7781 -0.241 -0.707 0.665 226 207 177 0 0
3.9706 6.1518 -2.7776 -0.173 -0.959 0.223 228 205 173 0 0
4.0414 6.1193 -2.7775 -0.374 -0.667 0.644 225 205 178 0 0
4.0644 6.1076 -2.7773 -0.208 -0.752 0.625 226 206 179 0 0
4.0765 6.1027 -2.7773 -0.341 -0.656 0.673 227 207 180 0 0
4.0882 6.0972 -2.7773 -0.282 -0.702 0.654 226 206 179 0 0
4.6348 5.8328 -2.7746 -0.335 -0.896 0.292 224 204 177 0 0
4.6388 5.8162 -2.7725 -0.173 -0.827 0.535 223 203 176 0 0
4.6788 5.8069 -2.7737 -0.338 -0.720 0.606 227 207 180 0 0
6.7934 7.9285 -3.2024 0.524 -0.640 0.562 217 217 216 0 0
7.3952 8.1353 -3.2690 0.685 -0.726 0.060 216 216 216 0 0
7.5176 8.2569 -3.2936 0.687 -0.720 0.095 216 216 216 0 0
7.2992 7.8316 -3.2205 0.583 -0.766 -0.270 217 217 217 0 0
7.5084 7.5394 -3.1928 0.006 -0.745 0.667 220 220 220 0 0
7.6888 7.6919 -3.2254 -0.555 -0.350 -0.755 221 221 221 0 0
7.6972 7.6761 -3.2237 -0.379 -0.528 -0.760 221 221 221 0 0
7.6279 7.5495 -3.2017 -0.634 -0.767 0.094 223 223 223 0 0
7.6664 7.5675 -3.2066 -0.676 -0.620 0.399 223 223 223 0 0
7.6779 7.5556 -3.2057 -0.676 -0.620 0.399 223 223 223 0 0
7.7032 7.5590 -3.2077 -0.502 -0.793 -0.344 224 224 224 0 0
0.9729 10.3282 -3.1903 -0.468 -0.586 -0.661 227 223 220 0 0
1.0362 10.3116 -3.1919 -0.730 -0.416 -0.542 225 221 218 0 0
1.2234 10.2331 -3.1927 -0.554 -0.827 -0.097 221 217 213 0 0
1.8876 8.5559 -2.9980 -0.352 -0.784 -0.512 146 97 85 0 0
2.1660 8.7006 -3.0361 0.162 -0.929 -0.333 127 79 65 0 0
2.2051 8.7329 -3.0431 0.055 -0.767 -0.639 121 73 59 0 0
2.8474 9.1702 -3.1454 0.107 -0.753 -0.649 114 72 60 0 0
2.9099 9.2071 -3.1546 0.437 -0.841 -0.319 106 66 55 0 0
2.9347 9.2324 -3.1597 0.419 -0.906 0.055 102 60 48 0 0
2.9754 9.2522 -3.1651 0.519 -0.802 -0.295 110 66 53 0 0
3.0898 9.3388 -3.1845 -0.074 -0.712 -0.699 106 67 57 0 0
2.7651 6.6290 -2.7816 -0.426 -0.624 0.655 224 201 169 0 0
2.7765 6.6227 -2.7815 -0.444 -0.592 0.673 228 205 173 0 0
3.3717 6.4038 -2.7882 -0.433 -0.788 0.437 227 206 176 0 0
3.3836 6.3986 -2.7882 -0.006 -0.950 0.312 227 206 175 0 0
3.3956 6.3937 -2.7883 -0.603 -0.746 0.282 226 205 175 0 0
3.4068 6.3869 -2.7881 -0.467 -0.758 0.455 224 203 173 0 0
3.4166 6.3776 -2.7874 -0.575 -0.729 0.371 225 204 173 0 0
3.4269 6.3692 -2.7868 -0.524 -0.705 0.477 225 204 174 0 0
3.4632 6.3550 -2.7871 0.081 -0.930 0.358 228 209 180 0 0
3.5310 6.3458 -2.7901 -0.089 -0.730 0.677 223 203 173 0 0
3.7733 6.2224 -2.7880 -0.102 -0.754 0.649 229 208 179 0 0
4.0489 6.1067 -2.7891 -0.151 -0.731 0.666 225 204 177 0 0
4.0611 6.1020 -2.7892 -0.282 -0.599 0.749 228 208 181 0 0
4.0729 6.0965 -2.7892 -0.282 -0.599 0.749 228 208 181 0 0
4.0831 6.0886 -2.7887 -0.282 -0.702 0.654 227 206 179 0 0
4.4289 5.9154 -2.7862 -0.363 -0.501 0.785 226 206 179 0 0
4.5841 5.8490 -2.7866 -0.110 -0.711 0.694 224 204 178 0 0
5.0823 6.0793 -2.8506 0.695 -0.667 -0.267 205 189 167 0 0
6.8081 7.5987 -3.1741 0.219 -0.879 0.423 216 216 214 0 0
7.5054 8.1596 -3.2974 0.606 -0.713 0.351 217 217 217 0 0
7.2094 7.7244 -3.2172 0.607 -0.719 -0.338 217 218 217 0 0
7.5822 7.6473 -3.2299 0.217 -0.718 0.661 219 219 219 0 0
7.7023 7.7070 -3.2459 -0.500 -0.281 -0.819 221 221 221 0 0
7.6111 7.5309 -3.2153 -0.506 -0.855 -0.114 223 223 223 0 0
7.6220 7.5185 -3.2143 -0.697 -0.685 0.212 223 223 223 0 0
7.6731 7.5503 -3.2220 -0.676 -0.620 0.399 224 224 224 0 0
7.6357 7.4847 -3.2104 -0.632 -0.619 0.466 224 224 224 0 0
1.0045 10.3197 -3.2081 -0.879 -0.361 0.313 227 223 220 0 0
1.0177 10.2905 -3.2048 -0.879 -0.361 0.313 226 222 219 0 0
1.1987 10.2999 -3.2177 -0.661 -0.460 -0.593 221 217 214 0 0
1.2124 10.2771 -3.2153 -0.661 -0.460 -0.593 220 217 213 0 0
1.2567 10.2365 -3.2123 0.086 -0.966 -0.243 221 216 212 0 0
1.2760 10.2579 -3.2166 0.076 -0.994 -0.074 221 216 212 0 0
1.8648 8.5907 -3.0166 -0.485 -0.778 -0.399 141 94 82 0 0
2.1893 8.7327 -3.0576 0.372 -0.875 -0.308 125 77 63 0 0
2.2082 8.7458 -3.0607 0.149 -0.919 -0.366 129 81 67 0 0
2.6159 9.0089 -3.1242 0.293 -0.883 -0.366 114 72 58 0 0
2.8497 9.1780 -3.1632 0.092 -0.932 -0.351 109 68 56 0 0
2.9155 9.2258 -3.1742 0.277 -0.953 0.125 97 57 46 0 0
2.9344 9.2312 -3.1762 0.419 -0.906 0.055 109 68 56 0 0
2.9580 9.2522 -3.1807 0.486 -0.840 -0.240 114 71 59 0 0
3.0935 9.3507 -3.2034 0.284 -0.673 -0.683 101 63 54 0 0
3.1210 9.3818 -3.2096 0.314 -0.706 -0.635 106 69 60 0 0
3.1467 9.3508 -3.2068 -0.550 -0.436 -0.712 87 64 58 0 0
2.6552 6.6654 -2.7927 -0.226 -0.646 0.729 222 202 173 0 0
2.7145 6.6404 -2.7929 -0.555 -0.602 0.574 222 200 169 0 0
2.7235 6.6280 -2.7917 -0.530 -0.576 0.622 223 200 169 0 0
2.8457 6.5875 -2.7938 -0.025 -0.732 0.680 227 206 180 0 0
2.8591 6.5864 -2.7945 -0.025 -0.732 0.680 230 209 183 0 0
3.0209 6.5056 -2.7933 -0.579 -0.653 0.488 227 206 177 0 0
3.2253 6.4259 -2.7950 -0.438 -0.496 0.750 228 209 179 0 0
3.3667 6.3932 -2.7994 -0.645 -0.671 0.367 227 206 177 0 0
3.3800 6.3909 -2.7999 -0.229 -0.936 0.266 227 206 176 0 0
3.3935 6.3892 -2.8005 -0.575 -0.729 0.371 224 203 172 0 0
3.4145 6.3731 -2.7995 -0.575 -0.729 0.371 219 198 168 0 0
3.4235 6.3619 -2.7985 -0.558 -0.738 0.379 221 200 170 0 0
3.5420 6.3389 -2.8028 0.013 -0.863 0.505 222 200 173 0 0
3.6329 6.2608 -2.7975 -0.546 -0.457 0.702 219 200 170 0 0
3.9968 6.1197 -2.8006 -0.431 -0.699 0.571 225 204 174 0 0
4.0071 6.1117 -2.8002 -0.018 -0.841 0.540 227 206 177 0 0
4.0781 6.0801 -2.8002 -0.287 -0.600 0.747 229 208 181 0 0
6.6301 7.7439 -3.2003 -0.289 -0.318 0.903 217 217 216 0 0
6.7972 7.5852 -3.1884 -0.108 -0.653 0.750 216 216 214 0 0
7.5899 8.2339 -3.3314 0.673 -0.731 0.117 217 217 217 0 0
7.2481 7.7707 -3.2436 0.624 -0.708 -0.331 218 218 218 0 0
6.8947 7.0579 -3.1194 -0.393 -0.182 0.901 218 219 218 0 0
8.1007 8.3398 -3.3792 -0.921 0.139 -0.365 220 220 220 0 0
7.6162 7.5121 -3.2302 -0.555 -0.806 -0.206 224 224 224 0 0
7.6214 7.4934 -3.2279 -0.470 -0.792 0.389 224 224 224 0 0
7.6353 7.4844 -3.2275 -0.735 -0.677 0.035 225 225 225 0 0
7.6817 7.5109 -3.2343 -0.116 -0.790 0.602 225 225 225 0 0
1.0021 10.2958 -3.2215 -0.654 -0.430 0.622 228 224 221 0 0
1.2055 10.2205 -3.2238 -0.579 -0.635 0.511 222 217 214 0 0
1.2262 10.2554 -3.2302 -0.588 -0.665 -0.461 221 217 214 0 0
1.2390 10.2264 -3.2268 -0.639 -0.715 -0.284 222 217 214 0 0
1.2573 10.2410 -3.2301 -0.727 -0.679 0.101 222 217 214 0 0
1.3290 10.5405 -3.2778 -0.427 -0.377 -0.822 220 215 212 0 0
1.3562 10.4891 -3.2722 -0.689 -0.225 -0.689 220 216 213 0 0
2.5995 9.0098 -3.1395 0.286 -0.956 0.067 118 75 60 0 0
2.6162 9.0099 -3.1405 0.404 -0.910 -0.088 123 80 66 0 0
2.7645 9.1194 -3.1659 0.428 -0.821 -0.377 112 71 57 0 0
2.8074 9.1502 -3.1731 0.293 -0.945 -0.143 102 63 48 0 0
2.8468 9.1683 -3.1782 0.426 -0.896 0.125 111 72 59 0 0
2.8966 9.2203 -3.1889 -0.021 -0.829 -0.559 110 70 59 0 0
2.9313 9.2210 -3.1913 -0.021 -0.829 -0.559 106 67 53 0 0
2.9526 9.2343 -3.1945 0.215 -0.776 -0.592 111 71 59 0 0
3.1012 9.3753 -3.2244 0.284 -0.673 -0.683 108 71 63 0 0
3.1319 9.4166 -3.2324 0.153 -0.956 -0.250 107 76 71 0 0
3.1498 9.4169 -3.2336 -0.134 -0.935 0.328 119 103 95 0 0
3.1436 9.3411 -3.2222 -0.231 -0.582 -0.779 150 139 133 0 0
3.1672 9.3043 -3.2185 -0.436 -0.234 -0.869 186 178 166 0 0
3.1959 9.3381 -3.2252 -0.471 -0.168 -0.866 194 177 159 0 0
3.2127 9.3352 -3.2259 -0.522 -0.105 -0.846 208 184 155 0 0
2.6732 6.6399 -2.8031 0.014 -0.729 0.684 224 203 173 0 0
2.7208 6.6207 -2.8034 -0.611 -0.426 0.667 227 203 174 0 0
2.7301 6.6090 -2.8023 -0.533 -0.413 0.739 223 201 170 0 0
3.1544 6.4253 -2.8032 -0.633 -0.733 0.248 227 203 173 0 0
3.2588 6.4063 -2.8072 -0.105 -0.712 0.694 227 205 176 0 0
3.2759 6.4126 -2.8092 -0.467 -0.603 0.647 227 204 176 0 0
3.9978 6.0957 -2.8102 -0.127 -0.813 0.568 227 208 178 0 0
4.0102 6.0914 -2.8104 -0.158 -0.721 0.675 226 206 176 0 0
4.1600 6.0170 -2.8093 -0.378 -0.482 0.791 227 208 178 0 0
4.3850 5.8948 -2.8063 -0.033 -0.765 0.643 222 202 175 0 0
4.5968 5.8003 -2.8063 -0.292 -0.905 0.311 225 204 173 0 0
4.6335 5.7865 -2.8067 -0.017 -0.761 0.649 225 206 174 0 0
4.6651 5.7875 -2.8089 -0.281 -0.583 0.762 221 202 172 0 0
6.5552 7.6198 -3.1946 -0.928 -0.344 0.140 218 218 217 0 0
6.3185 7.2621 -3.1278 -0.163 -0.564 -0.809 218 218 216 0 0
7.2495 8.0387 -3.2997 0.097 -0.859 0.503 218 218 218 0 0
7.2701 8.0368 -3.3007 -0.303 -0.645 0.702 218 218 218 0 0
7.5936 8.2383 -3.3506 0.611 -0.710 0.351 218 218 216 0 0
7.1650 7.6972 -3.2450 0.621 -0.719 -0.313 218 219 217 0 0
7.4099 7.9374 -3.2954 0.624 -0.708 -0.331 219 219 219 0 0
0.7845 10.3882 -3.2378 -0.440 -0.583 0.683 230 229 225 0 0
0.8008 10.3906 -3.2392 0.205 -0.651 0.730 230 229 225 0 0
0.9007 10.2503 -3.2253 0.148 -0.980 0.132 230 226 223 0 0
0.9047 10.1244 -3.2073 -0.212 -0.786 -0.580 230 226 223 0 0
0.9863 10.2999 -3.2381 -0.578 -0.217 0.787 228 224 221 0 0
1.2230 10.2298 -3.2433 -0.480 -0.866 -0.141 222 217 214 0 0
1.9953 8.6315 -3.0613 -0.101 -0.840 -0.533 118 70 54 0 0
2.0535 8.6848 -3.0728 0.070 -0.892 -0.446 137 89 75 0 0
2.6008 9.0142 -3.1564 0.126 -0.908 -0.400 123 80 64 0 0
2.7885 9.1439 -3.1875 0.375 -0.861 -0.345 115 76 62 0 0
2.8091 9.1562 -3.1906 0.350 -0.864 -0.362 114 75 61 0 0
2.8270 9.1591 -3.1922 0.074 -0.804 -0.590 106 68 53 0 0
2.8536 9.1914 -3.1986 0.326 -0.922 -0.210 108 70 56 0 0
2.9351 9.2336 -3.2100 -0.021 -0.829 -0.559 110 71 55 0 0
3.1571 9.3835 -3.2463 -0.281 -0.787 -0.550 181 176 171 0 0
3.1714 9.3728 -3.2457 -0.614 -0.717 -0.331 186 178 173 0 0
3.1873 9.3668 -3.2458 -0.408 -0.477 -0.778 190 181 170 0 0
3.2139 9.3939 -3.2515 -0.357 -0.216 -0.909 197 179 162 0 0
3.2166 9.3470 -3.2449 -0.512 -0.142 -0.847 207 184 156 0 0
