ply
format ascii 1.0
element vertex 822
property float x
property float y
property float z
property float nx
property float ny
property float nz
property uchar diffuse_red
property uchar diffuse_green
property uchar diffuse_blue
property uchar class
property uchar detection
end_header
3.9638 7.5956 -1.8138 -0.590 -0.469 0.658 232 212 185 0 0
4.0718 7.4487 -1.8788 -0.432 -0.578 0.693 231 214 188 0 0
4.1166 7.4057 -1.9014 -0.230 -0.906 0.355 230 210 183 0 0
4.1295 7.3962 -1.9073 -0.271 -0.924 0.270 229 210 183 0 0
4.2092 7.3583 -1.9381 -0.333 -0.903 0.270 230 213 183 0 0
4.2237 7.3497 -1.9442 -0.324 -0.942 0.083 231 212 182 0 0
4.2441 7.3450 -1.9508 -0.471 -0.866 -0.170 233 214 186 0 0
4.2548 7.3338 -1.9565 -0.587 -0.797 -0.140 233 215 187 0 0
4.2644 7.3218 -1.9620 -0.903 -0.415 0.110 233 216 188 0 0
4.2594 7.3001 -1.9659 -0.461 -0.795 0.394 233 216 188 0 0
4.2728 7.2907 -1.9719 -0.373 -0.744 0.554 229 212 184 0 0
4.3759 7.1213 -2.0410 -0.643 -0.285 0.711 233 213 186 0 0
4.7415 6.5123 -2.2885 -0.161 -0.769 0.618 228 209 181 0 0
4.9158 6.3165 -2.3834 -0.795 -0.169 0.582 228 211 185 0 0
4.9848 6.1841 -2.4344 -0.427 -0.685 0.590 229 212 186 0 0
4.9953 6.1727 -2.4400 -0.427 -0.685 0.590 227 210 184 0 0
5.2512 6.0469 -2.5401 0.327 -0.819 0.472 237 238 232 0 0
5.2745 6.0246 -2.5518 0.186 -0.786 0.589 237 237 235 0 0
5.2592 6.0011 -2.5534 0.102 -0.767 0.634 238 238 236 0 0
2.3479 11.2307 -0.5094 -0.429 -0.153 0.890 196 146 123 0 0
2.3643 11.0631 -0.5545 -0.412 -0.714 0.566 193 146 126 0 0
2.5574 10.7686 -0.6785 -0.460 -0.462 0.759 164 112 91 0 0
2.5669 10.7551 -0.6844 -0.475 -0.491 0.730 183 131 111 0 0
2.7024 10.5687 -0.7665 -0.476 -0.317 0.820 186 138 118 0 0
2.7548 10.5327 -0.7895 -0.141 -0.695 0.705 176 128 108 0 0
2.9349 10.3247 -0.8890 -0.420 -0.509 0.751 189 138 117 0 0
2.9544 10.3231 -0.8947 -0.483 -0.671 0.563 183 132 111 0 0
2.9579 10.3023 -0.9007 -0.157 -0.786 0.598 189 139 118 0 0
3.0342 10.1448 -0.9597 -0.580 -0.610 0.540 178 129 108 0 0
3.1559 10.0400 -1.0183 -0.464 -0.652 0.600 180 124 106 0 0
3.1709 10.0084 -1.0301 -0.561 -0.450 0.694 178 126 108 0 0
3.2204 9.9189 -1.0652 -0.170 -0.725 0.667 187 136 118 0 0
3.2343 9.9102 -1.0711 -0.170 -0.725 0.667 184 134 116 0 0
3.4458 9.6859 -1.1832 -0.514 -0.478 0.713 169 120 104 0 0
3.4468 9.6636 -1.1889 -0.283 -0.690 0.666 180 130 115 0 0
3.4596 9.6534 -1.1948 -0.250 -0.709 0.660 186 136 119 0 0
3.5679 9.5084 -1.2595 -0.230 -0.769 0.597 165 113 90 0 0
3.5748 9.4922 -1.2653 -0.312 -0.760 0.570 165 109 86 0 0
3.6339 9.4360 -1.2950 -0.362 -0.818 0.447 189 140 119 0 0
3.8511 9.1908 -1.4137 -0.471 -0.692 0.547 167 116 94 0 0
4.9931 9.6558 -1.6126 0.417 -0.846 -0.333 134 90 73 0 0
5.0699 9.6979 -1.6233 0.420 -0.781 -0.463 149 106 88 0 0
5.4935 9.9622 -1.6749 0.418 -0.733 -0.537 137 90 71 0 0
5.9781 10.2963 -1.7261 0.370 -0.902 -0.221 148 101 84 0 0
6.1099 10.3548 -1.7479 -0.425 0.187 0.886 163 139 124 0 0
3.5067 8.0529 -1.5955 -0.594 -0.730 0.337 227 207 179 0 0
3.5454 8.0262 -1.6125 -0.460 -0.884 0.088 229 211 184 0 0
3.5601 8.0187 -1.6183 -0.304 -0.951 0.061 234 217 189 0 0
3.7583 7.8089 -1.7232 -0.408 -0.474 0.781 228 211 184 0 0
3.8091 7.7144 -1.7600 -0.522 -0.573 0.632 232 215 188 0 0
3.8025 7.6905 -1.7640 -0.466 -0.627 0.624 233 216 190 0 0
3.9258 7.6688 -1.8029 -0.347 -0.515 0.783 227 209 179 0 0
4.0543 7.4430 -1.8926 -0.432 -0.615 0.659 231 214 188 0 0
4.0579 7.4270 -1.8975 -0.295 -0.794 0.531 233 216 190 0 0
4.0792 7.4234 -1.9042 -0.464 -0.388 0.796 235 217 190 0 0
4.1044 7.4038 -1.9158 -0.237 -0.896 0.375 231 211 182 0 0
4.4668 6.9161 -2.1328 -0.367 -0.678 0.636 229 209 182 0 0
4.5501 6.8075 -2.1819 -0.230 -0.888 0.398 230 210 183 0 0
4.6834 6.6579 -2.2545 -0.325 -0.526 0.786 232 213 183 0 0
4.7554 6.4916 -2.3144 -0.177 -0.800 0.573 226 206 178 0 0
2.3383 11.4503 -0.4724 -0.704 -0.055 0.708 246 243 241 0 0
2.3270 11.2388 -0.5204 -0.596 -0.193 0.779 202 153 130 0 0
2.3476 11.0499 -0.5716 -0.333 -0.625 0.706 192 144 124 0 0
2.3581 11.0377 -0.5774 -0.333 -0.625 0.706 193 146 128 0 0
2.3680 11.0247 -0.5833 -0.390 -0.556 0.735 187 141 123 0 0
2.5525 10.7461 -0.7011 -0.410 -0.571 0.711 182 130 110 0 0
2.5617 10.7322 -0.7070 -0.410 -0.571 0.711 209 157 136 0 0
2.7673 10.4311 -0.8360 -0.380 -0.584 0.717 223 171 149 0 0
2.7896 10.4335 -0.8415 -0.395 -0.703 0.592 208 155 134 0 0
2.8021 10.4238 -0.8473 -0.293 -0.784 0.548 202 147 126 0 0
2.8329 10.4112 -0.8588 -0.381 -0.624 0.682 196 140 120 0 0
2.8406 10.3955 -0.8647 -0.302 -0.532 0.791 195 142 121 0 0
2.9826 10.1923 -0.9526 -0.363 -0.766 0.530 196 146 124 0 0
2.9950 10.1821 -0.9585 -0.372 -0.787 0.493 181 133 110 0 0
3.0063 10.1462 -0.9702 -0.514 -0.528 0.676 199 148 125 0 0
3.2006 9.9061 -1.0814 -0.213 -0.764 0.609 186 134 117 0 0
3.3747 9.6440 -1.1924 -0.400 -0.836 0.376 165 116 99 0 0
3.3872 9.6336 -1.1983 -0.458 -0.775 0.436 176 127 112 0 0
3.5086 9.5264 -1.2575 -0.201 -0.625 0.755 192 139 119 0 0
3.5526 9.4785 -1.2811 -0.255 -0.669 0.698 195 139 116 0 0
3.5719 9.4748 -1.2873 -0.379 -0.749 0.544 197 142 119 0 0
3.6218 9.4325 -1.3112 -0.362 -0.818 0.447 203 154 132 0 0
3.6171 9.3823 -1.3220 -0.573 -0.284 0.768 199 145 122 0 0
4.7464 9.4981 -1.6037 0.425 -0.900 -0.099 147 104 87 0 0
4.9889 9.6608 -1.6308 0.409 -0.851 -0.328 146 104 85 0 0
5.9093 10.2736 -1.7353 0.356 -0.896 -0.266 143 96 78 0 0
5.9761 10.3041 -1.7463 0.324 -0.940 -0.111 154 107 91 0 0
6.0651 10.3529 -1.7589 -0.470 0.089 0.878 149 112 99 0 0
6.0553 10.3185 -1.7645 -0.449 0.135 0.883 185 164 149 0 0
5.9359 10.1407 -1.7747 -0.510 0.334 0.793 233 212 186 0 0
6.0619 10.2197 -1.7902 0.125 -0.546 0.828 236 216 189 0 0
3.7389 7.8009 -1.7370 -0.637 -0.396 0.661 229 212 184 0 0
3.7635 7.7815 -1.7484 -0.491 -0.394 0.777 233 215 187 0 0
3.7621 7.7425 -1.7574 -0.586 -0.403 0.703 233 213 186 0 0
3.7752 7.7145 -1.7678 -0.567 -0.472 0.675 233 216 189 0 0
3.7953 7.7107 -1.7742 -0.593 -0.517 0.618 235 218 191 0 0
3.7886 7.6868 -1.7781 -0.466 -0.627 0.624 233 216 189 0 0
3.7949 7.6727 -1.7833 -0.698 -0.471 0.540 236 219 192 0 0
3.8535 7.6222 -1.8115 -0.158 -0.865 0.477 231 214 184 0 0
4.0617 7.4177 -1.9179 -0.218 -0.672 0.708 233 214 186 0 0
4.5355 6.8050 -2.1957 -0.278 -0.856 0.435 232 211 183 0 0
4.5408 6.7906 -2.2006 -0.485 -0.493 0.723 229 208 180 0 0
5.0712 6.0391 -2.5273 -0.108 -0.715 0.690 229 209 181 0 0
2.1845 11.3179 -0.4808 -0.232 -0.972 -0.026 245 244 242 0 0
2.3262 11.4716 -0.4829 -0.704 -0.055 0.708 246 243 242 0 0
2.4267 10.8496 -0.6600 -0.633 -0.646 0.427 187 135 113 0 0
2.7238 10.4877 -0.8288 -0.401 -0.427 0.811 191 144 125 0 0
2.7312 10.4716 -0.8347 -0.406 -0.475 0.781 185 138 120 0 0
2.7462 10.4397 -0.8465 -0.455 -0.442 0.773 192 143 123 0 0
2.7563 10.4271 -0.8524 -0.536 -0.593 0.600 200 149 128 0 0
2.7759 10.4261 -0.8580 -0.293 -0.784 0.548 208 155 133 0 0
2.7890 10.4172 -0.8638 -0.293 -0.784 0.548 209 156 134 0 0
2.8022 10.4082 -0.8695 -0.293 -0.784 0.548 202 149 128 0 0
3.1277 10.0264 -1.0509 -0.224 -0.758 0.612 164 113 92 0 0
3.3520 9.6755 -1.1970 -0.551 -0.454 0.700 197 146 127 0 0
3.3609 9.6383 -1.2085 -0.987 -0.159 0.018 198 147 130 0 0
3.3640 9.6182 -1.2141 -0.987 -0.159 0.018 183 133 116 0 0
3.5187 9.4074 -1.3074 -0.493 -0.560 0.666 180 126 105 0 0
3.5272 9.3931 -1.3132 -0.493 -0.560 0.666 195 143 121 0 0
3.5423 9.3853 -1.3192 -0.410 -0.614 0.674 196 144 123 0 0
3.9856 9.0849 -1.5135 -0.134 -0.888 0.441 174 126 103 0 0
5.8977 10.2732 -1.7547 0.357 -0.913 -0.198 146 99 82 0 0
5.9632 10.3026 -1.7657 0.319 -0.940 -0.125 147 104 88 0 0
6.0287 10.3317 -1.7767 -0.436 0.075 0.897 164 133 120 0 0
5.9975 10.2273 -1.7932 -0.455 0.063 0.888 225 205 180 0 0
3.5314 8.0093 -1.6468 -0.271 -0.877 0.396 232 215 187 0 0
3.6007 7.8911 -1.6943 -0.172 -0.752 0.636 232 215 189 0 0
3.6136 7.8822 -1.7000 -0.232 -0.673 0.702 233 216 190 0 0
3.7512 7.7220 -1.7764 -0.657 -0.445 0.608 228 211 184 0 0
3.7601 7.7098 -1.7818 -0.450 -0.619 0.644 230 213 185 0 0
3.7671 7.6774 -1.7915 -0.568 -0.572 0.592 229 212 184 0 0
3.7845 7.6716 -1.7977 -0.698 -0.471 0.540 231 214 186 0 0
3.7996 7.6641 -1.8037 -0.352 -0.868 0.351 228 211 183 0 0
3.8159 7.6574 -1.8098 -0.103 -0.958 0.269 228 210 183 0 0
3.8395 7.6373 -1.8211 -0.761 -0.577 0.296 233 214 184 0 0
3.8417 7.6201 -1.8258 -0.410 -0.912 -0.029 230 213 183 0 0
3.8546 7.6109 -1.8316 -0.284 -0.953 0.106 235 217 187 0 0
4.3646 7.0075 -2.1171 -0.354 -0.780 0.516 232 212 185 0 0
4.4732 6.8442 -2.1863 -0.213 -0.802 0.558 231 211 183 0 0
4.4886 6.8358 -2.1925 -0.213 -0.802 0.558 229 211 183 0 0
4.7416 6.4787 -2.3480 -0.313 -0.670 0.674 231 214 186 0 0
4.9937 5.8305 -2.5732 -0.823 -0.548 -0.146 239 240 238 0 0
2.2559 11.4067 -0.4979 0.126 -0.630 0.767 246 245 243 0 0
2.2665 11.3943 -0.5038 -0.034 -0.821 0.570 247 244 242 0 0
2.2923 11.4044 -0.5085 -0.401 -0.303 0.864 246 243 241 0 0
2.3368 10.9482 -0.6300 -0.516 -0.266 0.814 173 127 109 0 0
2.4537 10.7910 -0.7000 -0.250 -0.625 0.740 180 129 107 0 0
2.8045 10.2953 -0.9157 -0.517 -0.558 0.649 177 128 106 0 0
2.8084 10.2753 -0.9216 -0.495 -0.711 0.499 174 124 101 0 0
2.9447 10.1663 -0.9853 -0.383 -0.501 0.776 190 141 123 0 0
3.3447 9.6299 -1.2244 -0.394 -0.629 0.670 166 114 97 0 0
3.4204 9.5230 -1.2710 -0.394 -0.587 0.707 188 134 110 0 0
3.5115 9.3860 -1.3290 -0.339 -0.540 0.771 185 132 110 0 0
3.7213 9.1835 -1.4355 -0.193 -0.742 0.642 204 152 131 0 0
3.8562 9.1086 -1.4908 -0.198 -0.904 0.379 174 126 106 0 0
3.8733 9.1020 -1.4970 -0.234 -0.881 0.412 164 116 96 0 0
5.6887 10.1306 -1.7534 0.474 -0.845 -0.249 141 96 77 0 0
5.8819 10.2692 -1.7737 0.365 -0.913 -0.181 148 102 86 0 0
5.9420 10.2941 -1.7844 0.315 -0.949 -0.010 151 110 94 0 0
5.9989 10.3161 -1.7949 -0.506 0.321 0.801 182 159 143 0 0
3.7576 7.6958 -1.8015 -0.434 -0.884 0.171 229 212 184 0 0
3.7696 7.6672 -1.8117 -0.517 -0.506 0.690 230 213 185 0 0
3.7855 7.6602 -1.8177 -0.291 -0.815 0.501 232 215 187 0 0
4.1378 7.2809 -2.0060 -0.380 -0.563 0.734 229 211 183 0 0
4.1638 7.2075 -2.0308 -0.476 -0.601 0.642 235 215 188 0 0
4.6244 6.5225 -2.3222 -0.747 -0.043 0.663 231 211 184 0 0
4.6837 6.4532 -2.3552 -0.375 -0.817 0.438 229 212 184 0 0
4.7037 6.4302 -2.3662 -0.426 -0.557 0.713 230 213 184 0 0
4.7392 6.3986 -2.3836 -0.393 -0.547 0.739 229 212 185 0 0
4.9915 5.8349 -2.5883 -0.886 -0.423 -0.191 239 239 237 0 0
2.2615 11.4824 -0.5002 -0.734 0.063 0.676 245 244 242 0 0
2.2446 11.4290 -0.5082 -0.121 -0.551 0.826 245 244 242 0 0
2.2559 11.4177 -0.5140 -0.121 -0.551 0.826 245 244 241 0 0
2.2656 11.4039 -0.5200 -0.379 -0.387 0.841 246 244 240 0 0
2.2702 11.3827 -0.5263 -0.401 -0.303 0.864 246 243 238 0 0
2.5337 10.6472 -0.7749 -0.395 -0.506 0.767 164 114 91 0 0
2.6167 10.5239 -0.8274 -0.449 -0.611 0.652 174 124 102 0 0
2.6853 10.4586 -0.8620 -0.451 -0.554 0.700 177 130 112 0 0
2.6941 10.4443 -0.8678 -0.471 -0.574 0.670 168 120 103 0 0
2.7912 10.2887 -0.9319 -0.517 -0.558 0.649 193 142 121 0 0
2.7983 10.2724 -0.9378 -0.492 -0.726 0.481 182 130 109 0 0
2.8060 10.2569 -0.9436 -0.329 -0.795 0.510 184 132 111 0 0
2.9190 10.1699 -0.9958 -0.383 -0.501 0.776 192 143 125 0 0
2.9270 10.1548 -1.0016 -0.383 -0.501 0.776 150 102 85 0 0
3.4864 9.3922 -1.3389 -0.263 -0.682 0.682 171 116 95 0 0
3.4908 9.3738 -1.3445 -0.358 -0.541 0.761 190 135 114 0 0
3.8428 9.1043 -1.5066 -0.271 -0.819 0.505 173 125 105 0 0
3.8601 9.0981 -1.5129 -0.234 -0.881 0.412 180 132 111 0 0
3.8795 9.0936 -1.5194 0.000 -0.966 0.259 172 124 102 0 0
3.8954 9.0860 -1.5256 -0.005 -0.934 0.358 179 131 108 0 0
5.8313 10.2615 -1.7839 0.381 -0.923 -0.059 142 99 81 0 0
5.8931 10.2881 -1.7948 0.380 -0.921 -0.086 147 103 87 0 0
3.5418 7.8772 -1.7153 -0.240 -0.844 0.480 230 213 187 0 0
3.5821 7.8518 -1.7326 -0.394 -0.586 0.708 230 212 186 0 0
3.5895 7.8195 -1.7423 -0.502 -0.512 0.697 234 214 187 0 0
3.9073 7.4762 -1.9125 -0.125 -0.717 0.686 233 215 187 0 0
3.9705 7.4657 -1.9326 -0.305 -0.580 0.755 232 215 187 0 0
3.9793 7.4534 -1.9380 -0.460 -0.491 0.739 231 214 186 0 0
4.4421 6.8376 -2.2134 -0.434 -0.653 0.621 228 210 183 0 0
4.4473 6.8233 -2.2183 -0.740 -0.343 0.579 232 213 186 0 0
4.7771 6.2569 -2.4449 -0.477 -0.481 0.735 228 211 183 0 0
4.8064 6.2221 -2.4614 -0.284 -0.674 0.682 232 215 188 0 0
4.8333 6.1368 -2.4892 -0.539 -0.434 0.722 232 212 185 0 0
2.0875 11.2611 -0.5229 -0.014 -0.988 0.155 245 243 241 0 0
2.2195 11.3745 -0.5329 -0.066 -0.448 0.891 247 244 240 0 0
2.5295 10.6000 -0.8033 -0.427 -0.418 0.802 194 143 120 0 0
2.6737 10.4536 -0.8783 -0.468 -0.450 0.761 186 136 118 0 0
2.6826 10.4396 -0.8842 -0.435 -0.533 0.726 176 126 108 0 0
2.9013 10.1583 -1.0120 -0.383 -0.501 0.776 193 144 125 0 0
2.9080 10.1417 -1.0178 -0.495 -0.378 0.782 184 136 117 0 0
3.0690 9.8914 -1.1222 -0.303 -0.511 0.804 192 143 126 0 0
3.0855 9.8383 -1.1394 -0.431 -0.445 0.785 167 117 96 0 0
3.3714 9.5359 -1.2910 -0.205 -0.672 0.712 201 144 121 0 0
3.3685 9.5099 -1.2964 -0.338 -0.586 0.736 186 130 107 0 0
3.8299 9.1006 -1.5225 -0.439 -0.775 0.455 165 115 93 0 0
3.8441 9.0915 -1.5286 -0.413 -0.770 0.485 167 117 95 0 0
3.8807 9.0806 -1.5414 -0.027 -0.909 0.415 174 125 101 0 0
4.8090 9.5871 -1.6806 0.401 -0.780 -0.480 143 101 83 0 0
3.5817 7.8012 -1.7614 -0.502 -0.512 0.697 234 215 188 0 0
3.9580 7.4449 -1.9511 -0.366 -0.589 0.721 231 214 186 0 0
4.2001 7.1179 -2.0964 -0.281 -0.826 0.489 230 213 185 0 0
4.2884 6.9961 -2.1499 -0.251 -0.728 0.638 237 219 191 0 0
4.2977 6.9842 -2.1554 -0.466 -0.711 0.526 237 217 190 0 0
4.5794 6.5603 -2.3347 -0.617 -0.371 0.694 234 215 188 0 0
4.7589 6.2531 -2.4577 -0.441 -0.446 0.779 229 212 184 0 0
4.7865 6.2011 -2.4778 -0.306 -0.568 0.764 230 214 186 0 0
4.7934 6.1881 -2.4828 -0.408 -0.564 0.718 230 212 185 0 0
4.8223 6.1369 -2.5030 -0.461 -0.532 0.710 230 211 184 0 0
4.8305 6.1246 -2.5082 -0.419 -0.604 0.678 228 211 185 0 0
4.8393 6.1126 -2.5135 -0.419 -0.604 0.678 226 209 183 0 0
4.8601 6.0738 -2.5285 -0.393 -0.897 0.201 231 214 186 0 0
4.8959 6.0586 -2.5421 -0.513 -0.764 0.392 229 213 184 0 0
4.9059 6.0472 -2.5476 -0.562 -0.757 0.334 233 217 190 0 0
4.9549 6.0057 -2.5712 -0.868 -0.445 0.220 231 212 185 0 0
4.9417 5.9832 -2.5728 -0.337 -0.898 0.284 227 209 180 0 0
5.1924 5.9377 -2.6537 0.246 -0.814 0.526 240 239 237 0 0
5.2601 5.9524 -2.6691 0.261 -0.872 0.415 240 239 237 0 0
2.3879 10.7583 -0.7444 -0.287 -0.702 0.651 186 139 115 0 0
2.7379 10.2921 -0.9529 -0.224 -0.803 0.552 178 131 113 0 0
2.7884 10.2297 -0.9818 -0.282 -0.811 0.512 181 135 116 0 0
3.0524 9.8818 -1.1381 -0.469 -0.467 0.750 186 138 120 0 0
3.3278 9.5455 -1.2949 -0.324 -0.688 0.649 218 157 137 0 0
3.3343 9.5293 -1.3006 -0.403 -0.616 0.677 189 127 106 0 0
3.3460 9.5183 -1.3065 -0.320 -0.765 0.559 179 118 97 0 0
3.4226 9.4134 -1.3528 -0.369 -0.621 0.692 180 126 102 0 0
3.4395 9.3848 -1.3642 -0.487 -0.390 0.781 164 107 85 0 0
3.5206 9.3520 -1.3948 -0.283 -0.728 0.625 179 127 105 0 0
3.5402 9.3487 -1.4011 -0.544 -0.455 0.705 205 151 129 0 0
3.5294 9.2930 -1.4112 -0.324 -0.543 0.775 194 142 120 0 0
3.5387 9.2796 -1.4170 -0.398 -0.531 0.748 193 141 120 0 0
3.5389 9.2349 -1.4276 -0.419 -0.311 0.853 192 138 116 0 0
3.6663 9.1118 -1.4924 -0.543 -0.823 0.167 183 130 108 0 0
3.7673 9.0732 -1.5299 -0.362 -0.827 0.431 173 122 101 0 0
3.8317 9.0882 -1.5444 -0.395 -0.843 0.365 172 118 94 0 0
3.8698 9.0788 -1.5574 -0.169 -0.856 0.489 173 121 97 0 0
4.8179 9.6036 -1.6996 0.393 -0.775 -0.495 137 94 76 0 0
4.9942 9.7093 -1.7241 0.373 -0.767 -0.522 144 106 88 0 0
5.1037 9.7800 -1.7382 0.424 -0.777 -0.465 141 103 84 0 0
5.2078 9.8457 -1.7519 0.446 -0.785 -0.430 138 94 77 0 0
3.4962 7.8736 -1.7372 -0.233 -0.645 0.728 232 215 187 0 0
3.5636 7.8128 -1.7705 -0.732 -0.315 0.604 230 213 185 0 0
3.5663 7.7959 -1.7753 -0.771 -0.231 0.593 230 213 185 0 0
3.8194 7.5185 -1.9119 -0.454 -0.430 0.780 229 212 185 0 0
4.5044 6.6778 -2.3028 -0.384 -0.654 0.652 231 214 188 0 0
4.5235 6.6544 -2.3137 -0.346 -0.641 0.685 229 212 184 0 0
4.5141 6.5805 -2.3285 -0.371 -0.599 0.710 232 212 185 0 0
4.5809 6.5670 -2.3505 -0.848 -0.467 -0.251 227 210 184 0 0
4.7825 6.1389 -2.5082 -0.457 -0.603 0.654 229 209 182 0 0
4.7943 6.1121 -2.5179 -0.782 -0.620 0.065 227 210 183 0 0
4.8026 6.0999 -2.5231 -0.793 -0.582 0.179 225 208 182 0 0
4.8845 6.0586 -2.5559 -0.566 -0.672 0.477 228 212 184 0 0
4.9220 5.9792 -2.5851 -0.292 -0.835 0.466 229 212 186 0 0
5.0871 5.9110 -2.6476 0.254 -0.843 0.475 240 238 233 0 0
5.1461 5.9219 -2.6616 0.259 -0.874 0.412 239 239 236 0 0
2.2926 10.8215 -0.7210 -0.250 -0.663 0.706 211 163 143 0 0
2.3257 10.7882 -0.7382 -0.232 -0.699 0.677 186 139 116 0 0
2.3354 10.7754 -0.7439 -0.240 -0.754 0.611 191 144 123 0 0
2.3612 10.7583 -0.7552 -0.350 -0.680 0.644 186 135 113 0 0
2.3727 10.7478 -0.7610 -0.263 -0.680 0.684 188 137 115 0 0
2.4081 10.6915 -0.7842 -0.652 -0.419 0.632 183 133 112 0 0
2.4455 10.6379 -0.8074 -0.316 -0.510 0.800 178 128 105 0 0
2.4688 10.5915 -0.8249 -0.364 -0.449 0.816 181 132 110 0 0
2.5078 10.5657 -0.8419 -0.680 -0.345 0.647 181 129 105 0 0
2.6075 10.4650 -0.8937 -0.334 -0.580 0.743 186 134 113 0 0
2.7451 10.2607 -0.9806 -0.274 -0.643 0.715 186 139 116 0 0
2.8211 10.2044 -1.0153 -0.157 -0.761 0.630 197 145 124 0 0
2.9003 10.0294 -1.0788 -0.090 -0.872 0.482 178 130 112 0 0
2.9998 9.9031 -1.1366 -0.534 -0.429 0.728 182 132 115 0 0
3.0085 9.8891 -1.1423 -0.471 -0.375 0.798 185 136 119 0 0
3.1482 9.7595 -1.2122 -0.460 -0.524 0.717 188 141 124 0 0
3.1541 9.7424 -1.2179 -0.657 -0.348 0.669 191 143 126 0 0
3.1582 9.7234 -1.2236 -0.603 -0.377 0.703 182 133 116 0 0
3.2791 9.5496 -1.2986 -0.351 -0.563 0.748 188 131 112 0 0
3.2892 9.5370 -1.3043 -0.180 -0.793 0.583 191 133 113 0 0
3.3053 9.5307 -1.3104 -0.282 -0.791 0.542 167 106 86 0 0
3.3188 9.5218 -1.3163 -0.282 -0.791 0.542 181 119 98 0 0
3.3305 9.5108 -1.3222 -0.317 -0.866 0.386 157 95 74 0 0
3.3454 9.5033 -1.3282 -0.225 -0.900 0.374 164 104 82 0 0
3.5245 9.3416 -1.4167 -0.433 -0.679 0.593 189 135 114 0 0
3.5359 9.2851 -1.4332 -0.360 -0.574 0.735 168 113 92 0 0
4.8284 9.6214 -1.7187 0.402 -0.777 -0.484 135 92 76 0 0
4.9233 9.6804 -1.7316 0.367 -0.752 -0.548 148 106 90 0 0
5.0073 9.7295 -1.7438 0.358 -0.754 -0.551 141 102 85 0 0
5.1032 9.7885 -1.7570 0.405 -0.779 -0.479 145 105 87 0 0
5.2134 9.8595 -1.7714 0.440 -0.785 -0.435 143 98 82 0 0
5.3284 9.9340 -1.7863 0.428 -0.779 -0.458 145 99 82 0 0
5.4753 10.0355 -1.8038 0.512 -0.821 -0.251 145 100 82 0 0
5.6106 10.1264 -1.8206 0.517 -0.824 -0.232 139 92 74 0 0
5.8600 10.2622 -1.8590 -0.481 0.444 0.756 192 165 142 0 0
5.6997 10.0749 -1.8579 -0.474 0.417 0.775 225 203 175 0 0
5.5726 9.9423 -1.8532 -0.444 0.413 0.795 223 201 170 0 0
3.5435 7.8227 -1.7794 -0.453 -0.569 0.687 230 213 185 0 0
4.1076 7.1417 -2.0988 -0.345 -0.522 0.780 235 218 190 0 0
4.1183 7.1308 -2.1043 -0.320 -0.566 0.760 231 214 186 0 0
4.1495 7.0976 -2.1210 -0.435 -0.583 0.686 232 215 187 0 0
4.4779 6.6513 -2.3186 -0.775 -0.458 0.436 233 216 190 0 0
4.4860 6.6216 -2.3279 -0.666 -0.410 0.623 230 213 185 0 0
4.4894 6.6065 -2.3324 -0.550 -0.646 0.529 231 214 186 0 0
4.5403 6.4823 -2.3760 -0.516 -0.821 0.243 226 206 179 0 0
4.5531 6.4725 -2.3819 -0.516 -0.821 0.243 225 205 175 0 0
4.5647 6.4620 -2.3876 -0.545 -0.620 0.565 228 207 180 0 0
4.7786 6.1425 -2.5231 -0.589 -0.389 0.708 225 205 178 0 0
4.7888 6.1312 -2.5287 -0.577 -0.429 0.695 229 212 184 0 0
4.7978 6.1194 -2.5340 -0.654 -0.519 0.551 229 212 184 0 0
4.7995 6.1039 -2.5381 -0.541 -0.682 0.491 226 209 183 0 0
4.7999 6.0878 -2.5420 -0.403 -0.735 0.545 227 210 184 0 0
4.8825 6.0143 -2.5826 -0.339 -0.546 0.766 228 209 181 0 0
5.0926 5.9027 -2.6681 0.261 -0.872 0.415 239 239 235 0 0
5.1518 5.9137 -2.6823 0.261 -0.872 0.415 238 240 239 0 0
2.1625 10.9403 -0.6746 -0.191 -0.764 0.616 183 135 116 0 0
2.3751 10.6829 -0.7951 -0.308 -0.493 0.813 190 142 120 0 0
2.4959 10.5599 -0.8582 -0.832 -0.412 0.370 184 133 110 0 0
2.4986 10.5124 -0.8701 -0.095 -0.826 0.555 178 126 104 0 0
2.6822 10.2922 -0.9737 -0.354 -0.657 0.666 184 137 119 0 0
3.5080 9.3337 -1.4323 -0.368 -0.853 0.371 155 103 81 0 0
3.4986 9.2794 -1.4423 -0.384 -0.607 0.696 166 110 87 0 0
3.5048 9.2630 -1.4479 -0.587 -0.387 0.711 186 129 109 0 0
4.8291 9.6307 -1.7372 0.428 -0.780 -0.457 131 86 71 0 0
5.0243 9.7531 -1.7638 0.371 -0.750 -0.547 147 106 89 0 0
5.1123 9.8052 -1.7766 0.405 -0.779 -0.479 145 102 85 0 0
5.2281 9.8811 -1.7916 0.429 -0.770 -0.473 146 99 83 0 0
5.3382 9.9515 -1.8063 0.413 -0.741 -0.530 140 95 76 0 0
5.4756 10.0450 -1.8234 0.507 -0.830 -0.232 138 93 74 0 0
5.5959 10.1230 -1.8392 0.504 -0.827 -0.249 142 95 77 0 0
3.3061 8.0004 -1.6874 -0.159 -0.730 0.664 233 214 186 0 0
3.4201 7.8642 -1.7516 -0.537 -0.805 0.251 230 210 183 0 0
3.4804 7.7796 -1.7885 -0.273 -0.799 0.536 231 214 186 0 0
3.7550 7.5215 -1.9268 -0.478 -0.661 0.579 231 214 188 0 0
3.7670 7.5119 -1.9325 -0.475 -0.579 0.663 233 216 190 0 0
4.0132 7.2287 -2.0686 -0.763 -0.415 0.495 229 212 184 0 0
4.0141 7.2113 -2.0729 -0.567 -0.678 0.468 228 209 180 0 0
4.1265 7.0710 -2.1376 -0.160 -0.923 0.349 230 213 185 0 0
4.8634 5.9783 -2.6025 -0.313 -0.836 0.450 225 205 178 0 0
5.0398 5.8839 -2.6746 0.261 -0.872 0.415 241 239 233 0 0
5.1576 5.9056 -2.7029 0.261 -0.862 0.434 239 240 238 0 0
1.9304 11.1497 -0.5778 -0.019 -0.810 -0.586 244 243 241 0 0
2.3541 10.6645 -0.8116 -0.470 -0.443 0.764 184 133 112 0 0
2.6412 10.3006 -0.9783 -0.307 -0.567 0.764 194 148 126 0 0
3.1400 9.6511 -1.2718 -0.452 -0.657 0.604 187 141 125 0 0
3.2347 9.5204 -1.3293 -0.369 -0.898 0.239 188 135 114 0 0
4.4568 9.3818 -1.7096 0.477 -0.874 -0.093 134 90 71 0 0
5.0264 9.7638 -1.7828 0.443 -0.807 -0.389 139 96 79 0 0
5.1208 9.8216 -1.7962 0.440 -0.811 -0.385 145 100 83 0 0
5.2140 9.8779 -1.8096 0.445 -0.771 -0.455 147 100 83 0 0
5.3419 9.9638 -1.8259 0.425 -0.739 -0.522 133 87 71 0 0
5.4812 10.0589 -1.8434 0.499 -0.825 -0.266 132 87 69 0 0
5.5929 10.1297 -1.8587 0.488 -0.821 -0.298 143 96 78 0 0
5.8580 10.2015 -1.9175 0.473 -0.801 0.368 232 209 179 0 0
3.4057 7.8594 -1.7654 -0.800 -0.315 0.511 229 209 182 0 0
3.4944 7.7597 -1.8139 -0.204 -0.791 0.577 226 209 181 0 0
3.6740 7.5979 -1.9028 -0.450 -0.437 0.779 227 209 181 0 0
4.0173 7.1838 -2.0971 -0.436 -0.619 0.653 229 210 180 0 0
4.0284 7.1733 -2.1028 -0.323 -0.846 0.425 227 209 180 0 0
4.0869 7.1048 -2.1354 -0.292 -0.828 0.480 230 213 185 0 0
4.0966 7.0933 -2.1408 -0.247 -0.707 0.663 233 216 188 0 0
4.1385 7.1029 -2.1505 -0.550 -0.474 0.687 232 215 187 0 0
4.1533 7.0590 -2.1650 -0.291 -0.883 0.367 234 216 189 0 0
4.1905 7.0474 -2.1783 -0.541 -0.754 0.371 232 214 186 0 0
4.3550 6.7116 -2.3034 -0.528 -0.608 0.594 228 208 181 0 0
4.5209 6.4663 -2.4079 -0.330 -0.652 0.683 231 211 184 0 0
4.6181 6.3183 -2.4701 -0.642 -0.629 0.439 230 213 185 0 0
4.8423 5.9575 -2.6181 -0.443 -0.507 0.739 230 210 183 0 0
5.1028 5.8859 -2.7090 0.260 -0.867 0.425 238 239 236 0 0
2.5185 10.4307 -0.9312 -0.508 -0.426 0.749 184 133 112 0 0
2.8482 9.9719 -1.1320 -0.540 -0.549 0.638 176 119 99 0 0
3.2146 9.5079 -1.3447 -0.329 -0.562 0.759 161 106 86 0 0
3.4752 9.1614 -1.4997 -0.177 -0.817 0.548 206 151 130 0 0
3.4830 9.1468 -1.5053 -0.348 -0.589 0.730 189 135 113 0 0
3.7883 9.0146 -1.6234 -0.064 -0.749 0.660 185 137 116 0 0
5.4679 10.0567 -1.8619 0.496 -0.822 -0.281 143 97 81 0 0
5.5847 10.1319 -1.8778 0.481 -0.819 -0.313 143 97 80 0 0
5.7642 10.2345 -1.9053 -0.486 0.465 0.740 183 148 125 0 0
5.6070 10.0239 -1.9093 -0.554 0.308 0.773 228 205 176 0 0
3.4026 7.8447 -1.7847 -0.213 -0.784 0.583 235 215 188 0 0
3.6496 7.6048 -1.9111 -0.460 -0.709 0.534 232 215 187 0 0
3.6725 7.6034 -1.9179 -0.750 -0.537 0.386 230 213 185 0 0
3.7231 7.5297 -1.9495 -0.281 -0.753 0.595 230 213 185 0 0
3.7389 7.5228 -1.9556 -0.274 -0.784 0.558 229 212 184 0 0
3.8054 7.3874 -2.0062 -0.418 -0.705 0.573 228 211 183 0 0
3.8024 7.3670 -2.0100 -0.371 -0.811 0.452 234 217 189 0 0
4.0159 7.1712 -2.1166 -0.323 -0.846 0.425 235 217 188 0 0
4.0040 7.1454 -2.1192 -0.418 -0.753 0.508 235 218 192 0 0
4.0643 7.0962 -2.1478 -0.271 -0.758 0.594 231 214 186 0 0
4.1071 7.0709 -2.1660 -0.315 -0.794 0.520 235 216 188 0 0
4.1246 7.0644 -2.1725 -0.257 -0.757 0.601 233 213 186 0 0
4.1543 7.0659 -2.1806 -0.240 -0.857 0.456 231 214 186 0 0
4.1664 7.0381 -2.1905 -0.251 -0.812 0.527 230 213 185 0 0
4.3420 6.7099 -2.3170 -0.614 -0.639 0.464 229 209 182 0 0
4.3594 6.6858 -2.3276 -0.535 -0.527 0.660 226 207 180 0 0
4.4926 6.4732 -2.4151 -0.330 -0.652 0.683 231 211 184 0 0
4.5806 6.3539 -2.4680 -0.536 -0.682 0.497 230 210 183 0 0
4.8122 5.9485 -2.6284 -0.570 -0.497 0.655 229 210 183 0 0
4.8174 5.9350 -2.6330 -0.409 -0.652 0.638 228 207 180 0 0
5.0527 5.8684 -2.7158 0.260 -0.861 0.436 239 239 236 0 0
2.0985 10.9327 -0.7125 -0.699 -0.167 0.695 175 128 112 0 0
2.5795 10.2426 -1.0104 -0.458 -0.469 0.755 191 140 119 0 0
2.6856 10.1763 -1.0562 -0.109 -0.836 0.538 192 141 120 0 0
2.8364 9.9672 -1.1479 -0.511 -0.817 0.267 164 110 90 0 0
2.8459 9.9543 -1.1536 -0.597 -0.645 0.478 173 119 100 0 0
2.9843 9.7320 -1.2448 -0.330 -0.636 0.697 182 135 116 0 0
2.9928 9.7179 -1.2505 -0.365 -0.555 0.748 193 148 131 0 0
3.0727 9.6888 -1.2802 -0.389 -0.582 0.715 181 133 115 0 0
3.0813 9.6749 -1.2859 -0.363 -0.656 0.662 195 146 129 0 0
3.0927 9.6640 -1.2917 -0.436 -0.524 0.732 191 144 126 0 0
3.1007 9.6494 -1.2974 -0.436 -0.524 0.732 197 153 133 0 0
3.1067 9.6326 -1.3030 -0.350 -0.638 0.686 190 145 124 0 0
3.2653 9.4091 -1.4002 -0.144 -0.669 0.729 176 116 95 0 0
3.4597 9.1546 -1.5150 -0.177 -0.817 0.548 160 103 83 0 0
3.4676 9.1401 -1.5206 -0.431 -0.589 0.683 175 122 101 0 0
3.4771 9.1271 -1.5263 -0.486 -0.526 0.698 192 142 123 0 0
3.4848 9.1125 -1.5319 -0.486 -0.526 0.698 197 148 128 0 0
3.4949 9.1001 -1.5377 -0.531 -0.483 0.696 167 116 97 0 0
3.5194 9.0576 -1.5546 -0.153 -0.703 0.695 180 129 110 0 0
4.4142 9.3609 -1.7416 0.329 -0.839 -0.434 135 91 73 0 0
5.1225 9.8409 -1.8342 0.467 -0.820 -0.331 145 99 83 0 0
5.3819 10.0166 -1.8681 0.494 -0.797 -0.348 139 92 74 0 0
5.4569 10.0563 -1.8805 0.485 -0.816 -0.315 150 102 84 0 0
5.5759 10.1336 -1.8969 0.473 -0.814 -0.336 147 100 82 0 0
5.7221 10.2079 -1.9217 -0.555 0.457 0.695 208 179 154 0 0
3.2398 8.0041 -1.7178 -0.467 -0.359 0.808 234 214 183 0 0
3.2461 7.9901 -1.7228 -0.432 -0.701 0.567 231 211 182 0 0
3.2556 7.9789 -1.7281 -0.173 -0.769 0.615 234 215 186 0 0
3.2643 7.9669 -1.7334 -0.459 -0.578 0.675 234 216 189 0 0
3.2646 7.9481 -1.7379 -0.436 -0.557 0.707 233 216 190 0 0
3.5517 7.6488 -1.8896 -0.517 -0.514 0.684 231 211 184 0 0
3.5593 7.6360 -1.8947 -0.438 -0.529 0.727 230 210 183 0 0
3.5806 7.6336 -1.9014 -0.645 -0.499 0.578 228 211 183 0 0
3.6226 7.6096 -1.9190 -0.279 -0.936 0.214 229 212 184 0 0
3.6369 7.6019 -1.9249 -0.320 -0.726 0.609 230 213 185 0 0
3.6499 7.5931 -1.9307 -0.465 -0.593 0.657 231 214 186 0 0
3.8677 7.2924 -2.0628 -0.433 -0.590 0.681 231 212 183 0 0
3.9124 7.2872 -2.0769 -0.484 -0.779 0.398 231 212 182 0 0
3.9240 7.2771 -2.0825 -0.484 -0.779 0.398 233 214 184 0 0
3.9356 7.2670 -2.0882 -0.484 -0.779 0.398 235 216 186 0 0
4.0033 7.1691 -2.1303 -0.323 -0.846 0.425 227 209 180 0 0
3.9876 7.1407 -2.1324 -0.259 -0.830 0.494 230 213 187 0 0
4.0022 7.1326 -2.1384 -0.259 -0.830 0.494 230 213 187 0 0
4.0452 7.0899 -2.1607 -0.413 -0.608 0.678 234 217 189 0 0
4.0921 7.0673 -2.1794 -0.269 -0.862 0.429 233 216 190 0 0
4.2296 6.8730 -2.2638 -0.538 -0.692 0.482 230 210 183 0 0
4.2741 6.7270 -2.3104 -0.589 -0.350 0.728 229 212 184 0 0
4.3075 6.7298 -2.3194 -0.479 -0.825 0.300 230 213 185 0 0
4.3100 6.7140 -2.3237 -0.515 -0.857 -0.031 229 211 183 0 0
4.3272 6.7071 -2.3303 -0.494 -0.713 0.497 230 210 183 0 0
4.3406 6.6979 -2.3362 -0.637 -0.443 0.631 226 206 179 0 0
4.3458 6.6837 -2.3410 -0.637 -0.443 0.631 218 198 171 0 0
4.5519 6.3276 -2.4826 -0.231 -0.793 0.564 229 212 184 0 0
4.7996 5.9318 -2.6453 -0.384 -0.685 0.619 228 209 182 0 0
5.2163 5.8998 -2.7725 0.293 -0.918 0.268 239 239 237 0 0
2.1233 10.8457 -0.7579 -0.529 -0.497 0.688 194 157 138 0 0
2.4807 10.4013 -0.9634 -0.440 -0.583 0.683 177 126 104 0 0
2.4882 10.3858 -0.9691 -0.468 -0.548 0.693 184 136 115 0 0
2.8179 9.9547 -1.1636 -0.252 -0.729 0.636 199 148 131 0 0
2.8269 9.9413 -1.1693 -0.403 -0.603 0.688 186 136 118 0 0
2.9724 9.7042 -1.2659 -0.301 -0.526 0.795 185 136 119 0 0
3.0775 9.6562 -1.3073 -0.431 -0.452 0.781 169 121 102 0 0
3.0842 9.6401 -1.3129 -0.431 -0.452 0.781 186 139 119 0 0
3.0820 9.5914 -1.3235 -0.309 -0.576 0.757 187 138 122 0 0
3.2702 9.3772 -1.4271 -0.254 -0.616 0.745 150 89 65 0 0
3.4524 9.1335 -1.5358 -0.431 -0.589 0.683 194 140 119 0 0
3.4615 9.1202 -1.5415 -0.431 -0.589 0.683 189 139 119 0 0
3.4773 9.0913 -1.5527 -0.596 -0.550 0.585 186 135 116 0 0
3.4677 9.0602 -1.5571 -0.478 -0.375 0.794 188 136 117 0 0
3.4872 9.0569 -1.5635 -0.424 -0.566 0.707 188 136 118 0 0
4.4009 9.3575 -1.7582 0.339 -0.884 -0.323 130 86 67 0 0
4.5715 9.4855 -1.7780 0.484 -0.784 -0.389 146 104 87 0 0
4.9043 9.7076 -1.8229 0.505 -0.805 -0.310 137 93 76 0 0
5.0226 9.7870 -1.8388 0.487 -0.821 -0.298 127 82 66 0 0
5.1192 9.8470 -1.8529 0.469 -0.816 -0.339 141 95 79 0 0
5.6771 10.1786 -1.9377 -0.569 0.443 0.693 215 188 163 0 0
5.6614 10.1395 -1.9421 -0.690 0.140 0.710 233 211 181 0 0
5.6492 10.1035 -1.9469 -0.690 0.140 0.710 228 205 174 0 0
5.6414 10.0714 -1.9520 -0.795 0.177 0.581 224 201 169 0 0
3.3182 7.8847 -1.7846 -0.370 -0.854 0.366 232 215 188 0 0
3.3196 7.8668 -1.7891 -0.521 -0.658 0.543 230 213 186 0 0
3.3703 7.8512 -1.8074 -0.495 -0.553 0.670 230 213 185 0 0
3.4250 7.8193 -1.8305 -0.316 -0.838 0.444 230 212 182 0 0
3.4743 7.7264 -1.8661 -0.683 -0.341 0.646 232 215 188 0 0
3.6738 7.5064 -1.9744 -0.363 -0.769 0.526 231 212 184 0 0
3.8589 7.2926 -2.0771 -0.351 -0.564 0.747 232 212 185 0 0
3.9872 7.1289 -2.1518 -0.346 -0.866 0.361 231 214 188 0 0
4.0031 7.1217 -2.1581 -0.195 -0.831 0.521 227 210 184 0 0
4.2776 6.7179 -2.3303 -0.337 -0.669 0.662 227 210 182 0 0
4.3304 6.6806 -2.3541 -0.475 -0.625 0.619 231 211 184 0 0
4.4584 6.4155 -2.4521 -0.257 -0.717 0.648 232 212 184 0 0
4.5329 6.3230 -2.4949 -0.435 -0.815 0.383 229 212 184 0 0
5.1609 5.8801 -2.7782 0.295 -0.927 0.230 239 239 237 0 0
2.0110 11.0136 -0.7048 -0.422 -0.298 0.856 200 147 125 0 0
2.0097 10.9848 -0.7111 -0.351 -0.496 0.794 203 152 131 0 0
2.0827 10.8243 -0.7691 -0.666 -0.271 0.694 194 153 136 0 0
2.1765 10.7206 -0.8200 -0.368 -0.499 0.784 196 145 124 0 0
2.2000 10.6493 -0.8432 -0.487 -0.587 0.647 192 145 124 0 0
2.2125 10.6407 -0.8488 -0.685 -0.369 0.628 185 138 117 0 0
2.3290 10.5416 -0.9053 -0.341 -0.525 0.780 177 130 108 0 0
2.5480 10.2220 -1.0421 -0.496 -0.545 0.675 172 118 97 0 0
2.7038 10.0460 -1.1276 -0.344 -0.565 0.750 177 125 104 0 0
2.8063 9.9263 -1.1848 -0.352 -0.463 0.814 191 143 123 0 0
3.0661 9.6293 -1.3283 -0.371 -0.449 0.813 159 105 85 0 0
3.5208 9.0312 -1.5973 -0.250 -0.683 0.686 176 125 104 0 0
3.7230 9.0007 -1.6629 -0.158 -0.902 0.402 190 142 122 0 0
4.4286 9.3906 -1.7783 0.338 -0.811 0.478 134 90 72 0 0
5.6963 10.2303 -1.9536 -0.569 0.437 0.697 156 123 99 0 0
5.6378 10.1542 -1.9540 -0.577 0.455 0.678 217 192 165 0 0
3.2046 7.9690 -1.7490 -0.241 -0.761 0.603 233 214 186 0 0
3.3564 7.7523 -1.8427 -0.238 -0.641 0.730 234 214 185 0 0
3.4800 7.6813 -1.8948 -0.464 -0.651 0.600 230 213 185 0 0
3.5575 7.5551 -1.9463 -0.544 -0.476 0.691 231 214 186 0 0
3.8410 7.2865 -2.0901 -0.351 -0.564 0.747 227 209 181 0 0
3.9104 7.2264 -2.1240 -0.507 -0.438 0.743 231 214 186 0 0
3.9108 7.1908 -2.1323 -0.680 -0.283 0.677 231 213 186 0 0
4.0831 6.9329 -2.2413 -0.504 -0.515 0.693 230 213 185 0 0
4.2006 6.8151 -2.3024 -0.920 -0.123 0.372 235 217 189 0 0
4.2412 6.7192 -2.3362 -0.547 -0.730 0.410 230 210 183 0 0
4.3488 6.5611 -2.4037 -0.200 -0.688 0.697 227 210 182 0 0
4.4542 6.4022 -2.4706 -0.247 -0.670 0.700 229 211 181 0 0
4.4661 6.3921 -2.4764 -0.426 -0.522 0.739 227 210 180 0 0
4.4677 6.3764 -2.4805 -0.552 -0.606 0.573 231 213 185 0 0
4.4662 6.3590 -2.4841 -0.671 -0.366 0.644 230 212 184 0 0
4.6350 6.0710 -2.5990 -0.352 -0.582 0.733 228 211 183 0 0
4.6360 6.0554 -2.6029 -0.346 -0.513 0.786 227 208 181 0 0
4.6523 6.0474 -2.6095 -0.352 -0.582 0.733 230 212 185 0 0
4.6563 6.0333 -2.6139 -0.087 -0.870 0.486 228 211 184 0 0
4.7737 5.9302 -2.6715 -0.246 -0.705 0.665 227 210 184 0 0
1.9716 11.1284 -0.6853 -0.328 -0.470 0.819 189 140 122 0 0
1.9738 11.0773 -0.6976 -0.473 -0.235 0.849 199 146 128 0 0
1.9822 11.0626 -0.7034 -0.472 -0.199 0.859 204 149 130 0 0
1.9858 11.0409 -0.7094 -0.440 -0.295 0.848 207 155 134 0 0
1.9785 11.0030 -0.7159 -0.220 -0.555 0.802 201 149 127 0 0
1.9883 10.9906 -0.7216 -0.558 -0.458 0.692 196 144 122 0 0
1.9936 10.9715 -0.7275 -0.541 -0.537 0.647 201 150 129 0 0
2.0355 10.8459 -0.7684 -0.420 -0.643 0.641 183 138 122 0 0
2.0630 10.7799 -0.7914 -0.595 -0.409 0.692 193 143 125 0 0
2.1481 10.7170 -0.8306 -0.359 -0.480 0.801 191 140 121 0 0
2.1903 10.6459 -0.8591 -0.352 -0.732 0.584 186 138 120 0 0
2.1999 10.6333 -0.8648 -0.639 -0.406 0.653 188 140 119 0 0
2.3190 10.5126 -0.9271 -0.356 -0.513 0.781 177 129 107 0 0
2.4304 10.3307 -1.0010 -0.332 -0.616 0.714 197 148 126 0 0
2.4447 10.3241 -1.0067 -0.651 -0.458 0.606 191 144 123 0 0
3.1341 9.4803 -1.4002 -0.542 -0.425 0.725 162 102 78 0 0
3.1400 9.4636 -1.4057 -0.543 -0.440 0.716 169 112 91 0 0
3.1546 9.4334 -1.4169 -0.560 -0.544 0.625 176 121 98 0 0
3.1627 9.4192 -1.4225 -0.741 -0.498 0.451 174 120 96 0 0
3.1688 9.4028 -1.4280 -0.152 -0.729 0.668 167 112 90 0 0
3.1783 9.3900 -1.4337 -0.260 -0.655 0.710 180 126 105 0 0
3.2044 9.3718 -1.4455 -0.230 -0.667 0.708 179 131 111 0 0
3.2189 9.3641 -1.4514 -0.276 -0.613 0.740 217 172 150 0 0
3.2285 9.3513 -1.4571 -0.224 -0.625 0.748 201 151 129 0 0
3.4042 9.0592 -1.5750 -0.160 -0.688 0.708 196 145 126 0 0
3.4206 9.0531 -1.5812 -0.124 -0.760 0.638 205 153 134 0 0
4.3926 9.3670 -1.7928 0.338 -0.811 0.478 137 92 76 0 0
5.4552 10.0824 -1.9392 0.465 -0.837 -0.288 151 106 87 0 0
5.6597 10.2081 -1.9702 -0.614 0.394 0.685 161 130 108 0 0
5.6181 10.1466 -1.9721 -0.614 0.394 0.685 222 199 173 0 0
3.1829 7.9576 -1.7619 -0.269 -0.610 0.746 231 211 184 0 0
3.3389 7.8203 -1.8387 -0.196 -0.730 0.654 232 215 187 0 0
3.4532 7.6858 -1.9027 -0.621 -0.551 0.558 231 214 186 0 0
3.5424 7.5687 -1.9554 -0.752 -0.442 0.489 232 215 187 0 0
3.5403 7.5486 -1.9594 -0.548 -0.409 0.730 231 214 186 0 0
4.0685 6.9297 -2.2546 -0.541 -0.510 0.668 229 212 184 0 0
4.1103 6.8691 -2.2806 -0.428 -0.632 0.646 229 208 181 0 0
4.1917 6.7983 -2.3205 -0.505 -0.564 0.654 234 214 187 0 0
4.3066 6.6613 -2.3852 -0.306 -0.780 0.546 229 209 182 0 0
4.3258 6.6045 -2.4038 -0.728 -0.432 0.532 232 212 185 0 0
4.3971 6.4431 -2.4614 -0.256 -0.779 0.572 231 214 184 0 0
4.3996 6.4278 -2.4656 -0.325 -0.631 0.705 228 211 181 0 0
4.4331 6.3964 -2.4826 -0.413 -0.577 0.704 231 214 184 0 0
4.4487 6.3551 -2.4965 -0.665 -0.459 0.589 231 212 185 0 0
4.5318 6.2022 -2.5556 -0.150 -0.907 0.393 227 210 182 0 0
4.5745 6.1592 -2.5779 -0.238 -0.849 0.471 227 210 182 0 0
4.5871 6.1494 -2.5838 -0.309 -0.732 0.608 227 210 182 0 0
4.6228 6.0381 -2.6196 -0.568 -0.382 0.729 227 210 184 0 0
4.6375 6.0294 -2.6259 -0.153 -0.808 0.568 228 211 185 0 0
5.0748 5.8357 -2.7975 0.251 -0.904 0.346 239 239 237 0 0
1.9531 11.1113 -0.7019 -0.547 -0.388 0.742 200 153 134 0 0
1.9513 11.0541 -0.7144 -0.564 -0.071 0.823 197 143 125 0 0
1.9549 11.0324 -0.7204 -0.489 -0.170 0.856 197 143 124 0 0
1.9558 11.0068 -0.7265 -0.432 -0.425 0.795 201 149 128 0 0
2.0512 10.7732 -0.8074 -0.615 -0.452 0.646 155 106 86 0 0
2.1411 10.6913 -0.8524 -0.320 -0.475 0.820 181 133 111 0 0
2.1782 10.6391 -0.8751 -0.414 -0.691 0.592 177 128 111 0 0
2.1892 10.6285 -0.8807 -0.589 -0.421 0.690 197 148 128 0 0
2.3970 10.3221 -1.0112 -0.205 -0.815 0.543 184 132 111 0 0
2.4154 10.3209 -1.0168 -0.336 -0.652 0.680 181 130 109 0 0
2.4846 10.2353 -1.0565 -0.490 -0.456 0.743 194 141 124 0 0
2.4912 10.2190 -1.0622 -0.499 -0.452 0.739 182 130 111 0 0
2.4993 10.2045 -1.0679 -0.443 -0.499 0.745 177 126 105 0 0
2.6691 10.0227 -1.1589 -0.296 -0.552 0.780 159 106 85 0 0
2.6760 10.0068 -1.1645 -0.338 -0.518 0.786 194 139 119 0 0
2.6844 9.9927 -1.1701 -0.338 -0.518 0.786 197 146 127 0 0
2.7012 9.9646 -1.1814 -0.364 -0.522 0.772 151 97 76 0 0
3.0703 9.4669 -1.4026 -0.503 -0.499 0.706 185 124 102 0 0
3.1284 9.3918 -1.4367 -0.316 -0.610 0.726 190 138 114 0 0
3.1600 9.3794 -1.4487 -0.314 -0.731 0.606 176 123 101 0 0
3.1904 9.3656 -1.4608 -0.276 -0.613 0.740 189 139 119 0 0
3.2009 9.3539 -1.4665 -0.276 -0.613 0.740 177 128 108 0 0
3.2105 9.3413 -1.4722 -0.277 -0.600 0.751 177 127 105 0 0
3.2201 9.3286 -1.4779 -0.432 -0.449 0.782 175 120 98 0 0
4.5738 9.5133 -1.8322 0.429 -0.748 -0.507 139 97 80 0 0
5.6340 10.1952 -1.9877 -0.626 0.371 0.685 188 157 137 0 0
5.6348 10.1702 -1.9936 -0.273 -0.734 0.622 219 196 172 0 0
3.3269 7.7233 -1.8739 -0.252 -0.710 0.658 226 209 183 0 0
3.4259 7.6897 -1.9105 -0.773 -0.362 0.521 232 215 187 0 0
3.4394 7.6816 -1.9163 -0.493 -0.587 0.642 230 213 185 0 0
3.4474 7.6693 -1.9214 -0.493 -0.587 0.642 230 213 185 0 0
3.5521 7.5642 -1.9760 -0.859 -0.304 0.412 232 215 189 0 0
3.8306 7.2379 -2.1316 -0.249 -0.609 0.753 232 215 187 0 0
3.8998 7.1246 -2.1776 -0.390 -0.666 0.636 231 214 186 0 0
4.0640 7.0207 -2.2493 -0.653 -0.577 0.491 234 217 190 0 0
4.0278 6.9447 -2.2560 -0.211 -0.754 0.622 231 214 186 0 0
4.0456 6.9387 -2.2626 -0.284 -0.798 0.532 231 214 186 0 0
4.0266 6.9091 -2.2637 -0.207 -0.635 0.745 227 210 182 0 0
4.2901 6.5727 -2.4173 -0.509 -0.393 0.766 226 209 181 0 0
4.3472 6.4542 -2.4609 -0.379 -0.656 0.653 228 211 182 0 0
4.3649 6.4475 -2.4677 -0.286 -0.583 0.761 227 210 180 0 0
4.3903 6.4117 -2.4832 -0.435 -0.530 0.728 226 209 180 0 0
4.4386 6.3719 -2.5064 -0.287 -0.696 0.658 228 208 181 0 0
4.4372 6.3545 -2.5099 -0.665 -0.459 0.589 227 208 181 0 0
4.5029 6.2089 -2.5623 -0.345 -0.889 0.302 229 212 184 0 0
4.5332 6.1921 -2.5749 -0.196 -0.925 0.325 230 213 185 0 0
4.5650 6.1111 -2.6027 -0.807 -0.227 0.545 228 211 185 0 0
4.5662 6.0956 -2.6065 -0.709 -0.406 0.576 230 213 187 0 0
4.6292 5.9986 -2.6470 -0.424 -0.691 0.585 231 214 187 0 0
4.6566 5.9801 -2.6592 -0.432 -0.861 0.268 229 212 184 0 0
4.6886 5.9479 -2.6759 -0.196 -0.765 0.614 231 211 184 0 0
4.7344 5.8745 -2.7060 -0.611 -0.499 0.614 226 206 179 0 0
4.7495 5.8499 -2.7160 -0.513 -0.671 0.536 220 200 173 0 0
1.9334 11.3691 -0.6559 -0.193 -0.287 0.938 244 243 241 0 0
1.9389 11.3495 -0.6620 -0.130 -0.321 0.938 246 243 241 0 0
1.9639 10.8419 -0.7842 -0.419 -0.475 0.773 197 149 132 0 0
2.0390 10.7659 -0.8234 -0.461 -0.543 0.701 194 146 123 0 0
2.4630 10.2421 -1.0666 -0.554 -0.415 0.722 190 139 123 0 0
2.4695 10.2257 -1.0722 -0.469 -0.517 0.716 174 124 107 0 0
2.4802 10.2145 -1.0779 -0.466 -0.414 0.782 179 130 114 0 0
2.4840 10.1946 -1.0835 -0.443 -0.499 0.745 188 139 122 0 0
2.6756 9.9673 -1.1913 -0.259 -0.659 0.706 116 64 44 0 0
2.7002 9.9246 -1.2082 -0.385 -0.483 0.787 180 127 105 0 0
2.8287 9.7890 -1.2766 -0.306 -0.559 0.771 166 116 100 0 0
2.8906 9.6948 -1.3162 -0.362 -0.460 0.811 188 136 121 0 0
5.6014 10.1764 -2.0045 -0.692 0.414 0.591 198 169 147 0 0
5.6149 10.1624 -2.0116 -0.273 -0.734 0.622 224 202 175 0 0
3.4153 7.6694 -1.9286 -0.823 -0.294 0.485 228 211 183 0 0
3.8286 7.2250 -2.1507 -0.521 -0.388 0.760 232 215 188 0 0
4.0878 6.8325 -2.3157 -0.147 -0.753 0.641 232 212 183 0 0
4.3538 6.4470 -2.4811 -0.408 -0.455 0.791 230 214 183 0 0
4.3884 6.3997 -2.5020 -0.273 -0.629 0.728 230 213 185 0 0
4.5685 6.0700 -2.6296 -0.440 -0.447 0.779 229 210 184 0 0
4.6081 5.9936 -2.6585 -0.598 -0.389 0.700 228 211 185 0 0
4.6069 5.9771 -2.6619 -0.579 -0.691 0.433 230 213 186 0 0
4.6299 5.9724 -2.6697 -0.228 -0.871 0.436 231 214 186 0 0
4.7150 5.9023 -2.7106 -0.575 -0.652 0.494 225 205 178 0 0
4.7193 5.8884 -2.7150 -0.795 -0.292 0.532 223 203 176 0 0
5.0142 5.8030 -2.8210 0.210 -0.915 0.344 240 240 240 0 0
5.0724 5.8133 -2.8358 0.262 -0.925 0.274 239 240 238 0 0
1.9484 10.8295 -0.8002 -0.419 -0.475 0.773 181 134 117 0 0
2.4903 10.1628 -1.1105 -0.487 -0.411 0.770 191 140 119 0 0
2.5000 10.1503 -1.1161 -0.368 -0.570 0.735 189 138 117 0 0
2.5926 10.0212 -1.1726 -0.256 -0.693 0.674 186 135 114 0 0
2.6051 10.0121 -1.1783 -0.312 -0.566 0.763 175 125 104 0 0
2.7001 9.8858 -1.2348 -0.473 -0.492 0.731 193 144 128 0 0
2.7457 9.8204 -1.2630 -0.815 -0.495 0.299 184 136 122 0 0
2.8097 9.7762 -1.2919 -0.287 -0.526 0.801 181 132 116 0 0
3.0409 9.4299 -1.4382 -0.610 -0.455 0.649 177 121 100 0 0
3.0452 9.4118 -1.4435 -0.589 -0.302 0.749 208 153 132 0 0
5.5822 10.1691 -2.0225 -0.343 -0.635 0.693 197 166 143 0 0
5.5121 10.0323 -2.0326 -0.758 0.084 0.646 223 200 169 0 0
3.3009 7.7160 -1.9010 -0.410 -0.587 0.699 227 210 183 0 0
3.3511 7.6814 -1.9236 -0.153 -0.979 -0.138 232 213 184 0 0
3.3539 7.6650 -1.9281 -0.542 -0.479 0.691 228 210 182 0 0
3.4000 7.6828 -1.9377 -0.728 -0.365 0.581 228 211 183 0 0
3.4506 7.5737 -1.9772 -0.332 -0.828 0.453 227 207 180 0 0
3.5075 7.5068 -2.0091 -0.642 -0.567 0.515 231 214 186 0 0
3.5424 7.4598 -2.0300 -0.308 -0.730 0.610 233 214 187 0 0
3.7741 7.2651 -2.1423 -0.489 -0.822 -0.291 233 216 188 0 0
3.7914 7.2592 -2.1487 -0.792 -0.554 0.255 229 212 184 0 0
3.7987 7.2464 -2.1537 -0.792 -0.554 0.255 228 211 182 0 0
3.7991 7.2109 -2.1619 -0.984 -0.175 0.005 230 213 185 0 0
3.8102 7.1828 -2.1715 -0.508 -0.405 0.760 231 214 187 0 0
3.8485 7.1379 -2.1929 -0.426 -0.575 0.699 229 209 182 0 0
4.0832 6.8183 -2.3342 -0.237 -0.780 0.579 232 214 186 0 0
4.3587 6.4221 -2.5048 -0.434 -0.348 0.831 229 211 183 0 0
4.5452 6.0798 -2.6370 -0.586 -0.357 0.728 229 211 183 0 0
4.5724 6.0132 -2.6600 -0.237 -0.776 0.585 230 213 187 0 0
4.7130 5.8591 -2.7363 -0.506 -0.623 0.596 229 210 182 0 0
4.9763 5.7911 -2.8294 0.210 -0.915 0.344 240 240 239 0 0
1.8747 11.3558 -0.6782 -0.429 -0.230 0.873 245 242 239 0 0
1.8483 11.2865 -0.6859 -0.050 -0.463 0.885 247 244 241 0 0
1.8773 11.2481 -0.7031 -0.095 -0.411 0.907 243 239 233 0 0
1.9412 10.8029 -0.8219 -0.382 -0.500 0.777 202 155 139 0 0
2.1651 10.5479 -0.9455 -0.389 -0.406 0.827 182 127 106 0 0
2.2099 10.4560 -0.9794 -0.617 -0.458 0.640 169 120 99 0 0
2.5077 10.0959 -1.1485 -0.398 -0.594 0.700 198 147 128 0 0
2.5441 10.0679 -1.1656 -0.384 -0.545 0.745 198 146 125 0 0
2.6846 9.8765 -1.2502 -0.506 -0.477 0.719 167 121 106 0 0
2.6873 9.8560 -1.2556 -0.526 -0.525 0.668 171 124 108 0 0
2.6931 9.8390 -1.2611 -0.546 -0.504 0.670 193 147 131 0 0
2.8980 9.5813 -1.3797 -0.152 -0.728 0.668 191 137 119 0 0
2.9823 9.4441 -1.4355 -0.099 -0.821 0.563 173 118 98 0 0
3.1460 9.2776 -1.5214 -0.472 -0.297 0.830 192 138 115 0 0
3.2378 9.1483 -1.5776 -0.665 -0.307 0.681 152 99 77 0 0
4.4590 9.4601 -1.8702 0.543 -0.785 -0.297 125 82 65 0 0
4.6932 9.6217 -1.9035 0.464 -0.797 -0.387 137 96 78 0 0
4.7997 9.6921 -1.9192 0.440 -0.777 -0.450 143 102 84 0 0
4.9284 9.7818 -1.9373 0.450 -0.755 -0.477 153 110 93 0 0
5.0121 9.8312 -1.9511 0.456 -0.794 -0.403 138 93 76 0 0
5.1454 9.9238 -1.9699 0.390 -0.739 -0.549 139 93 74 0 0
5.2544 9.9945 -1.9864 0.491 -0.804 -0.335 134 87 69 0 0
5.5427 10.1442 -2.0384 -0.324 -0.465 0.824 201 170 146 0 0
5.5453 10.1210 -2.0444 -0.328 -0.767 0.552 220 195 165 0 0
3.1608 7.8523 -1.8453 -0.410 -0.683 0.604 234 217 189 0 0
3.2007 7.8100 -1.8667 -0.209 -0.849 0.485 228 211 183 0 0
3.2740 7.7197 -1.9086 -0.487 -0.585 0.649 230 213 187 0 0
3.6658 7.2668 -2.1264 -0.268 -0.684 0.678 233 213 185 0 0
4.0024 6.9466 -2.2981 -0.281 -0.883 0.377 230 211 181 0 0
4.0508 6.8214 -2.3406 -0.335 -0.737 0.587 232 214 184 0 0
4.0916 6.7266 -2.3739 -0.944 -0.041 0.327 229 212 184 0 0
4.1308 6.6484 -2.4031 -0.454 -0.544 0.706 229 209 182 0 0
4.1527 6.6446 -2.4104 -0.323 -0.774 0.544 226 208 180 0 0
4.3231 6.4578 -2.5029 -0.403 -0.870 0.285 228 209 179 0 0
4.3282 6.4441 -2.5075 -0.503 -0.749 0.430 230 211 181 0 0
4.3623 6.3635 -2.5356 -0.295 -0.736 0.609 229 212 184 0 0
4.3748 6.3538 -2.5415 -0.334 -0.751 0.570 231 214 186 0 0
4.3694 6.3344 -2.5443 -0.549 -0.425 0.719 229 212 184 0 0
4.3742 6.3206 -2.5488 -0.549 -0.425 0.719 227 210 182 0 0
4.9393 5.7796 -2.8378 0.217 -0.927 0.306 239 240 236 0 0
4.9993 5.7910 -2.8530 0.223 -0.953 0.206 239 239 237 0 0
1.8488 11.2982 -0.7016 -0.366 -0.174 0.914 244 244 239 0 0
1.8471 11.2678 -0.7079 -0.331 -0.170 0.928 244 244 240 0 0
1.9253 10.7898 -0.8379 -0.377 -0.486 0.788 172 125 109 0 0
2.1487 10.5097 -0.9670 -0.539 -0.359 0.762 178 125 104 0 0
2.1708 10.4890 -0.9782 -0.355 -0.643 0.678 189 138 117 0 0
2.1753 10.4696 -0.9839 -0.415 -0.686 0.598 198 147 126 0 0
2.1835 10.4554 -0.9895 -0.406 -0.697 0.591 193 143 122 0 0
2.1982 10.4499 -0.9951 -0.617 -0.458 0.640 191 142 121 0 0
2.2127 10.4442 -1.0007 -0.374 -0.609 0.699 181 130 109 0 0
2.2228 10.4325 -1.0063 -0.498 -0.518 0.695 174 124 102 0 0
2.2312 10.4185 -1.0120 -0.341 -0.539 0.770 185 135 114 0 0
2.2590 10.3800 -1.0288 -0.386 -0.606 0.695 184 129 108 0 0
2.2675 10.3661 -1.0345 -0.381 -0.563 0.733 184 129 108 0 0
2.4900 10.1077 -1.1585 -0.913 -0.235 0.334 200 149 130 0 0
2.4992 10.0704 -1.1695 -0.728 -0.287 0.623 183 132 112 0 0
2.5097 10.0591 -1.1752 -0.305 -0.656 0.690 183 132 111 0 0
2.6836 9.8369 -1.2766 -0.778 -0.408 0.478 177 130 112 0 0
2.6925 9.8236 -1.2822 -0.577 -0.383 0.721 192 144 128 0 0
2.9342 9.4918 -1.4284 -0.430 -0.655 0.622 179 127 106 0 0
2.9785 9.4258 -1.4563 -0.211 -0.678 0.704 175 120 100 0 0
3.1428 9.2380 -1.5472 -0.460 -0.416 0.785 171 116 95 0 0
3.1499 9.2230 -1.5526 -0.507 -0.455 0.732 192 136 115 0 0
3.1556 9.2066 -1.5580 -0.624 -0.308 0.718 181 124 104 0 0
3.1725 9.1794 -1.5691 -0.403 -0.669 0.624 189 133 112 0 0
3.2904 9.0111 -1.6418 -0.303 -0.786 0.539 191 139 118 0 0
4.4485 9.4592 -1.8871 0.543 -0.785 -0.297 130 87 70 0 0
4.8122 9.7120 -1.9391 0.426 -0.759 -0.492 136 93 77 0 0
5.0195 9.8466 -1.9708 0.444 -0.785 -0.433 136 92 73 0 0
5.1689 9.9535 -1.9915 0.389 -0.736 -0.554 139 94 75 0 0
5.2855 10.0308 -2.0090 0.468 -0.790 -0.396 136 89 71 0 0
5.5223 10.1359 -2.0562 -0.345 -0.339 0.875 206 178 153 0 0
5.5295 10.1165 -2.0626 -0.065 -0.937 0.343 225 199 169 0 0
5.5706 10.1265 -2.0727 0.241 -0.904 -0.353 228 203 172 0 0
3.1755 7.8147 -1.8746 -0.274 -0.821 0.500 229 212 184 0 0
3.1877 7.8060 -1.8801 -0.387 -0.784 0.486 231 214 186 0 0
3.2419 7.7378 -1.9115 -0.763 -0.396 0.510 229 212 186 0 0
3.2663 7.7016 -1.9269 -0.455 -0.467 0.759 237 220 194 0 0
3.5027 7.4613 -2.0510 -0.183 -0.754 0.630 232 212 184 0 0
3.6440 7.2577 -2.1385 -0.418 -0.705 0.573 234 214 187 0 0
3.6695 7.2400 -2.1501 -0.384 -0.604 0.699 230 211 182 0 0
3.9498 6.8497 -2.3207 -0.564 -0.507 0.652 231 211 184 0 0
4.0914 6.7324 -2.3891 -0.935 0.106 0.338 229 212 184 0 0
4.1151 6.6448 -2.4157 -0.368 -0.645 0.670 232 212 185 0 0
4.1290 6.6363 -2.4218 -0.320 -0.815 0.483 230 210 183 0 0
4.2669 6.4817 -2.4974 -0.556 -0.589 0.587 232 214 188 0 0
4.2904 6.4617 -2.5088 -0.512 -0.269 0.816 228 209 179 0 0
4.3116 6.4404 -2.5199 -0.467 -0.620 0.630 230 210 183 0 0
4.3192 6.3619 -2.5397 -0.508 -0.804 0.308 227 210 182 0 0
4.3284 6.3505 -2.5450 -0.410 -0.810 0.420 227 210 182 0 0
4.3403 6.3405 -2.5508 -0.546 -0.658 0.519 228 211 183 0 0
4.3475 6.3281 -2.5557 -0.585 -0.597 0.549 231 214 186 0 0
4.9634 5.7800 -2.8616 0.219 -0.958 0.184 238 238 239 0 0
1.8191 11.2629 -0.7188 -0.331 -0.170 0.928 244 244 239 0 0
2.1336 10.4989 -0.9827 -0.539 -0.359 0.762 176 125 103 0 0
2.1571 10.4800 -0.9939 -0.355 -0.643 0.678 193 144 122 0 0
2.1609 10.4598 -0.9996 -0.471 -0.550 0.689 180 129 108 0 0
2.1706 10.4477 -1.0052 -0.458 -0.658 0.598 178 126 105 0 0
2.1799 10.4350 -1.0108 -0.450 -0.612 0.650 193 142 121 0 0
2.2499 10.3775 -1.0445 -0.245 -0.634 0.734 169 118 98 0 0
2.2525 10.3559 -1.0501 -0.381 -0.563 0.733 189 138 118 0 0
2.4953 10.0505 -1.1906 -0.586 -0.388 0.712 192 141 120 0 0
2.5245 10.0139 -1.2075 -0.422 -0.571 0.704 186 137 117 0 0
2.6766 9.8376 -1.2922 -0.911 -0.318 0.262 196 147 128 0 0
2.6834 9.8220 -1.2977 -0.638 -0.368 0.676 194 144 127 0 0
2.7399 9.7461 -1.3315 -0.200 -0.644 0.739 189 142 122 0 0
2.7627 9.7021 -1.3481 -0.359 -0.606 0.710 172 120 100 0 0
2.7900 9.6632 -1.3649 -0.325 -0.536 0.779 174 117 99 0 0
2.9049 9.4913 -1.4375 -0.730 -0.497 0.469 184 131 112 0 0
2.9113 9.4755 -1.4429 -0.734 -0.639 0.228 164 111 92 0 0
2.9238 9.4662 -1.4487 -0.680 -0.547 0.489 178 127 107 0 0
2.9314 9.4517 -1.4542 -0.789 -0.506 0.348 177 125 106 0 0
2.9956 9.3845 -1.4884 -0.383 -0.474 0.793 168 114 94 0 0
3.0284 9.3290 -1.5105 -0.315 -0.506 0.803 165 110 90 0 0
3.1344 9.2154 -1.5675 -0.455 -0.493 0.742 192 137 116 0 0
3.3924 8.9869 -1.6955 -0.639 -0.699 0.320 161 111 91 0 0
3.4942 8.9531 -1.7335 -0.208 -0.789 0.578 179 129 107 0 0
4.4381 9.4584 -1.9039 0.543 -0.785 -0.297 131 88 69 0 0
