ply
format ascii 1.0
element vertex 819
property float x
property float y
property float z
property float nx
property float ny
property float nz
property uchar diffuse_red
property uchar diffuse_green
property uchar diffuse_blue
property uchar class
property uchar detection
end_header
7.0657 6.9108 -1.4337 -0.479 -0.878 0.002 189 170 138 0 0
7.1843 6.8733 -1.4511 -0.511 -0.855 0.085 184 169 138 0 0
8.4187 7.2455 -1.5215 0.498 -0.849 -0.178 250 250 248 0 0
8.1516 7.0238 -1.5270 -0.576 -0.801 -0.160 251 251 251 0 0
2.5756 11.6728 -0.3029 -0.282 -0.476 0.833 245 245 240 0 0
2.6483 11.4710 -0.3395 0.137 -0.895 0.425 182 143 129 0 0
3.3799 10.6336 -0.5356 -0.210 -0.618 0.758 182 129 107 0 0
3.6623 10.4988 -0.5840 -0.394 -0.516 0.761 191 138 120 0 0
4.0435 10.1313 -0.6762 -0.291 -0.667 0.686 203 154 134 0 0
4.0722 10.1078 -0.6825 -0.301 -0.690 0.658 168 113 93 0 0
4.4663 9.8652 -0.7579 -0.340 -0.719 0.606 178 128 108 0 0
6.1777 7.9829 -1.2055 -0.946 -0.265 0.186 203 178 145 0 0
6.3348 7.4289 -1.3018 -0.369 -0.877 0.307 202 183 152 0 0
6.7298 7.0573 -1.3960 -0.704 -0.708 0.045 190 173 143 0 0
7.0992 6.8973 -1.4569 -0.584 -0.811 0.020 188 170 137 0 0
7.1852 6.8773 -1.4686 -0.403 -0.909 0.107 183 165 135 0 0
8.4244 7.2528 -1.5406 0.498 -0.849 -0.178 250 250 248 0 0
2.5630 11.7455 -0.3107 -0.962 0.085 0.259 246 243 241 0 0
2.5983 11.4561 -0.3559 -0.095 -0.995 0.033 167 133 122 0 0
3.2318 10.7507 -0.5225 -0.043 -0.791 0.610 196 145 124 0 0
3.3840 10.6095 -0.5585 -0.306 -0.634 0.710 181 129 105 0 0
3.3990 10.5988 -0.5616 -0.306 -0.634 0.710 188 136 112 0 0
3.9351 10.2421 -0.6681 -0.381 -0.657 0.650 186 137 120 0 0
4.1486 10.0618 -0.7160 -0.257 -0.620 0.741 189 138 118 0 0
4.1613 10.0475 -0.7194 -0.517 -0.459 0.722 192 141 122 0 0
4.1885 10.0552 -0.7210 -0.331 -0.749 0.574 189 138 116 0 0
4.2173 10.0317 -0.7274 -0.467 -0.625 0.625 178 123 102 0 0
4.2522 10.0174 -0.7330 -0.331 -0.913 0.238 180 128 107 0 0
4.2697 10.0103 -0.7359 -0.331 -0.913 0.238 181 133 113 0 0
4.4042 9.8786 -0.7686 -0.505 -0.426 0.751 171 120 101 0 0
4.6585 9.6615 -0.8260 -0.542 -0.433 0.720 187 135 113 0 0
4.6714 9.6479 -0.8293 -0.846 -0.211 0.490 194 140 119 0 0
4.6758 9.6225 -0.8334 -0.870 -0.146 0.472 183 128 107 0 0
4.6887 9.6090 -0.8367 -0.320 -0.616 0.720 189 134 113 0 0
4.7039 9.5985 -0.8398 -0.226 -0.641 0.733 183 129 105 0 0
6.4543 8.9743 -1.1098 0.326 -0.944 -0.046 251 250 248 0 0
6.2159 8.4199 -1.1649 -0.914 -0.076 0.399 196 168 133 0 0
6.1669 7.9528 -1.2270 -0.796 -0.423 -0.433 204 180 146 0 0
6.3410 7.4379 -1.3190 -0.617 -0.772 -0.152 200 181 149 0 0
6.3554 7.4057 -1.3251 -0.401 -0.780 -0.481 204 183 153 0 0
7.0826 6.9092 -1.4713 -0.597 -0.802 0.005 183 166 133 0 0
7.1828 6.8789 -1.4860 -0.262 -0.963 -0.067 174 155 125 0 0
2.5174 11.6935 -0.3329 -0.774 -0.130 0.620 245 244 242 0 0
2.5201 11.6526 -0.3391 -0.883 -0.068 0.464 247 244 241 0 0
3.1627 10.7432 -0.5354 -0.379 -0.715 0.587 191 140 117 0 0
3.3678 10.5865 -0.5791 -0.459 -0.551 0.697 178 126 103 0 0
3.3814 10.5733 -0.5824 -0.346 -0.644 0.683 160 108 84 0 0
3.7272 10.2953 -0.6579 -0.636 -0.488 0.598 202 151 132 0 0
4.0010 10.1449 -0.7078 -0.590 -0.495 0.638 185 136 119 0 0
4.0217 10.1089 -0.7151 -0.613 -0.471 0.635 191 142 125 0 0
4.0595 10.0656 -0.7252 -0.403 -0.563 0.722 182 133 115 0 0
4.1319 10.0419 -0.7361 -0.289 -0.685 0.669 180 128 107 0 0
4.1474 10.0320 -0.7391 -0.555 -0.447 0.702 187 135 116 0 0
4.2453 10.0127 -0.7521 -0.374 -0.926 0.047 183 131 110 0 0
4.2633 10.0064 -0.7548 -0.311 -0.931 0.190 188 138 117 0 0
4.6779 9.5996 -0.8559 -0.450 -0.474 0.757 197 144 122 0 0
4.6890 9.5836 -0.8593 -0.450 -0.474 0.757 201 148 126 0 0
4.8450 9.5146 -0.8854 -0.132 -0.793 0.595 193 147 124 0 0
4.8642 9.5093 -0.8881 -0.132 -0.793 0.595 213 166 143 0 0
6.2075 8.3904 -1.1872 -0.983 -0.124 0.135 196 165 129 0 0
6.1779 7.9191 -1.2513 -0.864 -0.304 -0.403 202 178 144 0 0
6.4122 7.3687 -1.3540 -0.426 -0.883 0.199 201 181 150 0 0
6.4388 7.3689 -1.3568 -0.622 -0.731 -0.281 201 181 149 0 0
6.4445 7.3517 -1.3598 -0.583 -0.798 -0.153 200 181 151 0 0
6.5720 7.1951 -1.3954 -0.741 -0.657 -0.140 186 169 139 0 0
7.3263 6.8410 -1.5243 -0.215 -0.974 -0.072 194 176 146 0 0
2.4632 11.5265 -0.3704 -0.250 -0.546 0.800 244 245 241 0 0
2.6881 11.0535 -0.4607 -0.336 -0.675 0.657 192 147 127 0 0
3.0480 10.7644 -0.5393 -0.226 -0.555 0.801 184 132 110 0 0
3.3351 10.6091 -0.5914 -0.458 -0.472 0.753 173 122 101 0 0
3.3466 10.5921 -0.5950 -0.458 -0.472 0.753 172 120 99 0 0
3.3558 10.5710 -0.5989 -0.418 -0.625 0.659 165 111 89 0 0
3.3697 10.5586 -0.6022 -0.346 -0.644 0.683 168 113 92 0 0
3.5062 10.4665 -0.6295 -0.431 -0.748 0.504 197 145 124 0 0
3.7172 10.2846 -0.6773 -0.636 -0.488 0.598 195 147 127 0 0
3.7267 10.2648 -0.6811 -0.275 -0.710 0.648 189 141 119 0 0
4.0328 10.0637 -0.7416 -0.403 -0.563 0.722 169 122 102 0 0
4.1444 9.9995 -0.7624 -0.530 -0.427 0.733 182 129 108 0 0
4.2930 9.8579 -0.7980 -0.196 -0.808 0.555 197 145 126 0 0
4.6324 9.6052 -0.8693 -0.425 -0.572 0.701 189 139 118 0 0
4.6392 9.5833 -0.8731 -0.646 -0.390 0.656 195 143 122 0 0
4.8094 9.5035 -0.9022 -0.176 -0.725 0.666 179 127 106 0 0
4.8509 9.4970 -0.9075 -0.132 -0.793 0.595 178 127 105 0 0
6.4400 10.1422 -0.9831 0.329 -0.944 -0.040 136 88 74 0 0
6.2028 8.4156 -1.2020 -0.974 -0.204 0.101 199 171 134 0 0
6.1660 8.1053 -1.2420 -0.742 -0.512 0.434 196 169 136 0 0
6.1755 8.0898 -1.2452 -0.802 -0.554 0.224 198 172 139 0 0
6.1845 7.9053 -1.2722 -0.854 -0.452 0.260 200 176 142 0 0
6.4020 7.3638 -1.3714 -0.439 -0.871 0.221 201 180 151 0 0
6.4983 7.2686 -1.3950 -0.745 -0.667 0.022 195 178 150 0 0
6.5112 7.2574 -1.3979 -0.774 -0.605 -0.186 195 178 149 0 0
7.0890 6.9207 -1.5061 -0.512 -0.794 -0.328 186 168 138 0 0
2.4588 11.6653 -0.3697 -0.722 -0.005 0.692 245 244 242 0 0
2.3617 11.3867 -0.3984 -0.091 -0.930 0.356 245 244 242 0 0
2.3792 11.3821 -0.4009 -0.340 -0.877 0.339 246 245 243 0 0
2.9396 10.8367 -0.5366 -0.326 -0.529 0.784 162 115 94 0 0
2.9544 10.8261 -0.5396 -0.390 -0.585 0.711 173 125 103 0 0
3.3407 10.5499 -0.6192 -0.275 -0.652 0.706 175 120 99 0 0
3.3557 10.5394 -0.6222 -0.393 -0.570 0.721 171 116 95 0 0
3.3647 10.5181 -0.6262 -0.120 -0.757 0.642 181 126 105 0 0
3.3836 10.5149 -0.6286 -0.234 -0.816 0.529 187 132 111 0 0
3.4958 10.4546 -0.6490 -0.399 -0.771 0.496 193 141 119 0 0
3.7029 10.2667 -0.6972 -0.578 -0.486 0.655 190 140 119 0 0
3.7125 10.2472 -0.7009 -0.398 -0.641 0.656 192 142 121 0 0
3.7581 10.2168 -0.7100 -0.128 -0.900 0.416 177 127 107 0 0
3.7754 10.2103 -0.7128 -0.182 -0.821 0.542 172 122 103 0 0
4.2793 9.8432 -0.8175 -0.066 -0.937 0.344 202 151 131 0 0
4.2994 9.8402 -0.8200 -0.258 -0.846 0.468 196 145 125 0 0
4.3200 9.8377 -0.8226 -0.259 -0.770 0.583 200 149 128 0 0
4.3344 9.8264 -0.8257 -0.161 -0.767 0.622 197 147 125 0 0
4.3539 9.8222 -0.8283 -0.062 -0.807 0.587 209 158 136 0 0
4.6293 9.5751 -0.8921 -0.436 -0.550 0.712 202 153 131 0 0
4.7693 9.5167 -0.9151 -0.264 -0.715 0.647 204 155 133 0 0
4.8097 9.4785 -0.9247 -0.329 -0.823 0.463 184 134 111 0 0
4.8527 9.4741 -0.9299 -0.231 -0.916 0.329 178 129 106 0 0
6.4244 8.9575 -1.1686 0.331 -0.904 -0.272 249 249 247 0 0
6.2052 8.4221 -1.2203 -0.962 -0.271 -0.038 198 169 132 0 0
6.1492 7.9481 -1.2807 -0.760 -0.605 -0.237 198 173 141 0 0
6.1742 7.9236 -1.2868 -0.911 -0.382 0.156 206 182 150 0 0
6.1881 7.8414 -1.2997 -0.691 -0.697 -0.192 199 174 143 0 0
6.1968 7.8022 -1.3061 -0.839 -0.545 -0.001 192 168 136 0 0
6.4946 7.2691 -1.4123 -0.711 -0.695 0.106 197 181 152 0 0
6.5062 7.2569 -1.4152 -0.711 -0.695 0.106 198 181 153 0 0
6.5177 7.2446 -1.4182 -0.711 -0.695 0.106 196 176 149 0 0
6.5287 7.2319 -1.4211 -0.673 -0.735 0.090 199 179 152 0 0
6.8652 7.0069 -1.4882 -0.738 -0.673 0.054 190 173 147 0 0
7.1098 6.9185 -1.5265 -0.534 -0.828 -0.173 185 167 135 0 0
8.3449 7.2134 -1.6160 0.459 -0.868 -0.188 250 250 250 0 0
2.4180 11.6707 -0.3840 -0.943 0.109 0.315 245 245 241 0 0
2.3856 11.4985 -0.4045 -0.597 -0.369 0.712 245 245 240 0 0
2.3551 11.3790 -0.4178 0.067 -0.937 0.344 246 244 240 0 0
2.3736 11.3769 -0.4200 -0.340 -0.877 0.339 245 244 241 0 0
2.5387 11.0852 -0.4781 -0.313 -0.533 0.786 183 134 114 0 0
2.5811 11.0494 -0.4876 -0.277 -0.561 0.780 205 158 138 0 0
2.6114 11.0299 -0.4936 -0.179 -0.692 0.699 188 141 121 0 0
2.7280 10.9841 -0.5124 -0.543 -0.461 0.702 186 137 117 0 0
2.7670 10.9407 -0.5226 -0.448 -0.514 0.732 199 151 131 0 0
3.2513 10.6200 -0.6188 -0.403 -0.593 0.697 166 113 92 0 0
3.3182 10.5530 -0.6352 -0.345 -0.563 0.751 176 124 103 0 0
3.4566 10.4284 -0.6673 -0.207 -0.621 0.756 156 100 80 0 0
3.7070 10.2086 -0.7245 -0.129 -0.779 0.614 181 130 107 0 0
4.2903 9.8324 -0.8390 -0.368 -0.651 0.664 190 139 118 0 0
4.3088 9.8270 -0.8418 -0.259 -0.770 0.583 194 143 122 0 0
4.7453 9.4901 -0.9351 -0.406 -0.661 0.630 201 153 131 0 0
6.6909 9.2050 -1.1826 -0.827 0.548 0.127 248 249 246 0 0
6.1953 8.4166 -1.2389 -0.968 -0.182 0.175 197 169 132 0 0
6.1505 7.9534 -1.2984 -0.760 -0.605 -0.237 201 176 144 0 0
6.3319 7.4671 -1.3852 -0.584 -0.791 -0.183 197 174 142 0 0
6.5313 7.2376 -1.4383 -0.643 -0.753 -0.141 195 176 149 0 0
6.5660 7.2009 -1.4471 -0.751 -0.646 -0.138 196 178 149 0 0
7.0904 6.9284 -1.5410 -0.299 -0.948 0.108 183 164 133 0 0
8.3129 7.1523 -1.6405 0.129 -0.982 -0.138 248 249 250 0 0
2.4101 11.6598 -0.4041 -0.943 0.109 0.315 246 244 242 0 0
2.5679 11.0276 -0.5080 -0.277 -0.561 0.780 198 151 132 0 0
2.5827 11.0172 -0.5110 -0.178 -0.635 0.752 200 153 135 0 0
2.5987 11.0094 -0.5138 -0.178 -0.635 0.752 193 146 128 0 0
2.7298 10.9531 -0.5357 -0.436 -0.529 0.728 185 137 117 0 0
2.7549 10.9224 -0.5426 -0.345 -0.606 0.716 196 148 128 0 0
2.7649 10.9019 -0.5465 -0.321 -0.585 0.745 192 144 123 0 0
2.8134 10.8789 -0.5549 -0.265 -0.620 0.738 165 117 94 0 0
2.8187 10.8486 -0.5596 -0.350 -0.525 0.776 169 122 101 0 0
2.8893 10.7893 -0.5754 -0.683 -0.324 0.655 186 137 115 0 0
2.9854 10.7410 -0.5924 -0.577 -0.773 0.263 197 149 127 0 0
2.9988 10.7277 -0.5956 -0.452 -0.649 0.612 192 142 121 0 0
3.0337 10.6776 -0.6063 -0.317 -0.642 0.698 183 130 108 0 0
3.0477 10.6656 -0.6094 -0.540 -0.531 0.654 173 120 99 0 0
3.0726 10.6355 -0.6163 -0.126 -0.878 0.461 190 141 119 0 0
3.1665 10.6210 -0.6284 -0.146 -0.734 0.664 173 122 102 0 0
4.2234 9.8371 -0.8500 -0.315 -0.653 0.689 202 153 136 0 0
4.6510 9.5223 -0.9394 -0.179 -0.674 0.716 189 142 122 0 0
4.7418 9.4601 -0.9577 -0.221 -0.692 0.687 202 153 131 0 0
4.8918 9.4444 -0.9761 -0.246 -0.919 0.307 167 116 94 0 0
4.9784 9.4353 -0.9867 0.092 -0.985 0.145 172 121 94 0 0
6.1655 7.9234 -1.3224 -0.755 -0.642 0.136 198 174 140 0 0
6.3442 7.4589 -1.4055 -0.638 -0.747 -0.185 201 178 147 0 0
6.3588 7.4491 -1.4084 -0.471 -0.881 0.046 199 177 146 0 0
6.4839 7.2675 -1.4469 -0.454 -0.891 0.015 200 184 158 0 0
6.4980 7.2573 -1.4498 -0.559 -0.827 0.055 191 174 147 0 0
6.5124 7.2474 -1.4527 -0.559 -0.827 0.055 195 178 150 0 0
6.5321 7.2417 -1.4556 -0.695 -0.712 0.101 195 178 150 0 0
7.1057 6.9223 -1.5614 -0.489 -0.872 0.006 178 161 131 0 0
8.1700 7.0600 -1.6572 -0.274 -0.653 -0.706 249 250 251 0 0
2.4322 11.2568 -0.4807 -0.619 -0.169 0.767 207 154 132 0 0
2.4769 11.0488 -0.5139 -0.566 -0.373 0.735 196 150 134 0 0
2.5425 11.0218 -0.5247 -0.389 -0.534 0.750 198 150 129 0 0
2.5555 11.0076 -0.5281 -0.389 -0.534 0.750 196 149 129 0 0
2.5696 10.9959 -0.5312 -0.311 -0.607 0.731 189 142 123 0 0
2.9713 10.7199 -0.6125 -0.661 -0.484 0.573 189 141 119 0 0
3.1396 10.6153 -0.6450 -0.357 -0.493 0.794 190 139 120 0 0
4.0432 9.9342 -0.8360 -0.401 -0.901 0.168 195 142 124 0 0
4.0854 9.9322 -0.8409 -0.260 -0.673 0.692 198 144 123 0 0
4.7603 9.4593 -0.9787 -0.776 -0.610 0.161 188 139 115 0 0
4.9104 9.4434 -0.9972 -0.537 -0.827 0.165 165 113 92 0 0
5.9602 9.9160 -1.0470 0.339 -0.852 -0.398 131 82 65 0 0
6.4323 8.9792 -1.2259 0.313 -0.826 0.469 250 249 246 0 0
6.3809 8.8997 -1.2312 0.392 -0.916 -0.085 249 248 244 0 0
6.4761 8.9418 -1.2358 0.441 -0.893 -0.091 232 227 221 0 0
6.1700 8.1008 -1.3170 -0.741 -0.627 -0.238 195 170 136 0 0
6.2422 7.7381 -1.3743 -0.812 -0.584 -0.004 189 165 131 0 0
6.3533 7.4481 -1.4258 -0.617 -0.776 -0.129 199 178 147 0 0
6.3957 7.3731 -1.4407 -0.418 -0.886 0.199 194 175 142 0 0
6.4534 7.3552 -1.4494 -0.573 -0.816 0.077 195 176 146 0 0
6.4668 7.3444 -1.4523 -0.640 -0.767 -0.043 196 177 149 0 0
6.4841 7.2712 -1.4641 -0.463 -0.857 0.228 196 180 152 0 0
6.4990 7.2617 -1.4671 -0.518 -0.833 0.193 194 177 149 0 0
6.5063 7.2460 -1.4700 -0.570 -0.787 0.235 190 173 145 0 0
6.5522 7.2183 -1.4787 -0.680 -0.725 -0.112 193 176 148 0 0
6.5661 7.2081 -1.4817 -0.751 -0.646 -0.138 189 172 142 0 0
6.5869 7.1817 -1.4875 -0.567 -0.823 -0.022 187 170 142 0 0
2.4745 11.0508 -0.5320 -0.317 -0.591 0.741 191 145 129 0 0
2.5318 11.0056 -0.5444 -0.444 -0.524 0.727 205 157 137 0 0
2.7968 10.8174 -0.5989 -0.444 -0.550 0.708 201 154 133 0 0
2.8128 10.8096 -0.6017 -0.166 -0.760 0.629 203 155 135 0 0
2.8261 10.7962 -0.6050 -0.335 -0.649 0.683 203 154 134 0 0
2.8555 10.7751 -0.6110 -0.612 -0.457 0.646 195 146 125 0 0
2.8627 10.7492 -0.6153 -0.671 -0.376 0.639 188 136 115 0 0
2.8762 10.7363 -0.6185 -0.351 -0.616 0.705 195 143 121 0 0
2.9306 10.7256 -0.6260 -0.134 -0.741 0.658 179 128 108 0 0
2.9592 10.7027 -0.6322 -0.423 -0.698 0.577 179 130 108 0 0
3.6066 10.1997 -0.7711 -0.326 -0.570 0.754 184 134 111 0 0
3.9911 9.9264 -0.8501 -0.231 -0.574 0.786 194 145 128 0 0
4.0654 9.9073 -0.8609 -0.400 -0.633 0.662 185 130 109 0 0
4.0778 9.8930 -0.8642 -0.480 -0.543 0.689 168 116 94 0 0
4.1285 9.8048 -0.8816 -0.097 -0.735 0.671 197 147 128 0 0
4.9185 9.4287 -1.0190 -0.177 -0.889 0.423 165 113 92 0 0
6.4156 8.9668 -1.2456 0.206 -0.816 0.540 249 248 246 0 0
6.1678 7.9573 -1.3546 -0.364 -0.763 -0.534 191 165 132 0 0
6.2391 7.7159 -1.3950 -0.826 -0.564 -0.001 197 173 139 0 0
6.2440 7.6971 -1.3981 -0.869 -0.494 0.032 198 174 140 0 0
6.3786 7.3843 -1.4550 -0.525 -0.851 -0.012 198 176 147 0 0
6.4083 7.3873 -1.4579 -0.620 -0.745 -0.244 195 176 144 0 0
6.5498 7.2200 -1.4960 -0.703 -0.698 -0.139 193 176 148 0 0
6.5617 7.2080 -1.4989 -0.702 -0.705 -0.105 194 177 148 0 0
6.5848 7.1836 -1.5048 -0.567 -0.823 -0.022 185 168 140 0 0
6.5993 7.1737 -1.5077 -0.567 -0.823 -0.022 194 177 149 0 0
8.3528 7.2111 -1.6950 0.323 -0.902 -0.287 249 249 248 0 0
2.3694 11.6818 -0.4547 -0.749 0.042 0.661 246 245 243 0 0
2.5183 10.9832 -0.5646 -0.373 -0.591 0.715 193 145 125 0 0
2.8422 10.7550 -0.6309 -0.592 -0.391 0.705 176 124 103 0 0
2.8531 10.7366 -0.6346 -0.448 -0.493 0.746 172 120 98 0 0
2.8641 10.7187 -0.6382 -0.451 -0.522 0.724 164 112 90 0 0
2.8772 10.7050 -0.6415 -0.541 -0.458 0.705 171 121 99 0 0
3.0526 10.5780 -0.6779 -0.657 -0.402 0.638 187 137 117 0 0
3.3221 10.3609 -0.7367 -0.303 -0.550 0.778 170 117 93 0 0
3.8779 9.9567 -0.8523 -0.367 -0.749 0.552 174 123 102 0 0
3.8927 9.9463 -0.8553 -0.279 -0.667 0.690 189 138 117 0 0
3.9874 9.8928 -0.8729 -0.461 -0.485 0.743 191 141 123 0 0
4.0991 9.7990 -0.8978 -0.382 -0.603 0.700 198 147 126 0 0
4.5480 9.4905 -0.9887 -0.243 -0.690 0.682 179 128 106 0 0
4.5645 9.4822 -0.9917 -0.221 -0.750 0.624 181 129 106 0 0
4.9086 9.4211 -1.0379 -0.097 -0.986 0.137 162 111 91 0 0
4.9359 9.4262 -1.0403 -0.775 -0.518 0.362 182 131 111 0 0
6.1906 8.4290 -1.3124 -0.992 0.100 -0.072 201 172 137 0 0
6.1825 8.3195 -1.3261 -0.998 -0.037 0.055 189 159 122 0 0
6.5502 7.2239 -1.5133 -0.659 -0.715 -0.233 192 177 150 0 0
6.8998 7.0293 -1.5780 -0.474 -0.851 -0.227 184 167 139 0 0
6.9153 7.0200 -1.5809 -0.719 -0.644 -0.260 187 170 142 0 0
7.1866 6.9085 -1.6259 -0.201 -0.943 -0.264 188 171 141 0 0
7.2337 6.8805 -1.6348 -0.610 -0.755 -0.238 189 172 145 0 0
8.2890 7.1932 -1.7098 0.324 -0.881 -0.345 249 249 248 0 0
8.3610 7.2201 -1.7142 0.323 -0.902 -0.287 249 249 247 0 0
2.5789 10.8682 -0.6052 -0.396 -0.732 0.555 177 127 105 0 0
2.6140 10.8600 -0.6102 -0.348 -0.720 0.600 187 135 113 0 0
2.7571 10.7901 -0.6354 -0.022 -0.811 0.585 171 120 98 0 0
2.7722 10.7806 -0.6384 -0.370 -0.746 0.554 150 99 78 0 0
2.8290 10.7348 -0.6508 -0.566 -0.364 0.739 196 142 122 0 0
2.8379 10.7127 -0.6547 -0.372 -0.450 0.812 183 130 108 0 0
2.8498 10.6967 -0.6582 -0.372 -0.450 0.812 180 128 106 0 0
3.3076 10.3411 -0.7563 -0.303 -0.550 0.778 175 121 99 0 0
4.3447 9.5861 -0.9721 -0.575 -0.697 0.429 196 149 126 0 0
4.7916 9.3948 -1.0473 -0.275 -0.795 0.541 159 109 86 0 0
4.9177 9.4078 -1.0597 -0.712 -0.675 0.191 173 124 104 0 0
6.4454 8.9243 -1.2942 0.444 -0.883 0.151 247 246 242 0 0
6.1949 8.3358 -1.3442 -0.814 -0.178 -0.553 187 157 119 0 0
6.1626 7.9845 -1.3871 -0.709 -0.704 -0.035 193 166 133 0 0
6.1721 7.9694 -1.3901 -0.750 -0.644 0.151 191 165 133 0 0
6.2316 7.7168 -1.4302 -0.869 -0.494 0.032 198 173 138 0 0
6.2830 7.6472 -1.4452 -0.638 -0.735 -0.232 196 175 144 0 0
6.3759 7.3893 -1.4897 -0.536 -0.832 -0.142 180 160 131 0 0
6.6779 7.1362 -1.5569 -0.439 -0.886 -0.152 186 169 143 0 0
6.8710 7.0109 -1.5951 -0.366 -0.928 -0.069 180 163 135 0 0
6.9049 7.0156 -1.5982 -0.546 -0.777 0.313 189 172 144 0 0
7.2051 6.9045 -1.6464 -0.484 -0.871 0.089 191 172 145 0 0
8.3683 7.2285 -1.7334 0.292 -0.896 -0.335 249 249 247 0 0
2.1952 11.4608 -0.5028 -0.565 -0.219 0.795 245 244 241 0 0
2.5270 10.8889 -0.6152 -0.103 -0.868 0.485 185 135 115 0 0
2.5404 10.8758 -0.6184 -0.135 -0.927 0.350 175 125 105 0 0
2.5563 10.8685 -0.6212 -0.534 -0.682 0.499 187 136 116 0 0
2.5713 10.8590 -0.6241 -0.357 -0.892 0.278 200 149 128 0 0
2.6219 10.8425 -0.6320 -0.258 -0.908 0.330 171 120 99 0 0
2.6533 10.8262 -0.6376 -0.316 -0.827 0.464 172 120 99 0 0
3.1570 10.4444 -0.7444 -0.329 -0.614 0.717 177 123 103 0 0
3.1718 10.4343 -0.7474 -0.423 -0.519 0.743 198 144 123 0 0
3.7699 9.9655 -0.8762 -0.413 -0.476 0.777 193 141 120 0 0
4.2403 9.6313 -0.9730 -0.351 -0.729 0.588 168 116 94 0 0
4.3228 9.5603 -0.9916 -0.542 -0.621 0.566 210 166 145 0 0
4.6877 9.3839 -1.0558 -0.012 -0.981 0.194 177 126 103 0 0
4.7085 9.3812 -1.0585 -0.116 -0.965 0.237 187 135 113 0 0
4.7801 9.3848 -1.0661 -0.314 -0.704 0.637 175 121 100 0 0
4.8972 9.3865 -1.0791 -0.200 -0.910 0.362 182 132 113 0 0
6.3710 8.8806 -1.3114 0.441 -0.880 0.176 247 247 245 0 0
6.4816 8.9382 -1.3163 0.436 -0.872 0.222 204 195 181 0 0
6.4743 8.9038 -1.3200 -0.846 0.531 -0.050 187 164 138 0 0
6.2000 8.4724 -1.3456 -0.980 0.118 -0.161 194 163 125 0 0
6.2748 7.6437 -1.4627 -0.647 -0.715 0.264 194 171 140 0 0
8.3789 7.2392 -1.7527 0.292 -0.896 -0.335 249 249 249 0 0
2.5023 10.8843 -0.6315 -0.337 -0.569 0.750 195 143 121 0 0
2.6157 10.8364 -0.6506 -0.121 -0.975 0.187 156 106 84 0 0
2.6449 10.8156 -0.6566 -0.173 -0.895 0.412 171 119 97 0 0
3.1176 10.4527 -0.7574 -0.321 -0.763 0.562 180 131 109 0 0
3.1324 10.4427 -0.7604 -0.427 -0.791 0.438 178 128 108 0 0
3.1439 10.4264 -0.7638 -0.469 -0.715 0.519 185 135 115 0 0
3.7189 9.9913 -0.8856 -0.437 -0.552 0.710 181 130 109 0 0
3.9497 9.8515 -0.9300 -0.109 -0.855 0.506 185 136 119 0 0
4.0683 9.7042 -0.9626 -0.283 -0.681 0.675 179 127 106 0 0
4.0994 9.6860 -0.9685 -0.333 -0.733 0.593 185 130 109 0 0
4.2456 9.6126 -0.9946 -0.566 -0.652 0.505 193 141 119 0 0
4.6594 9.3816 -1.0716 -0.355 -0.884 -0.303 164 113 91 0 0
4.7087 9.3865 -1.0766 -0.059 -0.998 -0.025 177 125 103 0 0
4.7223 9.3743 -1.0797 -0.192 -0.967 0.168 169 117 94 0 0
4.8880 9.3797 -1.0978 -0.265 -0.891 0.369 172 124 104 0 0
6.4659 8.9269 -1.3358 0.434 -0.889 0.146 209 201 188 0 0
6.1942 8.4709 -1.3642 -0.996 0.089 0.013 191 161 123 0 0
6.1647 8.0916 -1.4101 -0.822 -0.570 -0.023 187 158 124 0 0
6.1946 7.8313 -1.4473 -0.774 -0.609 0.173 185 159 124 0 0
6.2564 7.6772 -1.4743 -0.720 -0.688 0.087 197 174 144 0 0
6.2629 7.6599 -1.4773 -0.613 -0.782 -0.110 194 170 142 0 0
6.2698 7.6430 -1.4803 -0.851 -0.525 -0.009 197 174 143 0 0
6.7316 7.1215 -1.6005 -0.380 -0.920 0.101 184 168 142 0 0
8.4048 7.2602 -1.7724 0.318 -0.876 -0.362 249 249 249 0 0
2.0260 11.2428 -0.5494 -0.216 -0.835 -0.505 245 244 241 0 0
2.0826 11.2440 -0.5557 0.339 -0.874 -0.348 246 245 244 0 0
2.1704 11.2750 -0.5617 0.240 -0.869 -0.432 206 185 177 0 0
2.6387 10.8095 -0.6752 -0.127 -0.868 0.480 179 127 104 0 0
2.9054 10.5510 -0.7390 -0.334 -0.552 0.764 180 133 110 0 0
3.0049 10.4737 -0.7604 -0.255 -0.647 0.719 177 124 100 0 0
3.4209 10.1608 -0.8482 -0.146 -0.673 0.725 192 141 120 0 0
3.5778 10.0406 -0.8817 0.048 -0.900 0.433 180 132 111 0 0
3.7521 9.9145 -0.9178 -0.279 -0.684 0.674 199 147 126 0 0
4.0819 9.6655 -0.9876 -0.444 -0.623 0.644 181 126 104 0 0
4.0951 9.6529 -0.9908 -0.444 -0.623 0.644 171 116 94 0 0
4.1261 9.6347 -0.9967 -0.421 -0.692 0.586 194 142 121 0 0
4.1402 9.6235 -0.9997 -0.421 -0.692 0.586 182 131 109 0 0
4.2969 9.5340 -1.0292 -0.394 -0.616 0.683 187 136 115 0 0
4.4081 9.4420 -1.0537 -0.274 -0.588 0.761 170 116 93 0 0
4.4532 9.4122 -1.0627 -0.412 -0.452 0.792 193 140 116 0 0
4.5911 9.3862 -1.0819 -0.500 -0.658 0.563 172 121 100 0 0
4.6042 9.3735 -1.0850 -0.500 -0.658 0.563 171 120 99 0 0
4.8799 9.3744 -1.1165 -0.265 -0.891 0.369 185 137 117 0 0
5.6205 9.7552 -1.1523 0.145 -0.852 -0.502 139 88 71 0 0
7.3196 10.3455 -1.2709 0.327 -0.936 0.128 242 241 237 0 0
6.4520 8.9174 -1.3553 0.494 -0.859 0.135 232 225 216 0 0
6.2515 7.6767 -1.4919 -0.749 -0.660 -0.062 187 164 132 0 0
6.2634 7.6642 -1.4948 -0.738 -0.665 -0.119 185 162 132 0 0
6.2679 7.6452 -1.4978 -0.763 -0.604 0.231 190 167 136 0 0
6.2814 7.6113 -1.5037 -0.806 -0.569 0.167 199 176 144 0 0
6.4838 7.2489 -1.5735 -0.683 -0.702 -0.201 183 166 138 0 0
6.9638 6.9865 -1.6622 -0.695 -0.707 -0.130 187 171 145 0 0
8.3095 7.2427 -1.7834 0.407 -0.820 -0.403 249 249 248 0 0
2.0050 11.2924 -0.5591 -0.290 -0.936 0.199 245 244 240 0 0
2.0132 11.2658 -0.5634 -0.542 -0.494 -0.680 243 245 241 0 0
2.0411 11.2420 -0.5697 -0.576 -0.481 -0.661 244 244 241 0 0
2.4657 10.8606 -0.6673 -0.592 -0.381 0.710 187 134 112 0 0
3.5385 10.0503 -0.8944 -0.688 -0.640 0.342 189 137 119 0 0
3.5482 10.0317 -0.8978 -0.144 -0.773 0.617 193 143 124 0 0
3.6932 9.9611 -0.9236 -0.385 -0.560 0.734 175 123 102 0 0
3.7670 9.8766 -0.9429 -0.463 -0.625 0.628 177 126 105 0 0
3.8180 9.8569 -0.9513 -0.673 -0.345 0.655 183 131 110 0 0
4.1171 9.6268 -1.0151 -0.425 -0.704 0.570 185 134 113 0 0
4.1261 9.6082 -1.0185 -0.510 -0.779 0.364 187 137 115 0 0
4.2219 9.5576 -1.0360 -0.239 -0.592 0.770 195 143 122 0 0
4.2663 9.5270 -1.0450 -0.264 -0.596 0.758 202 148 127 0 0
4.5394 9.3823 -1.0950 -0.412 -0.834 0.367 176 125 104 0 0
4.5768 9.3722 -1.1006 -0.543 -0.793 0.278 171 120 98 0 0
4.5912 9.3613 -1.1037 -0.543 -0.793 0.278 184 134 112 0 0
5.0011 9.4147 -1.1442 0.310 -0.950 0.044 134 87 69 0 0
5.6370 9.7805 -1.1710 0.286 -0.912 -0.295 137 86 68 0 0
6.0051 10.0061 -1.1848 0.401 -0.875 -0.270 138 88 69 0 0
7.3111 10.3418 -1.2929 0.182 -0.983 0.039 242 241 237 0 0
7.3465 10.3477 -1.2962 -0.095 -0.990 -0.100 242 241 237 0 0
7.3736 10.3447 -1.2997 0.109 -0.976 -0.188 243 242 239 0 0
7.4104 10.3520 -1.3030 0.261 -0.961 0.092 244 243 241 0 0
6.4247 8.8944 -1.3748 0.544 -0.836 0.070 249 245 238 0 0
6.1891 8.3722 -1.4141 -0.909 -0.377 -0.176 196 170 137 0 0
6.1766 8.1109 -1.4460 -0.837 -0.173 -0.519 186 157 123 0 0
6.2629 7.6675 -1.5124 -0.702 -0.709 -0.073 187 164 132 0 0
6.2690 7.6499 -1.5153 -0.676 -0.677 0.291 193 170 138 0 0
6.3265 7.5182 -1.5388 -0.657 -0.750 -0.083 180 157 126 0 0
6.3400 7.5073 -1.5417 -0.727 -0.667 -0.164 184 161 129 0 0
6.3538 7.4967 -1.5447 -0.787 -0.617 0.018 182 159 127 0 0
6.6199 7.1898 -1.6145 -0.793 -0.605 0.076 180 163 134 0 0
3.0366 10.3948 -0.8109 -0.399 -0.515 0.758 184 136 117 0 0
3.3865 10.1489 -0.8827 -0.215 -0.636 0.742 176 124 105 0 0
3.4756 10.0546 -0.9049 -0.658 -0.534 0.530 192 143 126 0 0
3.4864 10.0380 -0.9083 -0.658 -0.534 0.530 181 131 114 0 0
3.7633 9.8428 -0.9651 -0.256 -0.642 0.722 190 139 118 0 0
3.8486 9.7117 -0.9916 -0.779 -0.313 0.543 192 143 124 0 0
4.0690 9.6251 -1.0282 -0.371 -0.727 0.578 192 137 113 0 0
4.1048 9.6141 -1.0337 -0.559 -0.775 0.296 197 145 124 0 0
4.1210 9.6061 -1.0366 -0.903 -0.407 -0.135 189 140 119 0 0
4.1394 9.5380 -1.0474 -0.243 -0.656 0.714 201 149 127 0 0
4.4570 9.3667 -1.1059 -0.214 -0.829 0.517 172 115 91 0 0
4.5786 9.3495 -1.1223 -0.308 -0.855 0.418 172 120 97 0 0
4.9944 9.4112 -1.1629 0.260 -0.957 0.128 133 86 68 0 0
7.3050 10.3406 -1.3147 0.124 -0.991 0.054 242 241 237 0 0
7.3333 10.3390 -1.3182 0.219 -0.841 0.495 242 241 237 0 0
6.4077 8.8816 -1.3942 0.544 -0.836 0.070 247 246 241 0 0
6.1895 8.4023 -1.4293 -0.979 0.159 0.131 200 172 136 0 0
6.2552 7.6645 -1.5299 -0.817 -0.567 -0.108 185 162 129 0 0
6.2699 7.6545 -1.5329 -0.610 -0.792 0.029 189 166 134 0 0
6.5490 7.2658 -1.6144 -0.740 -0.641 -0.202 184 167 139 0 0
6.5707 7.2401 -1.6202 -0.540 -0.841 0.017 187 170 142 0 0
7.0026 6.9389 -1.7084 -0.756 -0.648 -0.096 183 166 141 0 0
2.2409 10.9252 -0.6697 -0.235 -0.667 0.707 194 147 129 0 0
2.2539 10.9115 -0.6729 -0.348 -0.633 0.691 194 144 125 0 0
2.3113 10.8702 -0.6848 -0.438 -0.525 0.730 189 141 121 0 0
2.3269 10.8627 -0.6876 -0.450 -0.512 0.732 182 135 115 0 0
2.7598 10.5153 -0.7818 -0.547 -0.439 0.713 182 130 109 0 0
3.6396 9.9194 -0.9594 -0.472 -0.647 0.599 184 133 114 0 0
3.7123 9.8341 -0.9786 -0.132 -0.870 0.475 190 140 120 0 0
3.7354 9.8374 -0.9809 -0.345 -0.591 0.729 193 144 123 0 0
3.7503 9.8278 -0.9839 -0.274 -0.634 0.723 199 150 131 0 0
4.2371 9.4337 -1.0902 -0.397 -0.578 0.712 191 139 117 0 0
4.4457 9.3564 -1.1243 -0.330 -0.830 0.450 190 133 108 0 0
4.4925 9.3595 -1.1295 -0.144 -0.858 0.493 166 110 87 0 0
5.8797 9.9604 -1.2173 0.294 -0.871 -0.395 124 76 59 0 0
6.1337 8.7149 -1.4026 0.093 -0.359 0.929 245 245 243 0 0
6.4630 8.9149 -1.4163 0.528 -0.849 -0.001 227 224 212 0 0
6.1940 8.4110 -1.4476 -0.989 0.141 0.033 189 160 124 0 0
6.2569 7.7626 -1.5359 -0.560 -0.808 -0.181 188 164 130 0 0
6.2476 7.6616 -1.5474 -0.799 -0.597 0.071 189 164 132 0 0
6.2578 7.6476 -1.5504 -0.799 -0.597 0.071 181 157 126 0 0
6.2681 7.6337 -1.5533 -0.830 -0.495 0.255 181 157 126 0 0
6.6332 7.1860 -1.6521 -0.493 -0.836 -0.241 178 163 134 0 0
6.9738 7.0042 -1.7148 -0.235 -0.947 -0.217 185 169 142 0 0
7.3583 6.9311 -1.7690 -0.417 -0.887 -0.199 188 172 146 0 0
3.1719 10.2124 -0.8863 -0.487 -0.509 0.709 199 144 124 0 0
3.4049 10.0509 -0.9338 -0.381 -0.536 0.753 193 142 125 0 0
3.6381 9.8886 -0.9814 -0.311 -0.672 0.672 191 140 123 0 0
3.8155 9.7042 -1.0252 -0.293 -0.655 0.696 189 139 120 0 0
3.8589 9.6733 -1.0342 -0.646 -0.625 0.438 189 136 115 0 0
3.8717 9.6605 -1.0373 -0.612 -0.619 0.492 179 124 103 0 0
3.8832 9.6457 -1.0405 -0.477 -0.671 0.568 189 135 111 0 0
3.9232 9.6421 -1.0457 0.028 -0.849 0.528 194 138 116 0 0
3.9374 9.6312 -1.0487 -0.270 -0.640 0.720 190 135 114 0 0
4.0783 9.5224 -1.0788 -0.286 -0.584 0.760 177 122 99 0 0
4.0934 9.5130 -1.0817 -0.383 -0.592 0.709 198 140 116 0 0
4.1390 9.4852 -1.0906 -0.207 -0.650 0.731 183 129 103 0 0
5.8378 9.9465 -1.2346 0.283 -0.916 -0.284 136 88 68 0 0
5.8843 9.9713 -1.2370 0.316 -0.849 -0.424 128 80 61 0 0
6.0054 10.0222 -1.2451 0.402 -0.913 -0.071 141 89 74 0 0
6.3659 8.8485 -1.4328 0.555 -0.831 0.048 246 244 243 0 0
6.4460 8.9023 -1.4356 0.547 -0.836 0.043 239 239 228 0 0
6.2550 7.6489 -1.5679 -0.723 -0.689 0.052 183 159 127 0 0
6.2665 7.6361 -1.5709 -0.746 -0.666 0.021 180 157 125 0 0
6.2727 7.6187 -1.5737 -0.862 -0.491 0.127 185 162 130 0 0
6.2929 7.5908 -1.5796 -0.834 -0.547 0.066 189 166 135 0 0
6.4468 7.3638 -1.6258 -0.657 -0.747 -0.101 177 156 125 0 0
6.4577 7.3509 -1.6287 -0.764 -0.644 -0.028 177 156 125 0 0
6.6678 7.1741 -1.6754 -0.417 -0.892 -0.174 180 164 139 0 0
6.9748 7.0084 -1.7323 -0.265 -0.947 -0.184 188 171 145 0 0
7.0764 6.9587 -1.7504 -0.396 -0.917 0.041 183 166 140 0 0
2.4835 10.7184 -0.7605 -0.261 -0.581 0.771 173 125 102 0 0
2.5395 10.6329 -0.7777 -0.260 -0.672 0.694 184 132 110 0 0
2.5696 10.6154 -0.7834 -0.265 -0.681 0.682 178 126 102 0 0
2.6011 10.6008 -0.7889 -0.386 -0.573 0.723 175 122 98 0 0
2.6903 10.5059 -0.8112 -0.140 -0.814 0.563 199 151 132 0 0
2.7074 10.5013 -0.8138 -0.236 -0.830 0.506 177 129 109 0 0
2.7231 10.4937 -0.8166 -0.408 -0.659 0.632 184 135 114 0 0
2.7479 10.5049 -0.8182 -0.153 -0.756 0.637 196 147 125 0 0
3.0884 10.2491 -0.8901 0.086 -0.936 0.342 192 140 120 0 0
3.1603 10.1974 -0.9050 -0.487 -0.509 0.709 179 127 106 0 0
3.5070 9.9170 -0.9807 -0.393 -0.592 0.703 161 103 83 0 0
3.5234 9.9100 -0.9835 -0.253 -0.697 0.671 174 117 97 0 0
3.8282 9.6640 -1.0499 -0.225 -0.823 0.521 186 135 114 0 0
3.8485 9.6628 -1.0525 -0.470 -0.814 0.342 194 141 120 0 0
3.8628 9.6524 -1.0555 -0.442 -0.745 0.499 178 123 102 0 0
3.8761 9.6404 -1.0585 -0.572 -0.753 0.325 189 135 111 0 0
3.9055 9.6206 -1.0645 -0.547 -0.688 0.477 175 121 97 0 0
4.0805 9.4995 -1.1001 -0.379 -0.541 0.751 171 115 91 0 0
4.2337 9.3777 -1.1333 -0.413 -0.583 0.700 192 138 114 0 0
5.8292 9.9413 -1.2547 0.455 -0.872 -0.181 139 91 71 0 0
6.8285 10.5066 -1.3048 -0.206 -0.901 -0.382 129 88 71 0 0
6.4975 8.9314 -1.4580 0.543 -0.837 0.057 204 193 177 0 0
6.1903 8.0911 -1.5241 -0.973 -0.227 -0.046 186 160 126 0 0
6.3780 7.5098 -1.6176 -0.811 -0.555 -0.184 177 157 124 0 0
6.6560 7.1897 -1.6899 -0.615 -0.778 -0.128 179 162 136 0 0
6.6683 7.1780 -1.6928 -0.418 -0.906 0.061 184 167 141 0 0
1.9540 11.2034 -0.6564 0.226 -0.901 0.371 245 245 240 0 0
2.7198 10.4939 -0.8344 -0.350 -0.637 0.687 183 135 113 0 0
2.7370 10.4896 -0.8370 -0.135 -0.745 0.653 186 138 116 0 0
2.8351 10.3743 -0.8627 -0.116 -0.788 0.605 196 142 120 0 0
3.0600 10.2394 -0.9061 -0.493 -0.552 0.673 163 108 88 0 0
3.0852 10.2495 -0.9079 0.022 -0.984 0.179 158 106 85 0 0
3.0997 10.2393 -0.9109 -0.004 -0.891 0.453 174 123 102 0 0
3.1164 10.2334 -0.9136 -0.064 -0.839 0.540 186 130 110 0 0
3.4962 9.9048 -0.9991 -0.437 -0.612 0.659 186 129 111 0 0
3.7967 9.6533 -1.0657 -0.195 -0.980 0.040 188 137 116 0 0
3.8202 9.6571 -1.0680 -0.171 -0.887 0.429 191 139 118 0 0
3.8343 9.6464 -1.0710 -0.303 -0.914 0.271 164 112 90 0 0
3.8479 9.6349 -1.0740 -0.650 -0.759 0.040 183 129 108 0 0
3.8689 9.6349 -1.0766 -0.293 -0.917 -0.270 181 126 102 0 0
3.8794 9.6185 -1.0798 -0.572 -0.785 -0.238 180 124 101 0 0
3.8953 9.6105 -1.0827 -0.693 -0.649 0.313 173 119 95 0 0
4.5225 9.2946 -1.1964 -0.394 -0.711 0.583 173 117 91 0 0
5.8773 9.9734 -1.2771 0.356 -0.925 0.135 132 84 64 0 0
6.8340 10.5184 -1.3262 -0.122 -0.905 -0.407 141 99 84 0 0
6.8511 10.5052 -1.3298 0.205 -0.949 -0.239 149 109 99 0 0
4.9103 7.7078 -1.4351 -0.945 0.186 -0.270 241 241 236 0 0
5.0544 7.6231 -1.4627 -0.136 -0.370 0.919 244 244 241 0 0
6.1822 8.2855 -1.5181 -0.957 0.282 -0.067 177 151 116 0 0
6.1696 8.2484 -1.5211 -0.946 0.195 -0.259 174 147 112 0 0
6.1877 8.0927 -1.5421 -0.955 -0.296 -0.013 190 163 129 0 0
6.2562 7.7969 -1.5862 -0.822 -0.559 0.112 182 157 124 0 0
6.2775 7.6305 -1.6089 -0.901 -0.434 0.014 185 162 130 0 0
6.4478 7.3719 -1.6607 -0.725 -0.628 -0.283 180 161 129 0 0
6.6663 7.1800 -1.7102 -0.506 -0.858 -0.089 181 164 138 0 0
6.6789 7.1685 -1.7131 -0.601 -0.772 -0.204 182 165 138 0 0
1.9754 11.2191 -0.6755 -0.149 -0.724 0.673 183 152 141 0 0
2.1900 10.8363 -0.7474 -0.617 -0.468 0.633 188 142 122 0 0
2.7100 10.4808 -0.8530 -0.414 -0.492 0.766 181 133 112 0 0
2.8193 10.3497 -0.8819 0.063 -0.889 0.453 182 130 108 0 0
2.8312 10.3349 -0.8852 -0.198 -0.656 0.728 180 129 109 0 0
3.0316 10.2299 -0.9220 -0.141 -0.909 0.392 180 126 107 0 0
3.0498 10.2267 -0.9246 -0.304 -0.777 0.551 200 148 129 0 0
3.0733 10.2337 -0.9266 -0.254 -0.659 0.708 206 157 137 0 0
3.0886 10.2250 -0.9295 -0.272 -0.676 0.685 205 155 134 0 0
3.0978 10.2053 -0.9330 -0.420 -0.507 0.753 189 136 115 0 0
3.1098 10.1906 -0.9362 -0.420 -0.507 0.753 194 139 119 0 0
3.1599 10.1362 -0.9488 -0.508 -0.435 0.743 175 119 98 0 0
3.1643 10.1081 -0.9527 -0.580 -0.358 0.732 180 123 101 0 0
3.4966 9.8770 -1.0207 -0.359 -0.580 0.731 165 110 91 0 0
3.8943 9.6468 -1.0965 -0.559 -0.825 -0.081 193 136 114 0 0
4.1754 9.3671 -1.1641 -0.612 -0.631 0.476 197 144 121 0 0
4.1877 9.3538 -1.1671 -0.591 -0.662 0.461 180 126 103 0 0
4.3337 9.3141 -1.1896 -0.591 -0.555 0.586 172 118 94 0 0
4.7502 9.3314 -1.2380 0.308 -0.923 -0.231 145 98 78 0 0
5.8246 9.9463 -1.2946 0.411 -0.887 0.208 130 82 62 0 0
4.4255 8.0745 -1.3492 -0.438 -0.466 0.768 143 96 80 0 0
6.2787 10.2036 -1.3188 0.091 -0.810 0.579 142 95 79 0 0
6.4551 10.3463 -1.3231 0.034 -0.536 -0.844 145 99 83 0 0
6.4682 10.3293 -1.3267 0.389 -0.900 -0.199 147 101 85 0 0
4.8930 7.7172 -1.4487 -0.150 -0.310 0.939 241 234 226 0 0
5.0230 7.5948 -1.4791 -0.265 -0.246 0.932 246 243 238 0 0
6.1813 8.3645 -1.5273 -0.838 -0.543 0.053 188 160 124 0 0
6.1902 8.3479 -1.5304 -0.779 -0.614 -0.130 185 156 122 0 0
6.1869 8.0960 -1.5602 -0.955 -0.296 -0.013 187 158 124 0 0
6.1856 8.0704 -1.5631 -0.945 -0.164 0.282 191 163 130 0 0
6.3387 7.5737 -1.6411 -0.869 -0.468 0.161 181 158 125 0 0
6.3901 7.4826 -1.6583 -0.844 -0.487 -0.225 176 156 123 0 0
6.4478 7.3755 -1.6781 -0.657 -0.652 -0.380 174 153 122 0 0
6.6796 7.1726 -1.7305 -0.601 -0.772 -0.204 177 161 132 0 0
6.7039 7.1490 -1.7363 -0.559 -0.812 -0.167 181 165 139 0 0
6.7330 7.1291 -1.7422 -0.620 -0.774 -0.131 181 165 140 0 0
6.7592 7.1070 -1.7480 -0.662 -0.748 -0.048 188 172 146 0 0
7.0648 6.9602 -1.8026 -0.398 -0.881 -0.254 182 166 140 0 0
1.9302 11.2062 -0.6899 0.344 -0.904 0.253 215 202 193 0 0
2.0944 10.8807 -0.7486 -0.483 -0.815 0.321 198 153 134 0 0
2.1123 10.8795 -0.7509 -0.497 -0.599 0.627 191 149 131 0 0
2.1911 10.8028 -0.7696 -0.593 -0.534 0.602 192 145 124 0 0
2.2051 10.7919 -0.7726 -0.210 -0.760 0.615 185 136 115 0 0
2.8945 10.2371 -0.9226 -0.485 -0.552 0.678 181 130 108 0 0
2.9406 10.2129 -0.9311 -0.202 -0.714 0.670 182 132 111 0 0
3.1058 10.1530 -0.9584 -0.351 -0.532 0.770 183 131 111 0 0
3.1338 10.1314 -0.9644 -0.708 -0.348 0.615 182 125 106 0 0
3.1454 10.1162 -0.9676 -0.622 -0.382 0.683 158 98 79 0 0
3.3125 9.9852 -1.0036 -0.501 -0.460 0.734 180 125 103 0 0
3.4991 9.8529 -1.0420 -0.299 -0.565 0.769 185 128 108 0 0
3.5123 9.8406 -1.0451 -0.214 -0.697 0.685 168 111 91 0 0
3.6253 9.7227 -1.0729 -0.376 -0.858 0.351 182 131 109 0 0
3.6470 9.7242 -1.0753 -0.039 -0.993 0.112 188 138 117 0 0
3.9898 9.5081 -1.1429 -0.223 -0.754 0.618 190 136 114 0 0
4.0011 9.4931 -1.1460 -0.451 -0.608 0.653 189 134 114 0 0
4.0108 9.4760 -1.1492 -0.446 -0.704 0.552 191 137 116 0 0
4.1619 9.3530 -1.1823 -0.720 -0.614 0.324 205 154 131 0 0
4.1798 9.3477 -1.1851 -0.387 -0.903 0.186 187 134 111 0 0
4.1853 9.3249 -1.1885 -0.424 -0.708 0.566 198 144 122 0 0
4.4559 9.2751 -1.2274 -0.243 -0.920 0.306 169 114 89 0 0
4.4744 9.2701 -1.2303 -0.323 -0.752 0.575 150 95 71 0 0
4.5693 9.2774 -1.2410 -0.240 -0.866 0.439 192 142 119 0 0
5.6553 9.8702 -1.3034 0.415 -0.849 -0.328 138 88 68 0 0
5.6781 9.8670 -1.3066 0.228 -0.757 0.612 116 68 50 0 0
4.4144 8.0656 -1.3657 -0.503 -0.435 0.747 137 91 75 0 0
4.3980 8.0210 -1.3690 -0.990 -0.137 -0.025 150 102 86 0 0
4.9183 7.7242 -1.4678 -0.028 -0.341 0.939 231 217 196 0 0
6.1849 8.1473 -1.5724 -0.961 0.067 -0.269 185 156 122 0 0
6.1841 8.1220 -1.5753 -0.957 0.032 -0.287 178 150 116 0 0
6.1956 8.1083 -1.5783 -0.869 -0.211 -0.447 177 149 116 0 0
6.1927 8.0812 -1.5811 -0.928 -0.117 -0.355 179 151 118 0 0
6.2497 7.7754 -1.6244 -0.794 -0.606 -0.052 183 158 127 0 0
6.2604 7.7616 -1.6273 -0.794 -0.606 -0.052 179 154 122 0 0
6.2651 7.6961 -1.6356 -0.659 -0.715 -0.235 181 154 119 0 0
6.4513 7.3821 -1.6956 -0.657 -0.652 -0.380 178 158 127 0 0
6.4639 7.3705 -1.6985 -0.672 -0.663 -0.330 179 159 129 0 0
6.6803 7.1766 -1.7479 -0.601 -0.772 -0.204 176 162 132 0 0
1.8072 11.3743 -0.6734 -0.384 -0.283 0.879 245 244 242 0 0
2.0918 10.8379 -0.7714 -0.759 -0.419 0.499 196 154 137 0 0
2.5907 10.4463 -0.8787 -0.704 -0.446 0.553 161 107 86 0 0
2.8615 10.2551 -0.9345 -0.193 -0.642 0.742 157 105 83 0 0
2.8754 10.2443 -0.9375 -0.257 -0.599 0.758 174 122 100 0 0
2.8917 10.2381 -0.9402 -0.263 -0.716 0.647 189 139 116 0 0
2.9070 10.2300 -0.9431 -0.263 -0.716 0.647 190 140 117 0 0
2.9223 10.2218 -0.9459 -0.263 -0.716 0.647 173 123 101 0 0
3.0331 10.2083 -0.9611 -0.390 -0.674 0.627 193 140 119 0 0
3.0465 10.1965 -0.9642 -0.595 -0.609 0.525 185 134 113 0 0
3.0475 10.1247 -0.9727 -0.444 -0.424 0.790 185 134 113 0 0
3.3687 9.8789 -1.0411 -0.215 -0.599 0.771 200 147 125 0 0
3.4725 9.8485 -1.0574 -0.297 -0.715 0.632 203 151 129 0 0
3.4840 9.8335 -1.0606 -0.164 -0.652 0.741 184 131 110 0 0
3.9591 9.4994 -1.1583 -0.212 -0.789 0.576 192 140 118 0 0
3.9753 9.4919 -1.1612 -0.200 -0.845 0.495 197 142 121 0 0
3.9899 9.4820 -1.1641 -0.451 -0.608 0.653 204 149 128 0 0
4.0152 9.4251 -1.1739 -0.292 -0.560 0.776 212 160 138 0 0
4.0266 9.4105 -1.1770 -0.395 -0.561 0.728 203 151 129 0 0
4.0915 9.3806 -1.1885 -0.151 -0.802 0.577 189 133 109 0 0
4.3115 9.2937 -1.2258 -0.291 -0.780 0.554 179 125 101 0 0
4.3276 9.2857 -1.2287 -0.291 -0.780 0.554 169 114 91 0 0
4.3726 9.2872 -1.2341 0.082 -0.971 0.223 171 113 89 0 0
4.4490 9.2709 -1.2454 -0.243 -0.920 0.306 157 102 75 0 0
4.5364 9.2685 -1.2564 -0.138 -0.908 0.396 189 137 115 0 0
4.5604 9.2707 -1.2592 -0.240 -0.866 0.439 169 118 96 0 0
4.7473 9.3378 -1.2743 0.289 -0.928 -0.233 136 88 68 0 0
4.2382 8.1380 -1.3523 -0.724 -0.273 0.633 137 88 68 0 0
4.2664 8.1467 -1.3548 -0.123 -0.298 0.947 136 88 70 0 0
4.3690 8.1429 -1.3679 0.020 -0.574 0.818 145 93 77 0 0
4.4078 8.0620 -1.3821 -0.624 -0.004 0.782 139 99 81 0 0
4.3929 8.0193 -1.3853 -0.946 -0.239 0.217 147 109 90 0 0
4.4450 7.9307 -1.4021 -0.751 -0.354 0.558 233 206 181 0 0
4.4505 7.9122 -1.4049 -0.787 -0.287 0.546 238 215 191 0 0
4.7045 7.6653 -1.4652 -0.730 -0.681 -0.060 234 217 191 0 0
6.1837 8.1256 -1.5933 -0.971 -0.101 -0.218 177 149 117 0 0
6.1937 8.1106 -1.5963 -0.930 -0.193 -0.314 180 154 122 0 0
6.1812 8.0743 -1.5990 -0.585 -0.767 -0.264 180 154 121 0 0
6.2300 7.9507 -1.6196 -0.895 -0.316 -0.316 177 151 121 0 0
6.3879 7.4881 -1.6933 -0.658 -0.753 0.012 183 160 128 0 0
6.4536 7.3876 -1.7131 -0.682 -0.682 -0.265 174 155 123 0 0
6.6801 7.2014 -1.7628 -0.623 -0.662 -0.416 179 163 137 0 0
6.6964 7.1929 -1.7659 -0.610 -0.709 -0.354 178 164 134 0 0
6.6874 7.1644 -1.7681 -0.392 -0.891 -0.228 179 164 136 0 0
6.7395 7.1412 -1.7772 -0.457 -0.871 -0.180 175 159 133 0 0
6.7507 7.1287 -1.7801 -0.635 -0.718 -0.284 181 164 138 0 0
7.2896 6.9853 -1.8632 -0.859 -0.484 0.166 184 168 142 0 0
7.2902 6.9441 -1.8681 -0.452 -0.797 -0.400 185 170 144 0 0
8.2836 7.3004 -1.9487 0.371 -0.835 -0.405 248 248 248 0 0
1.8051 11.4270 -0.6855 -0.692 -0.078 0.717 246 245 243 0 0
1.7944 11.3486 -0.6933 -0.459 -0.234 0.857 245 244 242 0 0
1.8645 11.1951 -0.7198 -0.233 -0.515 0.825 176 142 131 0 0
1.9983 10.8859 -0.7723 -0.390 -0.580 0.716 194 146 127 0 0
2.0829 10.8243 -0.7899 -0.706 -0.519 0.481 180 132 114 0 0
2.2357 10.6632 -0.8276 -0.503 -0.565 0.655 199 152 130 0 0
2.2999 10.6823 -0.8333 -0.085 -0.728 0.680 193 139 118 0 0
2.3233 10.6930 -0.8350 -0.250 -0.589 0.768 183 128 107 0 0
2.5828 10.4368 -0.8969 -0.504 -0.583 0.638 173 123 100 0 0
2.6286 10.4131 -0.9053 -0.078 -0.867 0.492 188 136 113 0 0
2.8365 10.2508 -0.9500 -0.493 -0.414 0.765 189 137 116 0 0
2.9147 10.1765 -0.9683 -0.296 -0.637 0.712 183 131 110 0 0
3.0235 10.1968 -0.9794 -0.390 -0.674 0.627 182 131 111 0 0
3.4446 9.8415 -1.0729 -0.331 -0.645 0.689 192 143 122 0 0
3.4621 9.8367 -1.0756 -0.297 -0.715 0.632 196 148 126 0 0
3.9486 9.4890 -1.1763 -0.212 -0.789 0.576 200 145 124 0 0
3.9660 9.4833 -1.1792 -0.045 -0.923 0.381 187 132 110 0 0
4.0397 9.3728 -1.2011 -0.505 -0.611 0.610 175 119 96 0 0
4.0586 9.3692 -1.2039 -0.370 -0.797 0.478 176 121 98 0 0
4.3342 9.2697 -1.2496 -0.190 -0.828 0.528 174 118 96 0 0
4.3825 9.2756 -1.2549 -0.028 -0.982 0.189 155 100 76 0 0
4.4435 9.2685 -1.2633 -0.512 -0.855 0.081 171 116 91 0 0
4.4511 9.2488 -1.2666 -0.634 -0.553 0.540 158 104 79 0 0
4.5271 9.2611 -1.2746 -0.080 -0.883 0.463 178 128 104 0 0
4.5516 9.2640 -1.2773 -0.240 -0.866 0.439 190 140 117 0 0
4.2425 8.0708 -1.3774 0.529 -0.831 0.172 128 81 61 0 0
4.3042 8.0946 -1.3823 0.265 -0.890 0.371 136 90 72 0 0
4.4538 8.1977 -1.3889 -0.918 0.301 0.260 164 126 104 0 0
4.4235 8.1103 -1.3952 -0.884 0.293 0.364 204 176 152 0 0
4.4219 7.8834 -1.4214 0.149 -0.794 0.590 233 214 187 0 0
4.7015 7.6660 -1.4813 -0.707 -0.601 0.373 232 215 187 0 0
4.9178 7.5908 -1.5169 -0.184 -0.514 0.838 236 217 193 0 0
5.2016 7.3522 -1.5798 -0.880 0.307 0.361 183 157 125 0 0
6.2373 8.0094 -1.6320 -0.721 -0.333 -0.608 171 145 112 0 0
6.2374 7.9375 -1.6404 -0.948 -0.260 -0.185 173 148 116 0 0
6.6418 7.2392 -1.7716 -0.562 -0.775 0.289 181 164 135 0 0
7.0708 6.9748 -1.8555 -0.331 -0.942 -0.050 182 166 140 0 0
7.2890 6.9883 -1.8810 -0.558 -0.823 -0.110 182 166 141 0 0
7.8423 7.1069 -1.9359 0.355 -0.844 -0.401 205 192 174 0 0
8.0212 7.1883 -1.9487 0.355 -0.844 -0.401 229 224 217 0 0
8.1127 7.2298 -1.9552 0.355 -0.844 -0.401 249 247 245 0 0
8.2054 7.2720 -1.9618 0.355 -0.844 -0.401 248 248 248 0 0
8.3097 7.3218 -1.9690 0.371 -0.835 -0.405 248 248 248 0 0
1.7945 11.4566 -0.6993 -0.457 -0.158 0.875 245 244 242 0 0
1.7834 11.2786 -0.7183 -0.459 -0.234 0.857 244 244 243 0 0
2.0611 10.8237 -0.8053 -0.492 -0.532 0.689 188 141 121 0 0
2.0731 10.8084 -0.8085 -0.492 -0.532 0.689 167 115 96 0 0
2.2213 10.6800 -0.8418 -0.381 -0.521 0.764 193 145 125 0 0
2.2267 10.6499 -0.8459 -0.584 -0.465 0.665 189 138 119 0 0
2.2391 10.6360 -0.8491 -0.729 -0.366 0.578 186 134 114 0 0
2.2548 10.6294 -0.8518 -0.649 -0.544 0.531 181 130 108 0 0
2.2833 10.6519 -0.8528 -0.166 -0.696 0.698 181 129 107 0 0
2.2970 10.6410 -0.8558 -0.579 -0.358 0.732 174 122 100 0 0
2.7981 10.2579 -0.9624 -0.464 -0.538 0.704 199 150 129 0 0
2.8692 10.2075 -0.9770 -0.114 -0.745 0.658 180 128 106 0 0
2.9034 10.1613 -0.9866 -0.296 -0.637 0.712 191 140 119 0 0
3.2698 9.9288 -1.0591 -0.429 -0.475 0.769 202 151 131 0 0
3.4055 9.8501 -1.0851 -0.203 -0.754 0.624 193 142 123 0 0
3.4330 9.8280 -1.0911 -0.331 -0.645 0.689 189 142 122 0 0
3.4510 9.8240 -1.0938 -0.458 -0.626 0.631 180 133 112 0 0
3.5552 9.6928 -1.1219 -0.188 -0.721 0.666 182 133 116 0 0
3.5714 9.6859 -1.1247 -0.188 -0.721 0.666 183 135 116 0 0
3.9228 9.4244 -1.1987 -0.402 -0.579 0.709 200 145 122 0 0
4.4512 9.2539 -1.2843 -0.773 -0.580 0.258 169 116 92 0 0
4.4965 9.2552 -1.2898 -0.019 -0.860 0.510 176 125 101 0 0
4.5886 9.2585 -1.3010 0.125 -0.955 0.267 138 90 70 0 0
5.2037 9.6015 -1.3385 0.295 -0.943 0.154 124 77 59 0 0
4.2321 8.1392 -1.3849 0.234 -0.545 0.805 144 96 75 0 0
4.2170 8.0695 -1.3910 0.045 -0.468 0.882 128 85 63 0 0
4.2190 8.0465 -1.3939 0.219 -0.962 -0.166 141 103 80 0 0
4.6264 8.4085 -1.4032 0.343 -0.431 0.834 238 214 188 0 0
4.5814 7.7766 -1.4702 -0.295 -0.797 0.527 234 215 187 0 0
4.8392 7.5822 -1.5247 -0.436 -0.653 0.619 225 208 182 0 0
4.8401 7.5600 -1.5274 -0.335 -0.746 0.576 230 213 187 0 0
5.2008 7.3552 -1.5960 -0.852 0.213 0.478 193 170 138 0 0
5.1917 7.3241 -1.5984 -0.852 0.213 0.478 185 160 128 0 0
5.2154 7.3248 -1.6013 -0.080 -0.579 0.811 182 155 123 0 0
5.2263 7.3131 -1.6040 -0.808 -0.033 0.588 177 150 117 0 0
5.2215 7.2864 -1.6064 -0.865 0.016 0.502 178 151 118 0 0
5.2216 7.2206 -1.6140 -0.460 -0.513 0.725 171 145 112 0 0
5.2293 7.2061 -1.6166 -0.585 -0.389 0.712 171 145 112 0 0
6.2185 7.9960 -1.6497 -0.452 -0.891 -0.046 172 146 113 0 0
6.2436 7.9472 -1.6584 -0.943 -0.181 -0.280 177 152 120 0 0
6.2482 7.9275 -1.6613 -0.943 -0.181 -0.280 176 152 118 0 0
6.2438 7.8050 -1.6747 -0.778 -0.606 -0.164 177 150 119 0 0
6.3895 7.4968 -1.7283 -0.489 -0.870 0.064 175 154 122 0 0
6.4887 7.3800 -1.7542 -0.447 -0.883 -0.143 171 154 124 0 0
6.5418 7.3359 -1.7659 -0.665 -0.724 -0.184 176 157 124 0 0
6.5924 7.2897 -1.7775 -0.857 -0.514 -0.042 179 163 134 0 0
6.6763 7.2270 -1.7952 -0.565 -0.741 -0.362 180 164 138 0 0
6.8403 7.1201 -1.8280 -0.494 -0.802 -0.337 182 166 140 0 0
7.2822 6.9868 -1.8985 -0.462 -0.886 -0.033 182 166 141 0 0
7.8748 7.1330 -1.9558 0.320 -0.822 -0.471 203 191 174 0 0
7.9561 7.1681 -1.9620 0.320 -0.822 -0.471 204 196 185 0 0
8.0344 7.2008 -1.9680 0.271 -0.850 -0.452 238 236 231 0 0
8.1002 7.2248 -1.9735 0.271 -0.850 -0.452 249 248 248 0 0
8.3386 7.3452 -1.9895 0.383 -0.852 -0.357 248 248 249 0 0
8.4539 7.4021 -1.9974 0.349 -0.804 -0.482 248 248 248 0 0
1.7848 11.4890 -0.7129 -0.793 0.050 0.607 245 244 242 0 0
1.7829 11.4340 -0.7190 -0.745 -0.010 0.667 245 244 242 0 0
2.2503 10.6267 -0.8695 -0.343 -0.567 0.749 184 133 112 0 0
2.2729 10.6358 -0.8713 -0.166 -0.696 0.698 178 127 106 0 0
2.5604 10.4037 -0.9339 -0.347 -0.629 0.696 172 120 99 0 0
2.5743 10.3931 -0.9368 -0.210 -0.679 0.704 176 124 103 0 0
2.5874 10.3807 -0.9399 -0.470 -0.484 0.738 187 136 116 0 0
3.0259 10.0308 -1.0349 -0.174 -0.697 0.695 180 131 111 0 0
3.1746 9.9428 -1.0636 -0.603 -0.386 0.698 159 109 89 0 0
3.2091 9.8983 -1.0730 -0.401 -0.597 0.695 183 132 111 0 0
3.3532 9.8015 -1.1021 -0.200 -0.784 0.587 186 135 116 0 0
3.4242 9.7850 -1.1129 -0.646 -0.594 0.479 191 143 126 0 0
3.4410 9.7791 -1.1157 -0.587 -0.529 0.613 180 132 115 0 0
3.4519 9.7634 -1.1189 -0.587 -0.529 0.613 187 139 122 0 0
3.4628 9.7478 -1.1220 -0.556 -0.539 0.633 185 137 122 0 0
3.4736 9.7320 -1.1252 -0.587 -0.529 0.613 175 128 112 0 0
3.5419 9.6769 -1.1400 -0.184 -0.795 0.579 162 113 96 0 0
3.5587 9.6710 -1.1428 -0.184 -0.795 0.579 173 121 103 0 0
3.6433 9.6091 -1.1605 -0.256 -0.701 0.665 184 128 106 0 0
3.6483 9.5843 -1.1640 -0.065 -0.851 0.521 196 140 117 0 0
3.7054 9.5767 -1.1720 -0.381 -0.560 0.736 175 120 97 0 0
4.4283 9.2580 -1.2993 -0.229 -0.965 0.125 183 130 105 0 0
4.9480 9.4931 -1.3381 0.096 -0.817 -0.568 133 88 67 0 0
5.0032 9.5035 -1.3439 0.036 -0.724 -0.689 135 90 69 0 0
4.4233 7.8933 -1.4536 -0.378 -0.670 0.640 233 213 186 0 0
4.4270 7.8729 -1.4563 -0.665 -0.366 0.651 233 213 186 0 0
4.7932 7.5842 -1.5353 -0.245 -0.634 0.733 233 216 189 0 0
5.1205 7.4148 -1.5957 -0.432 -0.872 -0.229 233 215 185 0 0
5.1773 7.3138 -1.6143 -0.200 -0.755 0.624 228 207 176 0 0
5.1920 7.3059 -1.6171 -0.080 -0.579 0.811 215 193 161 0 0
5.4162 7.3422 -1.6412 0.295 -0.520 0.802 172 145 115 0 0
5.4633 7.3642 -1.6447 0.284 -0.508 0.813 172 146 115 0 0
5.3912 7.2526 -1.6482 0.280 -0.717 0.638 169 145 111 0 0
6.2430 7.8082 -1.6925 -0.639 -0.727 -0.252 177 152 121 0 0
6.2516 7.7925 -1.6954 -0.863 -0.503 0.058 178 153 120 0 0
6.4094 7.4950 -1.7490 -0.796 -0.560 -0.230 175 154 123 0 0
6.6345 7.2404 -1.8063 -0.669 -0.614 0.418 176 160 131 0 0
6.7075 7.2122 -1.8187 -0.626 -0.759 -0.177 181 166 137 0 0
6.9125 7.0940 -1.8579 -0.515 -0.797 -0.317 188 172 144 0 0
7.2418 7.0027 -1.9098 -0.146 -0.968 -0.202 187 171 145 0 0
7.9138 7.1636 -1.9762 0.275 -0.806 -0.524 203 193 179 0 0
7.9893 7.1946 -1.9822 0.312 -0.790 -0.529 222 217 208 0 0
8.0763 7.2333 -1.9887 0.312 -0.790 -0.529 248 247 244 0 0
8.1293 7.2484 -1.9937 0.275 -0.806 -0.524 247 248 248 0 0
8.2506 7.3102 -2.0020 0.371 -0.854 -0.366 248 248 248 0 0
8.3634 7.3658 -2.0099 0.366 -0.813 -0.454 248 248 248 0 0
1.9647 10.7818 -0.8338 -0.360 -0.550 0.754 190 145 126 0 0
2.1377 10.6721 -0.8680 -0.173 -0.728 0.663 186 135 116 0 0
2.4779 10.4357 -0.9378 -0.086 -0.783 0.616 190 140 119 0 0
2.6445 10.3093 -0.9731 -0.177 -0.623 0.762 200 156 138 0 0
2.6864 10.2782 -0.9819 -0.290 -0.550 0.783 187 141 120 0 0
2.8145 10.1896 -1.0081 -0.082 -0.770 0.633 180 127 106 0 0
3.1794 9.9220 -1.0845 -0.631 -0.361 0.687 195 145 125 0 0
3.1868 9.9000 -1.0879 -0.523 -0.540 0.660 196 145 124 0 0
3.1980 9.8848 -1.0910 -0.401 -0.597 0.695 182 132 110 0 0
3.2577 9.8154 -1.1064 -0.304 -0.552 0.777 182 131 110 0 0
3.2736 9.8084 -1.1092 -0.234 -0.621 0.748 177 126 105 0 0
3.4393 9.7482 -1.1370 -0.498 -0.688 0.528 181 134 118 0 0
3.5189 9.6785 -1.1549 -0.086 -0.917 0.389 189 145 125 0 0
3.5334 9.6687 -1.1579 -0.207 -0.692 0.692 148 100 82 0 0
3.5491 9.6611 -1.1607 -0.207 -0.692 0.692 175 122 103 0 0
3.5576 9.6417 -1.1640 -0.306 -0.574 0.759 163 108 88 0 0
3.5724 9.5997 -1.1706 -0.434 -0.358 0.827 170 113 93 0 0
3.6097 9.5939 -1.1760 -0.307 -0.662 0.683 163 105 85 0 0
3.6253 9.5860 -1.1788 -0.275 -0.607 0.746 172 114 92 0 0
3.6395 9.5759 -1.1818 -0.275 -0.607 0.746 173 116 93 0 0
3.6578 9.5723 -1.1845 -0.324 -0.609 0.724 192 136 112 0 0
3.7478 9.4550 -1.2091 -0.476 -0.460 0.749 174 120 99 0 0
3.9059 9.3786 -1.2377 -0.332 -0.578 0.745 188 133 111 0 0
4.1196 9.2273 -1.2818 -0.198 -0.829 0.523 168 116 94 0 0
4.6299 9.2934 -1.3392 0.324 -0.855 -0.405 131 85 68 0 0
4.9578 9.5109 -1.3564 0.041 -0.740 -0.671 134 89 68 0 0
4.9857 9.5165 -1.3593 -0.303 -0.595 -0.744 137 92 71 0 0
3.9877 8.1263 -1.3887 -0.999 -0.024 0.029 121 74 55 0 0
4.1556 8.1048 -1.4124 -0.113 -0.706 0.699 204 173 151 0 0
4.0963 8.0062 -1.4160 0.276 -0.956 0.099 234 208 184 0 0
4.1234 8.0142 -1.4185 0.233 -0.943 0.239 236 215 189 0 0
