ply
format ascii 1.0
element vertex 817
property float x
property float y
property float z
property float nx
property float ny
property float nz
property uchar diffuse_red
property uchar diffuse_green
property uchar diffuse_blue
property uchar class
property uchar detection
end_header
4.8804 10.6277 -0.1369 -0.222 -0.617 0.755 195 143 125 0 0
5.1572 10.5176 -0.1261 -0.110 -0.658 0.745 191 138 118 0 0
5.1989 10.5149 -0.1233 -0.131 -0.681 0.720 193 142 122 0 0
5.2196 10.5129 -0.1220 -0.051 -0.741 0.669 182 131 111 0 0
5.2870 10.4680 -0.1209 -0.187 -0.728 0.660 198 150 129 0 0
5.3078 10.4663 -0.1195 -0.235 -0.614 0.754 190 142 122 0 0
6.3287 10.0746 -0.0786 -0.210 -0.602 0.770 194 145 127 0 0
6.3481 10.0690 -0.0776 -0.210 -0.602 0.770 198 151 132 0 0
6.4702 10.0461 -0.0708 -0.150 -0.736 0.660 195 149 129 0 0
7.0309 8.7773 -0.1361 -0.655 0.124 0.745 251 251 249 0 0
6.8416 7.8610 -0.2261 -0.745 -0.482 0.462 237 221 198 0 0
6.8350 7.8233 -0.2297 -0.709 -0.421 0.566 238 222 199 0 0
6.8679 7.8131 -0.2282 -0.053 -0.520 0.853 235 218 194 0 0
7.1034 7.5329 -0.2346 -0.233 -0.564 0.792 234 218 193 0 0
7.1263 7.5366 -0.2326 0.071 -0.732 0.677 235 219 194 0 0
7.1467 7.5369 -0.2311 0.110 -0.839 0.533 235 219 195 0 0
8.0509 7.8528 -0.1396 0.344 -0.602 0.721 253 253 252 0 0
8.0780 7.8591 -0.1372 0.144 -0.501 0.854 253 253 251 0 0
8.1751 7.9481 -0.1227 0.423 -0.608 0.672 253 253 251 0 0
3.8049 10.9618 -0.2063 -0.023 -0.700 0.714 195 147 127 0 0
3.8247 10.9598 -0.2050 -0.085 -0.650 0.755 206 159 139 0 0
3.9329 10.9094 -0.2014 -0.465 -0.546 0.697 198 158 136 0 0
3.9525 10.9063 -0.2003 -0.167 -0.603 0.780 183 136 116 0 0
4.2162 10.8256 -0.1880 -0.061 -0.728 0.683 179 129 108 0 0
4.9423 10.5656 -0.1574 -0.349 -0.592 0.727 184 128 109 0 0
5.2124 10.4935 -0.1440 -0.051 -0.741 0.669 187 136 117 0 0
5.2748 10.4370 -0.1442 -0.235 -0.634 0.737 188 136 115 0 0
5.2985 10.4422 -0.1420 -0.235 -0.614 0.754 188 137 116 0 0
5.3195 10.4409 -0.1406 -0.182 -0.625 0.759 198 147 126 0 0
5.5708 10.3235 -0.1323 -0.318 -0.666 0.675 192 137 117 0 0
5.6582 10.2767 -0.1299 -0.208 -0.626 0.751 191 137 117 0 0
6.0154 10.1542 -0.1144 -0.248 -0.666 0.704 174 123 101 0 0
6.1467 10.1077 -0.1088 -0.217 -0.565 0.796 192 141 120 0 0
6.2899 10.0414 -0.1040 -0.007 -0.763 0.646 205 157 137 0 0
6.4715 10.0055 -0.0939 -0.102 -0.831 0.546 183 132 110 0 0
7.0499 7.5407 -0.2544 -0.285 -0.545 0.789 238 222 197 0 0
7.1357 7.5216 -0.2498 0.071 -0.732 0.677 235 219 194 0 0
8.1687 7.9395 -0.1418 0.156 -0.409 0.899 253 253 252 0 0
8.1271 7.8644 -0.1509 0.251 -0.528 0.811 253 253 252 0 0
8.1810 7.9020 -0.1440 0.246 -0.480 0.842 253 253 253 0 0
2.7305 11.5452 -0.2553 -0.556 -0.278 0.784 245 244 239 0 0
2.8746 11.4630 -0.2517 -0.341 -0.326 0.882 206 158 139 0 0
3.0068 11.2313 -0.2610 -0.586 -0.444 0.677 197 149 132 0 0
3.0243 11.2202 -0.2606 -0.214 -0.558 0.802 182 133 117 0 0
3.1711 11.1639 -0.2548 -0.432 -0.624 0.651 182 135 117 0 0
3.1889 11.1547 -0.2542 -0.322 -0.675 0.664 188 141 123 0 0
3.2070 11.1467 -0.2536 -0.322 -0.675 0.664 183 135 117 0 0
3.8185 10.9351 -0.2272 -0.481 -0.499 0.721 189 141 120 0 0
3.9093 10.8961 -0.2239 -0.408 -0.488 0.772 190 140 119 0 0
3.9291 10.8939 -0.2227 -0.110 -0.665 0.739 195 146 125 0 0
3.9487 10.8910 -0.2215 -0.006 -0.656 0.755 193 145 123 0 0
3.9833 10.8694 -0.2208 -0.516 -0.642 0.568 182 132 109 0 0
4.1563 10.8298 -0.2117 -0.332 -0.597 0.731 193 145 125 0 0
4.1730 10.8173 -0.2116 -0.436 -0.530 0.727 199 152 133 0 0
4.2105 10.8052 -0.2099 -0.131 -0.655 0.744 206 157 138 0 0
4.9374 10.5509 -0.1788 -0.233 -0.581 0.780 178 125 104 0 0
5.3530 10.3661 -0.1641 -0.359 -0.570 0.739 189 137 116 0 0
5.7495 10.2373 -0.1464 -0.176 -0.835 0.521 190 140 119 0 0
5.7693 10.2330 -0.1453 -0.644 -0.540 0.542 199 151 131 0 0
6.1302 10.0736 -0.1325 -0.041 -0.623 0.781 189 140 118 0 0
6.1791 10.0829 -0.1283 -0.115 -0.663 0.740 193 143 121 0 0
6.2810 10.0229 -0.1259 -0.007 -0.763 0.646 195 147 129 0 0
6.7488 8.4748 -0.2173 -0.441 -0.866 0.235 252 252 250 0 0
6.7646 8.4672 -0.2167 -0.863 -0.302 0.405 252 252 250 0 0
7.0995 7.4996 -0.2708 -0.292 -0.517 0.805 232 216 191 0 0
8.0687 7.7946 -0.1783 0.214 -0.509 0.834 253 253 254 0 0
8.1147 7.8230 -0.1728 0.214 -0.509 0.834 253 253 253 0 0
8.2281 7.9303 -0.1561 0.218 -0.464 0.859 253 253 253 0 0
2.6257 11.9750 -0.2488 -0.740 -0.089 0.667 245 244 241 0 0
2.7217 11.4932 -0.2801 -0.556 -0.278 0.784 244 236 229 0 0
2.8614 11.3920 -0.2782 -0.388 -0.314 0.867 199 148 126 0 0
2.9336 11.2572 -0.2838 -0.232 -0.496 0.836 168 117 98 0 0
3.0360 11.1787 -0.2828 -0.145 -0.614 0.776 190 140 121 0 0
3.1676 11.1451 -0.2762 -0.374 -0.676 0.635 198 151 133 0 0
3.2048 11.1336 -0.2745 -0.419 -0.687 0.594 189 141 122 0 0
3.4800 11.0293 -0.2633 -0.691 -0.510 0.513 191 140 119 0 0
3.4958 11.0122 -0.2636 -0.542 -0.534 0.649 195 144 123 0 0
3.5129 11.0005 -0.2633 -0.271 -0.692 0.669 192 141 120 0 0
3.5314 10.9941 -0.2625 -0.040 -0.771 0.635 196 147 125 0 0
3.5517 10.9948 -0.2610 -0.005 -0.702 0.712 194 143 122 0 0
3.8119 10.9093 -0.2495 -0.481 -0.499 0.721 185 134 113 0 0
3.8308 10.9040 -0.2485 -0.475 -0.528 0.704 187 136 114 0 0
3.8530 10.9106 -0.2465 -0.275 -0.640 0.717 185 135 112 0 0
3.9033 10.8726 -0.2459 -0.388 -0.485 0.784 186 135 113 0 0
3.9231 10.8705 -0.2447 -0.110 -0.665 0.739 179 128 107 0 0
3.9420 10.8654 -0.2438 0.055 -0.666 0.744 182 132 109 0 0
3.9619 10.8636 -0.2425 -0.178 -0.654 0.735 186 136 113 0 0
3.9794 10.8535 -0.2421 -0.345 -0.624 0.701 179 129 106 0 0
4.2043 10.7834 -0.2318 0.026 -0.785 0.619 209 160 143 0 0
4.2180 10.7616 -0.2325 -0.281 -0.641 0.714 190 141 122 0 0
4.8071 10.5391 -0.2087 -0.073 -0.648 0.758 193 141 123 0 0
5.0802 10.4269 -0.1983 -0.462 -0.750 0.473 180 126 106 0 0
5.2943 10.3776 -0.1871 -0.376 -0.550 0.746 184 128 108 0 0
5.3059 10.3544 -0.1882 -0.524 -0.582 0.622 193 139 121 0 0
5.3439 10.3430 -0.1864 -0.359 -0.570 0.739 203 152 132 0 0
5.5768 10.2372 -0.1784 -0.112 -0.617 0.779 174 122 101 0 0
5.5982 10.2367 -0.1769 -0.346 -0.515 0.784 171 119 97 0 0
5.7214 10.2219 -0.1694 -0.083 -0.687 0.722 193 144 123 0 0
5.7416 10.2186 -0.1682 -0.146 -0.674 0.724 186 138 118 0 0
5.7613 10.2142 -0.1672 -0.619 -0.526 0.583 209 164 143 0 0
5.9130 10.1207 -0.1639 -0.237 -0.565 0.790 180 128 106 0 0
5.9962 10.1119 -0.1587 -0.270 -0.635 0.723 188 137 116 0 0
6.8029 9.9887 -0.1117 -0.039 -0.925 0.378 184 135 114 0 0
6.7355 8.4852 -0.2352 -0.543 -0.685 0.485 251 251 249 0 0
6.7898 7.7566 -0.2889 -0.449 -0.492 0.746 233 216 188 0 0
6.9900 7.5123 -0.2941 -0.054 -0.723 0.689 234 217 191 0 0
7.0370 7.5218 -0.2901 -0.358 -0.741 0.568 233 217 192 0 0
8.0570 7.7543 -0.1999 0.214 -0.509 0.834 253 253 253 0 0
8.1526 7.8409 -0.1863 0.203 -0.460 0.864 253 253 253 0 0
8.1628 7.8271 -0.1867 0.333 -0.576 0.746 253 253 253 0 0
8.2237 7.8726 -0.1789 0.333 -0.576 0.746 253 253 253 0 0
2.5228 11.8397 -0.2870 -0.593 -0.149 0.791 244 244 242 0 0
3.2012 11.1147 -0.2958 -0.275 -0.702 0.657 188 138 118 0 0
3.6941 10.9203 -0.2765 -0.367 -0.524 0.769 182 129 108 0 0
3.7521 10.9105 -0.2732 -0.190 -0.643 0.742 179 130 109 0 0
3.7710 10.9053 -0.2723 -0.273 -0.625 0.731 167 117 96 0 0
3.7892 10.8981 -0.2716 -0.288 -0.639 0.714 186 135 113 0 0
3.8047 10.8811 -0.2718 -0.522 -0.573 0.631 189 137 115 0 0
3.8437 10.8751 -0.2696 -0.282 -0.626 0.727 204 154 131 0 0
3.9146 10.8391 -0.2674 -0.241 -0.550 0.800 183 133 112 0 0
4.1775 10.7613 -0.2551 0.188 -0.767 0.614 193 143 126 0 0
4.1999 10.7669 -0.2531 -0.101 -0.725 0.682 188 138 120 0 0
4.2142 10.7474 -0.2536 -0.482 -0.556 0.677 175 123 105 0 0
4.5339 10.5903 -0.2435 -0.489 -0.606 0.628 185 138 120 0 0
4.7770 10.5128 -0.2325 -0.107 -0.652 0.751 173 119 100 0 0
4.7967 10.5094 -0.2314 0.068 -0.762 0.644 191 136 118 0 0
5.3284 10.3049 -0.2102 -0.165 -0.600 0.783 202 151 131 0 0
5.4571 10.2563 -0.2049 -0.481 -0.600 0.639 180 128 106 0 0
5.5650 10.2570 -0.1973 -0.193 -0.574 0.796 174 122 100 0 0
5.5691 10.2182 -0.2001 -0.083 -0.751 0.655 178 126 105 0 0
5.5901 10.2170 -0.1987 -0.291 -0.562 0.774 175 122 101 0 0
5.6077 10.2084 -0.1981 -0.339 -0.554 0.760 182 131 110 0 0
6.1298 10.0264 -0.1758 0.089 -0.733 0.675 199 152 133 0 0
6.1550 9.9897 -0.1769 -0.187 -0.628 0.755 195 146 125 0 0
6.2938 9.9598 -0.1695 -0.294 -0.853 0.431 200 151 134 0 0
6.7605 7.7704 -0.3067 -0.542 -0.390 0.744 235 216 189 0 0
6.7779 7.7387 -0.3079 -0.449 -0.492 0.746 235 216 189 0 0
7.0094 7.4844 -0.3115 -0.206 -0.553 0.807 232 216 191 0 0
7.0727 7.4367 -0.3108 -0.020 -0.646 0.763 233 217 192 0 0
8.0201 7.7354 -0.2215 0.254 -0.445 0.859 253 252 249 0 0
8.0053 7.6925 -0.2258 0.283 -0.532 0.798 253 253 252 0 0
8.0573 7.7283 -0.2194 0.301 -0.549 0.780 253 253 251 0 0
8.1052 7.7589 -0.2137 0.333 -0.576 0.746 253 252 253 0 0
8.2014 7.8456 -0.2003 0.327 -0.553 0.767 253 253 254 0 0
8.2669 7.8962 -0.1918 0.327 -0.553 0.767 252 253 254 0 0
8.2359 7.8345 -0.1987 0.489 -0.679 0.548 253 253 253 0 0
2.6437 11.4923 -0.3254 -0.211 -0.437 0.874 215 192 179 0 0
2.8810 11.1850 -0.3323 -0.460 -0.513 0.724 190 140 121 0 0
3.1974 11.0949 -0.3173 -0.226 -0.698 0.679 180 131 109 0 0
3.6885 10.8969 -0.2983 -0.306 -0.549 0.778 192 141 120 0 0
3.7062 10.8878 -0.2978 -0.306 -0.549 0.778 189 138 119 0 0
3.7189 10.8608 -0.2990 -0.224 -0.643 0.732 182 134 114 0 0
3.7640 10.8776 -0.2946 -0.229 -0.593 0.772 171 120 100 0 0
3.7827 10.8722 -0.2937 -0.407 -0.563 0.719 193 141 120 0 0
3.8000 10.8617 -0.2933 -0.522 -0.573 0.631 183 131 109 0 0
3.8153 10.8440 -0.2936 -0.442 -0.616 0.652 190 139 117 0 0
3.9102 10.8215 -0.2887 -0.199 -0.638 0.744 199 149 128 0 0
3.9647 10.7992 -0.2866 -0.255 -0.641 0.724 186 136 113 0 0
3.9770 10.7722 -0.2878 -0.558 -0.513 0.652 193 143 121 0 0
3.9923 10.7553 -0.2881 -0.558 -0.513 0.652 190 139 118 0 0
4.0356 10.7638 -0.2844 -0.389 -0.585 0.712 161 112 94 0 0
4.3486 10.6515 -0.2713 -0.360 -0.594 0.719 194 144 125 0 0
4.4192 10.6159 -0.2691 -0.215 -0.595 0.774 208 162 146 0 0
4.4379 10.6103 -0.2682 -0.215 -0.595 0.774 189 146 129 0 0
4.5284 10.5726 -0.2648 -0.489 -0.606 0.628 198 150 132 0 0
4.5512 10.5785 -0.2628 -0.376 -0.621 0.688 194 143 124 0 0
4.9727 10.4182 -0.2458 -0.496 -0.529 0.689 175 120 99 0 0
5.5604 10.1972 -0.2220 -0.107 -0.621 0.776 168 115 94 0 0
6.1789 9.9491 -0.1980 0.188 -0.839 0.510 196 148 128 0 0
6.7576 7.7372 -0.3262 -0.575 -0.363 0.733 231 211 184 0 0
7.9001 7.5930 -0.2581 0.214 -0.509 0.834 251 248 240 0 0
7.9430 7.6183 -0.2532 0.283 -0.532 0.798 253 253 250 0 0
7.9992 7.6591 -0.2462 0.300 -0.544 0.784 253 253 253 0 0
8.0485 7.6916 -0.2403 0.333 -0.576 0.746 253 253 254 0 0
8.1990 7.8163 -0.2204 0.327 -0.553 0.767 253 253 252 0 0
8.2000 7.7919 -0.2222 0.287 -0.562 0.776 253 253 253 0 0
8.2224 7.7925 -0.2206 0.417 -0.665 0.619 253 253 253 0 0
2.4896 11.8738 -0.3274 -0.860 -0.082 0.503 244 244 241 0 0
2.4950 11.7833 -0.3337 -0.817 -0.091 0.570 245 244 242 0 0
3.4050 10.9608 -0.3326 -0.429 -0.581 0.691 187 136 112 0 0
3.4217 10.9477 -0.3324 -0.466 -0.632 0.619 175 123 99 0 0
3.6996 10.8612 -0.3198 -0.333 -0.613 0.716 181 130 109 0 0
3.7111 10.8295 -0.3214 -0.130 -0.641 0.756 187 136 117 0 0
3.9718 10.7524 -0.3093 -0.598 -0.522 0.609 195 144 123 0 0
3.9867 10.7340 -0.3096 -0.558 -0.513 0.652 185 134 114 0 0
4.6454 10.4912 -0.2825 -0.235 -0.781 0.579 193 144 127 0 0
4.6967 10.4609 -0.2812 0.005 -0.746 0.666 192 141 123 0 0
4.9580 10.3789 -0.2694 -0.288 -0.531 0.797 178 123 103 0 0
5.4325 10.1969 -0.2504 -0.098 -0.683 0.724 192 141 120 0 0
5.5494 10.1712 -0.2443 -0.107 -0.621 0.776 158 103 82 0 0
6.5327 9.9457 -0.1936 -0.171 -0.985 -0.030 168 116 95 0 0
6.5548 9.9451 -0.1921 -0.359 -0.924 -0.133 171 119 98 0 0
6.8568 8.7990 -0.2569 -0.840 0.202 0.504 251 251 249 0 0
6.7179 8.2667 -0.3062 -0.463 -0.022 0.886 234 214 191 0 0
7.1456 7.3490 -0.3453 -0.328 -0.701 0.633 230 213 187 0 0
7.8455 7.5277 -0.2839 0.214 -0.509 0.834 233 222 209 0 0
7.8812 7.5448 -0.2801 0.251 -0.519 0.817 240 234 226 0 0
8.1819 7.7448 -0.2446 0.417 -0.665 0.619 253 253 253 0 0
8.2432 7.7902 -0.2370 0.410 -0.664 0.625 253 253 253 0 0
8.3421 7.8786 -0.2236 0.502 -0.665 0.553 253 253 253 0 0
2.4374 11.5450 -0.3753 -0.068 -0.523 0.850 245 244 240 0 0
2.4570 11.5443 -0.3740 -0.118 -0.472 0.874 244 243 240 0 0
2.7418 11.1648 -0.3824 -0.338 -0.539 0.771 181 133 113 0 0
2.8594 11.1678 -0.3742 -0.033 -0.627 0.778 194 148 132 0 0
4.0160 10.6945 -0.3300 -0.216 -0.574 0.790 190 139 118 0 0
4.2625 10.5727 -0.3222 -0.404 -0.551 0.730 186 135 112 0 0
4.2803 10.5648 -0.3215 -0.241 -0.614 0.752 178 126 105 0 0
4.6221 10.4821 -0.3043 -0.698 -0.423 0.578 186 138 120 0 0
4.6889 10.4377 -0.3030 -0.054 -0.684 0.728 180 130 112 0 0
5.5163 10.1435 -0.2682 -0.188 -0.678 0.710 172 119 98 0 0
5.5736 10.1283 -0.2654 -0.268 -0.679 0.684 169 116 98 0 0
5.5927 10.1231 -0.2645 -0.323 -0.677 0.661 175 127 107 0 0
6.0845 9.9326 -0.2449 -0.479 -0.597 0.643 185 135 116 0 0
6.5514 9.9374 -0.2128 -0.133 -0.912 0.388 179 127 107 0 0
6.8138 7.5380 -0.3704 -0.460 -0.581 0.672 225 208 182 0 0
7.1099 7.3534 -0.3638 -0.413 -0.684 0.601 229 213 187 0 0
7.1154 7.3350 -0.3647 -0.764 -0.501 0.408 230 213 187 0 0
7.1281 7.3259 -0.3645 -0.450 -0.726 0.520 230 213 187 0 0
8.3153 7.8214 -0.2474 0.405 -0.645 0.648 253 253 253 0 0
2.3227 11.4298 -0.4111 -0.632 -0.693 0.346 243 244 240 0 0
2.3622 11.4350 -0.4081 0.136 -0.781 0.609 245 244 241 0 0
2.4513 11.5052 -0.3971 -0.173 -0.372 0.912 245 244 240 0 0
2.6994 11.1421 -0.4063 -0.187 -0.677 0.712 191 143 123 0 0
2.7204 11.1509 -0.4043 -0.319 -0.624 0.713 193 144 124 0 0
2.8085 11.1039 -0.4017 -0.371 -0.543 0.753 196 152 135 0 0
2.8435 11.0844 -0.4007 -0.573 -0.465 0.675 197 152 136 0 0
2.9907 11.0413 -0.3939 -0.531 -0.788 0.311 196 147 126 0 0
3.0088 11.0345 -0.3932 -0.776 -0.553 0.302 191 142 120 0 0
3.0778 10.9915 -0.3916 -0.115 -0.691 0.714 193 145 123 0 0
3.0962 10.9863 -0.3907 -0.280 -0.612 0.740 186 136 114 0 0
3.1157 10.9855 -0.3895 -0.439 -0.624 0.647 178 126 104 0 0
3.2035 10.9399 -0.3868 -0.069 -0.632 0.772 185 133 111 0 0
3.9029 10.7196 -0.3554 -0.178 -0.662 0.728 184 133 111 0 0
4.2384 10.5593 -0.3442 -0.367 -0.535 0.761 177 126 104 0 0
4.5450 10.4956 -0.3281 -0.270 -0.772 0.576 195 144 123 0 0
4.5612 10.4831 -0.3279 -0.398 -0.709 0.581 187 136 117 0 0
4.6114 10.4503 -0.3268 -0.536 -0.685 0.494 192 145 127 0 0
4.6288 10.4413 -0.3263 -0.309 -0.768 0.561 187 140 122 0 0
4.7754 10.3891 -0.3201 -0.202 -0.623 0.755 180 129 109 0 0
6.0562 9.9182 -0.2674 0.050 -0.721 0.691 189 139 120 0 0
6.3637 9.9186 -0.2466 -0.310 -0.946 0.099 190 139 119 0 0
7.2797 10.3997 -0.1503 0.739 -0.645 -0.196 249 249 247 0 0
6.7954 7.5387 -0.3881 -0.501 -0.639 0.584 227 207 182 0 0
2.6191 11.1217 -0.4325 -0.294 -0.783 0.548 200 152 130 0 0
2.6386 11.1229 -0.4312 0.193 -0.760 0.620 196 149 127 0 0
2.6765 11.1194 -0.4289 0.101 -0.771 0.628 192 145 125 0 0
2.8741 11.0400 -0.4212 -0.404 -0.570 0.715 196 148 129 0 0
2.9314 11.0346 -0.4177 -0.180 -0.715 0.675 193 145 122 0 0
2.9508 11.0340 -0.4165 -0.084 -0.759 0.646 183 134 112 0 0
2.9701 11.0329 -0.4153 -0.204 -0.748 0.632 178 130 108 0 0
3.0199 10.9918 -0.4148 -0.358 -0.596 0.718 179 131 108 0 0
3.3443 10.8663 -0.4019 -0.284 -0.614 0.737 182 129 106 0 0
4.1085 10.5954 -0.3698 -0.251 -0.686 0.683 177 123 100 0 0
4.2863 10.5168 -0.3634 -0.268 -0.586 0.764 185 131 110 0 0
4.5584 10.4731 -0.3482 -0.717 -0.650 0.250 190 139 120 0 0
4.5732 10.4567 -0.3484 -0.717 -0.650 0.250 182 132 114 0 0
4.5878 10.4398 -0.3486 -0.793 -0.577 0.196 200 150 134 0 0
4.6078 10.4382 -0.3474 -0.536 -0.685 0.494 189 142 124 0 0
4.6740 10.3930 -0.3461 -0.054 -0.684 0.728 184 136 116 0 0
4.6943 10.3921 -0.3448 -0.054 -0.723 0.688 176 126 106 0 0
4.7152 10.3926 -0.3434 -0.054 -0.684 0.728 171 122 103 0 0
5.8189 9.9616 -0.2998 -0.197 -0.635 0.747 188 137 115 0 0
6.0415 9.8877 -0.2901 -0.102 -0.789 0.606 192 143 123 0 0
7.2950 10.4241 -0.1684 0.742 -0.630 -0.228 249 249 247 0 0
6.7240 7.5749 -0.4068 -0.606 -0.633 0.482 227 210 184 0 0
2.9983 10.9787 -0.4365 -0.457 -0.552 0.698 183 133 112 0 0
3.0889 10.9469 -0.4327 -0.349 -0.562 0.750 176 124 102 0 0
3.2111 10.8819 -0.4291 -0.300 -0.582 0.756 196 145 124 0 0
3.2415 10.8444 -0.4296 -0.177 -0.692 0.700 188 137 116 0 0
3.2820 10.8496 -0.4266 -0.297 -0.722 0.624 173 121 99 0 0
3.5049 10.7943 -0.4156 -0.252 -0.572 0.780 177 124 103 0 0
3.5226 10.7862 -0.4150 -0.219 -0.610 0.762 171 115 95 0 0
3.6999 10.7062 -0.4087 -0.341 -0.635 0.693 200 151 128 0 0
4.7077 10.3704 -0.3649 -0.054 -0.684 0.728 179 131 113 0 0
4.7283 10.3700 -0.3635 -0.081 -0.665 0.743 180 132 113 0 0
4.7845 10.3543 -0.3609 -0.440 -0.568 0.696 186 133 115 0 0
4.7889 10.3113 -0.3635 -0.504 -0.491 0.711 192 141 121 0 0
4.8038 10.2959 -0.3636 -0.591 -0.504 0.630 176 129 109 0 0
4.8459 10.2978 -0.3607 -0.415 -0.585 0.696 178 129 109 0 0
4.8595 10.2792 -0.3611 -0.333 -0.604 0.724 182 126 109 0 0
6.1317 9.8500 -0.3061 -0.197 -0.859 0.472 168 118 97 0 0
7.3108 10.4492 -0.1866 0.742 -0.630 -0.228 249 249 247 0 0
6.6674 7.6047 -0.4250 -0.337 -0.939 0.065 225 206 179 0 0
2.1908 11.3024 -0.4872 -0.090 -0.993 0.078 244 243 241 0 0
2.2833 11.4106 -0.4738 0.130 -0.989 0.076 245 243 241 0 0
3.0295 10.9396 -0.4564 -0.038 -0.682 0.731 190 140 117 0 0
3.0489 10.9392 -0.4552 -0.179 -0.702 0.689 192 140 118 0 0
3.0667 10.9316 -0.4545 -0.349 -0.562 0.750 164 112 90 0 0
3.0840 10.9215 -0.4541 -0.349 -0.562 0.750 172 120 98 0 0
3.2058 10.8559 -0.4505 -0.012 -0.772 0.635 179 129 106 0 0
3.2242 10.8511 -0.4496 -0.199 -0.717 0.668 190 139 117 0 0
3.2612 10.8419 -0.4478 -0.247 -0.709 0.661 191 138 116 0 0
3.2787 10.8331 -0.4472 -0.297 -0.722 0.624 186 131 110 0 0
3.4825 10.7815 -0.4373 -0.549 -0.496 0.673 188 136 115 0 0
3.4993 10.7697 -0.4370 -0.298 -0.624 0.722 180 128 107 0 0
3.5170 10.7620 -0.4363 -0.298 -0.624 0.722 193 141 120 0 0
3.6956 10.6882 -0.4295 -0.403 -0.636 0.658 190 141 118 0 0
4.2697 10.4620 -0.4070 -0.278 -0.564 0.778 178 128 108 0 0
4.7563 10.3323 -0.3837 -0.566 -0.498 0.657 190 139 118 0 0
4.8157 10.2711 -0.3839 -0.407 -0.592 0.696 175 125 105 0 0
4.8483 10.2483 -0.3833 -0.158 -0.694 0.702 175 120 103 0 0
4.8676 10.2449 -0.3822 -0.158 -0.694 0.702 137 80 63 0 0
4.8907 10.2508 -0.3803 -0.135 -0.678 0.723 159 105 87 0 0
5.2620 10.0879 -0.3668 -0.158 -0.656 0.738 192 141 120 0 0
5.2821 10.0859 -0.3656 -0.048 -0.642 0.765 189 138 117 0 0
5.3264 10.0910 -0.3624 -0.153 -0.642 0.751 197 145 124 0 0
5.3462 10.0880 -0.3613 -0.238 -0.607 0.758 182 130 109 0 0
5.3617 10.0754 -0.3611 -0.284 -0.624 0.728 183 132 110 0 0
5.5717 9.9778 -0.3538 -0.208 -0.640 0.740 202 157 139 0 0
5.6082 9.9649 -0.3523 -0.275 -0.571 0.774 196 153 135 0 0
5.6259 9.9573 -0.3517 -0.275 -0.571 0.774 181 138 121 0 0
6.3802 9.8622 -0.3084 -0.093 -0.920 0.380 167 116 95 0 0
6.6674 7.6035 -0.4416 -0.337 -0.939 0.065 230 210 183 0 0
6.6777 7.5905 -0.4418 -0.534 -0.692 0.486 227 210 182 0 0
6.8685 7.3693 -0.4441 -0.485 -0.749 0.451 223 207 181 0 0
6.8820 7.3612 -0.4438 -0.477 -0.766 0.432 224 207 181 0 0
7.1672 7.2460 -0.4328 -0.272 -0.788 0.552 224 208 182 0 0
2.1958 11.3317 -0.5043 -0.054 -0.911 0.408 244 243 241 0 0
3.0051 10.9135 -0.4790 0.111 -0.798 0.592 176 125 102 0 0
3.0267 10.9233 -0.4770 -0.055 -0.704 0.708 161 109 87 0 0
3.2003 10.8292 -0.4719 0.035 -0.729 0.684 182 132 109 0 0
3.2194 10.8274 -0.4707 -0.254 -0.750 0.611 184 133 111 0 0
3.2334 10.8042 -0.4713 -0.177 -0.692 0.700 182 130 109 0 0
3.2576 10.8239 -0.4685 -0.247 -0.709 0.661 185 131 109 0 0
3.2760 10.8186 -0.4676 -0.353 -0.717 0.601 174 120 98 0 0
3.2948 10.8156 -0.4666 -0.146 -0.777 0.612 178 123 100 0 0
3.4779 10.7609 -0.4582 -0.525 -0.474 0.707 161 110 89 0 0
3.9938 10.5432 -0.4389 -0.185 -0.620 0.762 191 144 125 0 0
4.0125 10.5390 -0.4380 -0.140 -0.629 0.765 185 136 115 0 0
4.3785 10.4209 -0.4219 -0.268 -0.674 0.688 168 114 93 0 0
4.4915 10.3362 -0.4201 -0.379 -0.598 0.707 191 139 121 0 0
4.5104 10.3320 -0.4191 -0.538 -0.527 0.658 178 126 108 0 0
4.8284 10.2483 -0.4039 -0.352 -0.641 0.682 185 133 116 0 0
5.1837 10.0991 -0.3905 -0.448 -0.556 0.700 172 121 102 0 0
5.2186 10.0828 -0.3893 -0.190 -0.660 0.727 193 142 121 0 0
5.2367 10.0761 -0.3886 -0.334 -0.671 0.662 194 143 122 0 0
5.2563 10.0729 -0.3875 -0.038 -0.809 0.587 196 144 123 0 0
5.2757 10.0694 -0.3865 -0.251 -0.802 0.543 191 140 119 0 0
5.3146 10.0621 -0.3844 -0.352 -0.544 0.762 184 130 109 0 0
5.3320 10.0538 -0.3838 -0.296 -0.567 0.768 193 139 117 0 0
5.3457 10.0372 -0.3840 -0.243 -0.634 0.734 183 130 108 0 0
5.3660 10.0355 -0.3828 -0.055 -0.711 0.701 189 137 115 0 0
5.3880 10.0375 -0.3812 -0.201 -0.626 0.754 180 128 107 0 0
5.5974 9.9401 -0.3740 -0.526 -0.662 0.534 191 149 131 0 0
5.6126 9.9271 -0.3739 -0.589 -0.603 0.537 196 156 138 0 0
6.1231 9.8304 -0.3469 -0.336 -0.935 0.117 173 121 99 0 0
6.7607 8.8754 -0.3682 -0.706 0.099 0.701 249 249 247 0 0
6.8059 7.4155 -0.4614 -0.600 -0.671 0.435 222 205 178 0 0
6.8126 7.3982 -0.4621 -0.510 -0.779 0.365 224 207 180 0 0
6.8638 7.3621 -0.4612 -0.485 -0.749 0.451 225 209 182 0 0
7.2502 7.2247 -0.4450 -0.047 -0.849 0.526 222 205 179 0 0
2.0894 11.6690 -0.5088 -0.264 -0.210 0.941 244 243 241 0 0
2.3211 11.3962 -0.5114 0.225 -0.960 -0.167 158 128 114 0 0
3.1945 10.8015 -0.4932 -0.423 -0.615 0.665 179 127 105 0 0
3.2125 10.7954 -0.4925 -0.198 -0.693 0.693 184 133 112 0 0
3.2291 10.7831 -0.4922 -0.122 -0.679 0.724 161 109 88 0 0
3.2481 10.7809 -0.4911 -0.122 -0.679 0.724 151 99 78 0 0
3.3088 10.7893 -0.4866 0.114 -0.743 0.660 178 123 99 0 0
3.5921 10.6667 -0.4762 -0.300 -0.606 0.737 190 144 124 0 0
3.6094 10.6578 -0.4757 -0.294 -0.703 0.647 202 157 138 0 0
3.8562 10.5486 -0.4667 -0.121 -0.661 0.741 175 123 101 0 0
3.8751 10.5450 -0.4657 -0.084 -0.691 0.718 173 119 99 0 0
3.9126 10.5372 -0.4638 -0.153 -0.738 0.657 180 123 103 0 0
3.9361 10.5489 -0.4615 -0.574 -0.518 0.634 177 121 101 0 0
4.1335 10.4735 -0.4536 -0.527 -0.574 0.627 182 133 114 0 0
4.1520 10.4686 -0.4527 -0.329 -0.624 0.709 193 147 129 0 0
4.3733 10.4036 -0.4426 -0.449 -0.589 0.672 168 111 91 0 0
4.4463 10.3792 -0.4395 -0.223 -0.689 0.690 187 136 119 0 0
4.5054 10.3159 -0.4397 -0.510 -0.501 0.699 189 137 116 0 0
4.8151 10.2121 -0.4264 -0.262 -0.562 0.785 181 130 113 0 0
4.8315 10.2012 -0.4260 -0.067 -0.653 0.755 192 144 125 0 0
5.3200 10.0247 -0.4058 -0.317 -0.490 0.812 184 129 108 0 0
5.3758 10.0082 -0.4032 -0.227 -0.580 0.782 183 131 110 0 0
5.6680 9.9078 -0.3908 -0.282 -0.659 0.697 186 139 119 0 0
6.1388 9.8172 -0.3662 -0.276 -0.924 0.264 177 127 104 0 0
6.5785 9.8965 -0.3326 0.303 -0.940 0.158 138 91 75 0 0
7.3088 10.4415 -0.2503 0.740 -0.662 -0.117 248 248 246 0 0
6.7048 8.8189 -0.3939 -0.786 0.128 0.605 249 249 247 0 0
6.7481 8.8541 -0.3888 -0.748 0.109 0.655 248 248 246 0 0
6.7285 8.7893 -0.3942 -0.772 0.120 0.624 249 249 247 0 0
6.6293 7.5753 -0.4789 -0.510 -0.601 0.615 228 211 183 0 0
6.8294 7.3674 -0.4793 -0.562 -0.647 0.515 222 205 179 0 0
2.6743 10.9856 -0.5342 -0.604 -0.480 0.637 180 132 110 0 0
3.3195 10.7502 -0.5076 -0.095 -0.664 0.742 184 128 105 0 0
3.4645 10.7033 -0.5013 -0.142 -0.685 0.715 180 129 109 0 0
3.5862 10.6420 -0.4973 -0.111 -0.688 0.717 203 156 137 0 0
3.6241 10.6365 -0.4953 -0.285 -0.711 0.643 192 145 125 0 0
3.6433 10.6344 -0.4942 0.151 -0.799 0.582 188 141 121 0 0
3.8390 10.5551 -0.4866 -0.099 -0.624 0.775 191 137 116 0 0
3.8584 10.5534 -0.4855 -0.099 -0.624 0.775 167 113 92 0 0
3.8718 10.5315 -0.4860 -0.040 -0.738 0.673 154 99 78 0 0
5.6470 9.8619 -0.4143 -0.232 -0.582 0.779 172 123 103 0 0
6.0779 9.8236 -0.3891 -0.015 -0.940 0.341 176 124 102 0 0
6.2273 9.8181 -0.3799 -0.275 -0.908 0.316 172 121 100 0 0
6.7431 9.9875 -0.3361 0.287 -0.952 -0.112 141 94 80 0 0
7.3175 10.4547 -0.2699 0.740 -0.662 -0.117 248 248 246 0 0
6.7417 8.9105 -0.4040 -0.693 0.101 0.713 249 249 247 0 0
6.7333 8.8630 -0.4076 -0.765 0.102 0.636 249 249 247 0 0
6.7219 8.8112 -0.4115 -0.748 0.109 0.655 249 249 247 0 0
2.1162 11.2913 -0.5700 0.213 -0.959 -0.188 242 236 231 0 0
2.5605 10.9848 -0.5606 -0.190 -0.603 0.775 183 135 117 0 0
2.7514 10.8857 -0.5546 -0.042 -0.701 0.712 189 137 115 0 0
2.7709 10.8880 -0.5532 0.118 -0.770 0.627 197 146 124 0 0
2.7899 10.8874 -0.5520 -0.058 -0.739 0.671 187 138 116 0 0
2.8302 10.8971 -0.5489 -0.149 -0.809 0.569 167 119 99 0 0
3.5047 10.6287 -0.5225 -0.244 -0.697 0.674 173 126 107 0 0
3.5385 10.6082 -0.5216 -0.425 -0.590 0.687 196 147 125 0 0
3.8125 10.5301 -0.5090 -0.338 -0.565 0.753 172 113 91 0 0
4.0215 10.4317 -0.5018 -0.379 -0.582 0.719 179 128 110 0 0
4.0599 10.4267 -0.4997 -0.124 -0.622 0.773 189 139 121 0 0
4.0794 10.4251 -0.4985 -0.088 -0.631 0.771 199 151 135 0 0
4.3455 10.3182 -0.4882 -0.330 -0.611 0.720 183 132 111 0 0
4.3787 10.2973 -0.4873 -0.094 -0.708 0.700 180 128 107 0 0
4.5996 10.2343 -0.4772 -0.413 -0.625 0.662 192 143 124 0 0
4.6165 10.2248 -0.4767 -0.451 -0.599 0.662 188 140 122 0 0
4.8482 10.1347 -0.4675 -0.309 -0.583 0.752 174 121 100 0 0
5.7913 9.8073 -0.4277 -0.048 -0.824 0.565 179 128 106 0 0
5.8095 9.8008 -0.4270 -0.199 -0.878 0.436 177 127 104 0 0
5.8289 9.7969 -0.4260 -0.199 -0.878 0.436 171 120 97 0 0
6.0749 9.8164 -0.4091 -0.015 -0.940 0.341 161 108 87 0 0
6.2440 9.8069 -0.3990 -0.156 -0.947 0.279 175 124 102 0 0
6.4035 9.8585 -0.3857 0.035 -0.998 -0.057 144 97 81 0 0
6.4249 9.8571 -0.3844 -0.188 -0.971 -0.146 142 95 79 0 0
7.3263 10.4679 -0.2895 0.740 -0.662 -0.117 248 248 246 0 0
6.7195 8.8738 -0.4261 -0.823 0.140 0.551 249 249 247 0 0
6.7057 8.8178 -0.4305 -0.861 0.177 0.477 248 248 246 0 0
6.8646 7.3084 -0.5132 -0.604 -0.688 0.403 219 203 175 0 0
8.3152 7.6884 -0.3976 0.395 -0.588 0.705 252 253 253 0 0
1.9552 11.5047 -0.5866 -0.516 -0.308 0.800 243 243 241 0 0
1.9717 11.4842 -0.5868 -0.825 -0.247 0.507 244 243 239 0 0
1.9899 11.3295 -0.5949 -0.673 -0.566 0.476 244 243 241 0 0
2.7302 10.8713 -0.5758 -0.091 -0.635 0.767 182 131 108 0 0
2.7659 10.8590 -0.5743 -0.260 -0.599 0.758 177 125 103 0 0
2.7836 10.8520 -0.5736 -0.455 -0.481 0.749 164 115 93 0 0
2.8754 10.8335 -0.5690 -0.336 -0.611 0.717 202 157 137 0 0
2.8922 10.8224 -0.5686 -0.415 -0.618 0.668 196 148 128 0 0
2.9091 10.8115 -0.5682 -0.415 -0.618 0.668 169 121 100 0 0
2.9261 10.8012 -0.5677 -0.431 -0.604 0.670 180 130 109 0 0
3.5006 10.6104 -0.5430 -0.244 -0.697 0.674 181 129 108 0 0
3.5172 10.5991 -0.5426 -0.289 -0.569 0.770 195 144 122 0 0
3.5334 10.5861 -0.5424 -0.251 -0.610 0.752 190 138 116 0 0
3.5507 10.5778 -0.5418 -0.378 -0.589 0.714 176 125 104 0 0
3.9447 10.4382 -0.5253 -0.223 -0.596 0.771 178 130 109 0 0
4.0730 10.4028 -0.5194 -0.061 -0.669 0.741 181 132 115 0 0
4.3422 10.3063 -0.5082 -0.006 -0.786 0.619 186 135 114 0 0
4.3727 10.2777 -0.5080 -0.094 -0.708 0.700 178 124 104 0 0
4.6062 10.1950 -0.4983 -0.482 -0.507 0.714 193 145 126 0 0
4.9791 10.0485 -0.4836 -0.466 -0.676 0.571 171 120 99 0 0
4.9970 10.0420 -0.4829 -0.260 -0.668 0.698 192 141 120 0 0
5.0166 10.0396 -0.4818 -0.212 -0.678 0.704 184 133 112 0 0
5.2826 9.9338 -0.4714 -0.256 -0.643 0.722 165 108 86 0 0
5.7628 9.7908 -0.4497 0.006 -0.893 0.450 184 133 111 0 0
5.7845 9.7916 -0.4483 0.006 -0.893 0.450 165 113 91 0 0
5.8058 9.7917 -0.4469 -0.199 -0.878 0.436 176 124 102 0 0
5.8252 9.7878 -0.4460 -0.199 -0.878 0.436 164 112 90 0 0
7.1778 10.2156 -0.3351 -0.310 -0.933 0.181 248 248 246 0 0
6.7095 8.8565 -0.4462 -0.711 0.104 0.695 248 249 247 0 0
6.4950 7.8026 -0.5230 -0.727 -0.531 0.435 227 207 180 0 0
6.5115 7.7981 -0.5222 -0.189 -0.906 0.379 224 204 177 0 0
6.6079 7.5695 -0.5299 -0.480 -0.575 0.662 228 210 185 0 0
6.7345 7.3940 -0.5324 -0.405 -0.879 0.251 220 203 175 0 0
6.7514 7.3906 -0.5316 -0.692 -0.690 0.212 220 203 175 0 0
6.7571 7.3719 -0.5324 -0.319 -0.797 0.512 219 202 174 0 0
7.4448 7.1415 -0.5029 -0.038 -0.956 0.292 224 208 183 0 0
1.9886 11.3140 -0.6152 -0.673 -0.566 0.476 244 243 241 0 0
2.0833 11.3168 -0.6091 0.139 -0.797 0.588 199 179 168 0 0
2.2976 10.9823 -0.6153 -0.159 -0.575 0.802 199 153 136 0 0
2.6546 10.8696 -0.5997 -0.444 -0.613 0.653 180 129 108 0 0
3.7766 10.4693 -0.5531 -0.246 -0.664 0.706 187 131 111 0 0
3.8457 10.4359 -0.5507 -0.223 -0.576 0.787 183 132 113 0 0
4.9025 10.0606 -0.5068 0.122 -0.760 0.638 184 131 112 0 0
4.9344 10.0378 -0.5061 -0.239 -0.739 0.630 184 131 110 0 0
4.9922 10.0284 -0.5031 -0.340 -0.575 0.744 199 147 126 0 0
5.0667 10.0090 -0.4995 -0.283 -0.630 0.723 185 129 107 0 0
5.1735 9.9679 -0.4953 0.070 -0.737 0.672 192 138 116 0 0
5.5953 9.7920 -0.4793 -0.056 -0.637 0.768 188 143 124 0 0
5.6292 9.7750 -0.4781 -0.102 -0.687 0.720 193 142 120 0 0
5.6746 9.7817 -0.4749 -0.027 -0.783 0.622 181 133 113 0 0
5.9141 9.7506 -0.4618 -0.264 -0.876 0.403 173 119 95 0 0
7.1825 10.2221 -0.3550 -0.551 -0.832 -0.067 248 248 246 0 0
6.7170 8.9702 -0.4574 -0.642 0.086 0.762 248 248 246 0 0
6.6816 8.8106 -0.4690 -0.647 0.068 0.760 248 249 246 0 0
6.4253 7.9631 -0.5346 -0.659 -0.445 0.607 223 200 173 0 0
6.4367 7.9504 -0.5347 -0.701 -0.323 0.636 223 200 173 0 0
6.4962 7.7743 -0.5413 -0.862 -0.486 0.143 227 207 180 0 0
6.6000 7.5574 -0.5475 -0.301 -0.606 0.736 228 211 184 0 0
6.6367 7.4994 -0.5486 -0.029 -0.891 0.454 223 203 176 0 0
6.7324 7.3902 -0.5490 -0.405 -0.879 0.251 223 203 177 0 0
8.3179 7.6401 -0.4354 0.389 -0.596 0.703 253 253 252 0 0
1.9189 11.6664 -0.6186 -0.488 -0.165 0.857 243 243 241 0 0
1.9330 11.6236 -0.6202 -0.409 -0.175 0.896 243 243 241 0 0
2.0810 11.2948 -0.6298 -0.011 -0.676 0.737 171 134 119 0 0
2.0892 11.2173 -0.6337 -0.534 -0.349 0.770 175 120 103 0 0
2.2938 10.9537 -0.6362 -0.107 -0.671 0.734 189 143 126 0 0
2.6312 10.8418 -0.6217 -0.557 -0.656 0.510 187 137 114 0 0
3.5212 10.5350 -0.5842 -0.085 -0.688 0.721 185 131 108 0 0
4.2149 10.2815 -0.5557 -0.297 -0.641 0.708 190 135 115 0 0
4.9617 10.0021 -0.5255 -0.202 -0.699 0.686 167 112 92 0 0
4.9833 10.0046 -0.5240 -0.308 -0.554 0.773 186 134 113 0 0
4.9997 9.9946 -0.5236 -0.379 -0.569 0.730 179 127 106 0 0
5.0431 9.9999 -0.5206 -0.331 -0.560 0.760 188 134 112 0 0
5.0688 9.9628 -0.5211 -0.085 -0.611 0.787 180 125 104 0 0
5.5111 9.7897 -0.5037 -0.076 -0.790 0.609 191 139 117 0 0
5.6411 9.7541 -0.4977 -0.149 -0.719 0.679 186 137 115 0 0
5.6646 9.7593 -0.4959 -0.094 -0.854 0.511 175 127 105 0 0
6.4479 9.8948 -0.4397 -0.075 -0.944 -0.321 131 83 68 0 0
6.6950 8.9678 -0.4774 -0.669 0.096 0.737 248 248 246 0 0
6.6867 8.9199 -0.4807 -0.650 0.074 0.756 248 248 246 0 0
6.4176 8.1026 -0.5440 -0.917 0.015 0.399 226 210 185 0 0
6.4248 7.9312 -0.5534 -0.812 -0.175 0.557 226 204 177 0 0
6.5892 7.5409 -0.5655 -0.301 -0.606 0.736 227 208 181 0 0
8.3280 7.6259 -0.4531 0.393 -0.605 0.693 252 252 250 0 0
1.8925 11.5986 -0.6437 -0.264 -0.175 0.948 243 243 241 0 0
2.0787 11.2726 -0.6505 0.008 -0.680 0.733 196 148 127 0 0
2.0844 11.1768 -0.6555 -0.534 -0.349 0.770 198 147 124 0 0
2.0975 11.1366 -0.6569 -0.683 -0.291 0.670 198 148 126 0 0
2.2380 10.9496 -0.6587 -0.341 -0.579 0.740 198 149 131 0 0
2.2552 10.9402 -0.6582 -0.341 -0.579 0.740 198 149 131 0 0
2.6290 10.8262 -0.6416 -0.284 -0.603 0.745 170 120 97 0 0
2.9774 10.6743 -0.6287 -0.060 -0.655 0.754 183 132 111 0 0
4.2416 10.2396 -0.5754 -0.294 -0.636 0.713 171 118 100 0 0
4.2591 10.2323 -0.5748 -0.342 -0.586 0.734 184 133 116 0 0
4.2791 10.2325 -0.5735 -0.045 -0.755 0.655 200 151 135 0 0
5.4434 9.7768 -0.5276 0.009 -0.794 0.607 193 141 119 0 0
5.4648 9.7781 -0.5262 0.038 -0.768 0.639 186 134 112 0 0
5.4849 9.7766 -0.5250 -0.056 -0.736 0.674 183 131 110 0 0
5.5026 9.7697 -0.5243 -0.219 -0.637 0.739 191 139 118 0 0
5.6599 9.7478 -0.5159 -0.094 -0.854 0.511 174 125 104 0 0
6.4027 9.8919 -0.4624 -0.179 -0.920 -0.349 143 96 78 0 0
7.3196 10.4914 -0.3728 0.639 -0.716 -0.281 247 248 245 0 0
6.6813 8.9789 -0.4961 -0.658 0.112 0.745 248 248 246 0 0
6.6614 8.9120 -0.5011 -0.695 0.100 0.712 248 248 246 0 0
7.0371 7.1739 -0.5749 -0.161 -0.919 0.359 212 195 165 0 0
8.3281 7.6007 -0.4720 0.449 -0.660 0.603 252 252 251 0 0
1.7315 11.5067 -0.6781 -0.171 -0.194 0.966 244 243 241 0 0
2.2349 10.9245 -0.6791 -0.353 -0.619 0.702 199 149 130 0 0
2.2696 10.9091 -0.6778 -0.220 -0.589 0.778 190 138 118 0 0
2.5902 10.8162 -0.6634 -0.239 -0.721 0.650 175 125 103 0 0
2.6080 10.8110 -0.6626 -0.239 -0.721 0.650 181 131 109 0 0
3.0577 10.6033 -0.6466 -0.508 -0.574 0.642 186 135 113 0 0
3.0736 10.5895 -0.6463 -0.508 -0.574 0.642 196 145 123 0 0
3.0985 10.6150 -0.6434 -0.218 -0.698 0.682 190 139 118 0 0
3.2046 10.5774 -0.6390 -0.192 -0.595 0.781 181 129 107 0 0
3.9481 10.3107 -0.6084 -0.164 -0.582 0.796 190 143 127 0 0
3.9851 10.3031 -0.6065 -0.239 -0.555 0.797 183 136 118 0 0
4.0272 10.2488 -0.6069 -0.167 -0.718 0.676 199 157 139 0 0
4.2355 10.2195 -0.5959 -0.294 -0.636 0.713 182 131 110 0 0
4.2524 10.2105 -0.5953 -0.342 -0.586 0.734 183 131 111 0 0
4.4459 10.1344 -0.5877 -0.375 -0.515 0.771 184 132 110 0 0
4.5983 10.0564 -0.5827 -0.221 -0.678 0.701 177 120 101 0 0
5.1639 9.8441 -0.5599 -0.075 -0.695 0.715 189 138 116 0 0
5.4948 9.7511 -0.5448 -0.262 -0.735 0.625 170 118 96 0 0
7.3113 10.4758 -0.3952 0.617 -0.744 -0.256 248 246 246 0 0
6.6470 8.8875 -0.5217 -0.707 0.143 0.692 248 248 244 0 0
6.3959 8.0975 -0.5798 -0.866 -0.024 0.500 226 206 181 0 0
6.8746 7.2146 -0.5986 -0.711 -0.602 0.363 214 196 167 0 0
8.2134 7.4959 -0.5021 0.443 -0.659 0.607 252 252 248 0 0
1.6971 11.3512 -0.7077 -0.396 -0.446 0.803 244 243 241 0 0
2.0202 11.1057 -0.7013 -0.218 -0.366 0.905 205 155 133 0 0
2.0927 10.9592 -0.7046 -0.420 -0.481 0.770 187 139 121 0 0
2.2663 10.8835 -0.6982 -0.220 -0.589 0.778 200 149 128 0 0
2.3208 10.8760 -0.6953 -0.417 -0.557 0.718 197 149 127 0 0
2.6033 10.7817 -0.6833 -0.264 -0.644 0.718 167 117 94 0 0
2.6225 10.7840 -0.6820 -0.356 -0.551 0.754 173 123 100 0 0
2.7949 10.7017 -0.6760 -0.095 -0.810 0.578 143 89 67 0 0
2.8122 10.6939 -0.6754 -0.313 -0.764 0.564 154 101 78 0 0
3.0541 10.5845 -0.6666 -0.506 -0.586 0.633 170 119 98 0 0
3.0699 10.5703 -0.6664 -0.508 -0.574 0.642 182 131 110 0 0
3.0862 10.5584 -0.6660 -0.415 -0.597 0.687 182 131 110 0 0
3.8000 10.3379 -0.6347 -0.086 -0.697 0.712 179 131 109 0 0
3.8199 10.3391 -0.6335 -0.425 -0.576 0.698 181 133 114 0 0
3.8352 10.3248 -0.6333 -0.532 -0.592 0.605 180 132 113 0 0
3.8507 10.3111 -0.6331 -0.532 -0.592 0.605 183 133 115 0 0
3.9759 10.2713 -0.6277 -0.181 -0.653 0.736 184 135 115 0 0
4.1731 10.2089 -0.6191 -0.154 -0.634 0.758 185 133 112 0 0
4.6758 9.9927 -0.6003 -0.380 -0.659 0.649 178 127 108 0 0
6.2859 9.8355 -0.5117 0.208 -0.976 -0.060 135 88 72 0 0
6.6292 9.9758 -0.4837 -0.225 -0.848 -0.481 132 90 74 0 0
7.2187 10.3985 -0.4259 0.685 -0.712 -0.153 248 246 242 0 0
7.2681 10.4418 -0.4206 0.670 -0.722 -0.172 247 247 244 0 0
7.3195 10.4882 -0.4151 0.670 -0.722 -0.172 248 246 246 0 0
7.2192 7.0810 -0.6010 -0.270 -0.837 0.476 213 196 168 0 0
1.6761 11.3209 -0.7297 -0.402 -0.475 0.783 244 243 241 0 0
1.6974 11.3477 -0.7270 -0.472 -0.422 0.774 243 243 241 0 0
1.7136 11.3261 -0.7272 -0.537 -0.417 0.733 243 243 241 0 0
2.0887 10.9261 -0.7254 -0.600 -0.537 0.593 189 143 124 0 0
2.1046 10.9084 -0.7253 -0.600 -0.537 0.593 188 143 124 0 0
2.2980 10.8455 -0.7170 -0.513 -0.527 0.677 207 159 138 0 0
2.3151 10.8360 -0.7165 -0.387 -0.557 0.735 200 152 131 0 0
2.5256 10.7624 -0.7077 -0.277 -0.514 0.812 181 131 108 0 0
2.6186 10.7594 -0.7023 -0.349 -0.574 0.741 181 131 108 0 0
3.0497 10.5619 -0.6868 -0.491 -0.567 0.661 190 139 118 0 0
3.0656 10.5485 -0.6865 -0.491 -0.567 0.661 188 137 116 0 0
3.0822 10.5381 -0.6861 -0.415 -0.597 0.687 173 122 101 0 0
3.3154 10.4759 -0.6754 -0.724 -0.532 0.439 188 136 114 0 0
3.4211 10.4385 -0.6710 -0.271 -0.539 0.798 173 117 96 0 0
3.8254 10.2895 -0.6546 -0.030 -0.738 0.674 198 150 132 0 0
3.8478 10.2990 -0.6527 0.051 -0.761 0.646 193 144 126 0 0
3.9871 10.2419 -0.6474 -0.250 -0.577 0.777 188 138 118 0 0
4.0743 10.2065 -0.6440 -0.289 -0.801 0.524 163 108 87 0 0
4.0921 10.2009 -0.6432 -0.158 -0.842 0.516 169 114 93 0 0
4.1241 10.1778 -0.6425 -0.618 -0.494 0.612 178 124 104 0 0
4.1380 10.1600 -0.6426 -0.546 -0.512 0.663 186 133 112 0 0
4.8836 9.9023 -0.6114 -0.406 -0.681 0.609 162 100 78 0 0
6.2370 9.8244 -0.5347 0.288 -0.914 -0.284 142 95 78 0 0
6.3176 9.8522 -0.5285 0.320 -0.934 -0.157 142 96 80 0 0
7.1736 10.3606 -0.4514 0.685 -0.712 -0.153 225 216 211 0 0
7.2265 10.4102 -0.4457 0.685 -0.712 -0.153 247 246 242 0 0
7.2765 10.4546 -0.4405 0.674 -0.722 -0.156 246 247 244 0 0
7.3248 10.4957 -0.4355 0.664 -0.733 -0.150 248 247 246 0 0
6.4691 7.6432 -0.6329 -0.250 -0.951 0.184 220 203 175 0 0
6.8876 7.1541 -0.6330 -0.010 -0.960 0.278 218 201 171 0 0
7.2147 7.0747 -0.6176 -0.179 -0.908 0.380 215 199 170 0 0
7.2314 7.0710 -0.6168 -0.231 -0.859 0.457 216 200 173 0 0
8.1945 7.4488 -0.5400 0.452 -0.668 0.591 251 250 244 0 0
2.0863 10.9044 -0.7453 -0.499 -0.496 0.711 197 151 134 0 0
2.3860 10.8120 -0.7322 -0.501 -0.515 0.695 192 141 120 0 0
2.4537 10.7731 -0.7302 -0.118 -0.659 0.743 165 115 92 0 0
2.7512 10.6646 -0.7180 -0.149 -0.722 0.676 177 125 101 0 0
2.8063 10.6582 -0.7151 -0.400 -0.635 0.660 184 132 108 0 0
2.8174 10.6201 -0.7164 -0.391 -0.587 0.709 172 120 96 0 0
2.8340 10.6096 -0.7159 -0.391 -0.587 0.709 178 127 105 0 0
2.8521 10.6064 -0.7150 -0.245 -0.606 0.757 185 133 112 0 0
3.3976 10.4191 -0.6921 -0.271 -0.539 0.798 178 126 104 0 0
4.0308 10.1914 -0.6661 -0.040 -0.811 0.583 178 131 111 0 0
4.9652 9.8518 -0.6279 -0.103 -0.631 0.769 184 129 108 0 0
6.5230 9.9842 -0.5294 -0.084 -0.951 -0.296 139 92 76 0 0
6.5418 9.9775 -0.5286 -0.339 -0.838 -0.427 128 82 66 0 0
6.5596 9.9689 -0.5280 -0.259 -0.913 -0.316 131 85 70 0 0
7.1830 10.3751 -0.4709 0.666 -0.726 -0.174 228 223 217 0 0
7.2322 10.4184 -0.4659 0.664 -0.730 -0.161 246 246 243 0 0
7.2793 10.4577 -0.4611 0.623 -0.748 -0.229 247 247 245 0 0
7.3298 10.5026 -0.4559 0.679 -0.721 -0.140 247 247 245 0 0
6.3722 7.9353 -0.6405 -0.734 -0.267 0.625 219 198 171 0 0
6.3807 7.9182 -0.6408 -0.720 -0.306 0.623 225 205 178 0 0
6.4346 7.6199 -0.6525 -0.439 -0.715 0.544 221 200 172 0 0
6.5829 7.4180 -0.6538 -0.495 -0.636 0.592 205 186 155 0 0
6.5963 7.4098 -0.6534 -0.585 -0.569 0.578 224 204 174 0 0
6.7112 7.3029 -0.6520 -0.548 -0.824 -0.146 221 201 171 0 0
7.2096 7.0675 -0.6343 -0.231 -0.859 0.457 214 199 170 0 0
2.3827 10.7881 -0.7523 -0.501 -0.515 0.695 184 133 112 0 0
2.5673 10.6763 -0.7470 -0.317 -0.572 0.756 181 130 109 0 0
2.7117 10.6508 -0.7397 -0.302 -0.569 0.765 180 127 108 0 0
2.8032 10.6395 -0.7349 -0.400 -0.635 0.660 185 133 110 0 0
2.8150 10.6052 -0.7359 -0.504 -0.623 0.598 175 123 100 0 0
2.8326 10.5994 -0.7352 -0.415 -0.609 0.676 185 133 112 0 0
2.9557 10.5587 -0.7299 -0.520 -0.516 0.681 184 134 111 0 0
3.3768 10.4102 -0.7125 -0.494 -0.573 0.654 180 126 103 0 0
4.4057 10.0135 -0.6716 -0.282 -0.652 0.704 185 136 119 0 0
4.5112 9.9754 -0.6673 -0.198 -0.644 0.739 185 134 116 0 0
4.9798 9.7874 -0.6490 -0.283 -0.679 0.677 177 121 101 0 0
6.5289 9.9935 -0.5485 0.042 -0.904 -0.426 136 89 73 0 0
6.5644 9.9763 -0.5472 -0.401 -0.738 -0.543 124 78 62 0 0
7.2173 10.3510 -0.4909 0.485 -0.797 -0.359 247 247 244 0 0
6.3557 7.9389 -0.6581 -0.404 -0.580 0.707 222 201 172 0 0
6.3689 7.9292 -0.6578 -0.457 -0.466 0.757 227 206 177 0 0
6.4286 7.6101 -0.6697 -0.639 -0.622 0.452 223 204 174 0 0
6.5678 7.4228 -0.6707 -0.626 -0.563 0.539 219 200 170 0 0
6.5790 7.4115 -0.6705 -0.670 -0.605 0.429 209 190 160 0 0
6.5897 7.3997 -0.6705 -0.670 -0.605 0.429 207 186 156 0 0
6.6016 7.3894 -0.6703 -0.440 -0.665 0.604 221 201 170 0 0
6.7249 7.2945 -0.6677 -0.528 -0.829 0.185 212 193 163 0 0
6.7798 7.2387 -0.6672 -0.324 -0.922 0.211 207 186 155 0 0
7.1844 7.0599 -0.6522 -0.349 -0.859 0.375 209 192 164 0 0
8.2315 7.4403 -0.5726 0.430 -0.691 0.581 254 251 246 0 0
8.4301 7.5875 -0.5538 0.477 -0.698 0.535 252 252 252 0 0
1.6765 11.1296 -0.7959 0.279 -0.904 -0.324 245 241 237 0 0
1.6950 11.1318 -0.7947 0.297 -0.911 -0.287 249 242 236 0 0
1.7139 11.1381 -0.7933 0.267 -0.952 -0.146 230 217 210 0 0
2.1283 10.8043 -0.7850 -0.305 -0.577 0.758 178 134 117 0 0
2.1458 10.7987 -0.7842 -0.217 -0.599 0.771 179 133 115 0 0
2.2372 10.7974 -0.7790 -0.213 -0.610 0.763 180 132 111 0 0
2.6925 10.6450 -0.7598 -0.349 -0.706 0.616 184 133 113 0 0
2.7097 10.6371 -0.7592 -0.349 -0.706 0.616 186 134 115 0 0
2.7247 10.6186 -0.7592 -0.692 -0.489 0.531 182 131 111 0 0
2.8925 10.5238 -0.7539 -0.397 -0.572 0.718 193 145 122 0 0
3.3717 10.3873 -0.7326 -0.441 -0.595 0.672 157 102 79 0 0
3.4198 10.3518 -0.7315 -0.228 -0.622 0.749 179 130 112 0 0
3.4375 10.3462 -0.7307 -0.228 -0.622 0.749 175 127 111 0 0
4.1936 10.0836 -0.6993 -0.293 -0.601 0.743 197 145 124 0 0
4.5039 9.9535 -0.6875 -0.210 -0.608 0.766 190 141 124 0 0
4.5168 9.9346 -0.6876 -0.387 -0.601 0.699 197 148 131 0 0
4.5409 9.9461 -0.6857 -0.335 -0.636 0.695 186 138 119 0 0
4.7525 9.8717 -0.6769 -0.354 -0.571 0.741 190 133 111 0 0
4.8057 9.8536 -0.6747 -0.349 -0.630 0.694 180 123 99 0 0
4.8510 9.8160 -0.6738 -0.481 -0.571 0.665 183 126 103 0 0
4.8685 9.8096 -0.6731 -0.309 -0.540 0.783 188 131 109 0 0
4.8869 9.8053 -0.6722 -0.258 -0.565 0.784 186 131 108 0 0
5.7029 9.6534 -0.6321 -0.043 -0.927 0.373 171 119 98 0 0
5.9688 9.7195 -0.6136 -0.062 -0.874 -0.482 151 102 86 0 0
6.5348 10.0028 -0.5676 0.042 -0.904 -0.426 136 89 73 0 0
7.2651 10.3900 -0.5071 0.631 -0.761 -0.152 247 247 244 0 0
6.4949 8.6347 -0.6341 -0.868 0.196 0.456 245 240 230 0 0
6.4752 8.5696 -0.6383 -0.851 0.201 0.485 220 208 192 0 0
6.3463 7.9234 -0.6761 -0.404 -0.580 0.707 224 203 174 0 0
6.3575 7.9106 -0.6761 -0.457 -0.466 0.757 224 203 175 0 0
6.4163 7.6193 -0.6864 -0.441 -0.779 0.446 220 201 173 0 0
6.4253 7.6042 -0.6866 -0.785 -0.581 0.215 220 201 172 0 0
6.4900 7.5302 -0.6863 -0.543 -0.763 0.350 224 204 173 0 0
6.5218 7.4383 -0.6888 -0.459 -0.875 0.151 218 199 169 0 0
6.9244 7.1488 -0.6791 -0.072 -0.962 0.264 198 177 146 0 0
6.9531 7.1358 -0.6780 -0.332 -0.835 0.439 208 190 161 0 0
6.9810 7.0973 -0.6782 -0.333 -0.937 0.102 208 192 159 0 0
7.0623 7.0773 -0.6744 -0.280 -0.932 0.229 208 192 165 0 0
8.3058 7.4737 -0.5838 0.421 -0.695 0.583 252 252 251 0 0
1.6338 11.6142 -0.7951 -0.357 -0.139 0.924 244 243 240 0 0
1.6090 11.1742 -0.8165 -0.320 -0.732 -0.601 245 242 240 0 0
1.6444 11.1646 -0.8149 -0.078 -0.996 0.051 243 242 237 0 0
1.7718 10.9978 -0.8152 -0.652 -0.309 0.693 208 158 137 0 0
2.1250 10.7767 -0.8050 -0.436 -0.576 0.692 194 145 128 0 0
2.3347 10.7129 -0.7959 -0.557 -0.626 0.545 176 124 103 0 0
2.3526 10.7100 -0.7950 -0.217 -0.608 0.764 165 113 92 0 0
2.8885 10.5021 -0.7738 -0.479 -0.604 0.637 184 136 115 0 0
4.1838 10.0524 -0.7200 -0.105 -0.687 0.719 185 134 112 0 0
4.2448 10.0582 -0.7162 0.030 -0.780 0.625 178 123 101 0 0
4.2653 10.0607 -0.7149 -0.041 -0.856 0.516 156 103 82 0 0
4.5346 9.9271 -0.7056 -0.218 -0.704 0.676 186 138 118 0 0
4.8282 9.8074 -0.6942 -0.554 -0.538 0.635 188 131 108 0 0
5.6994 9.6445 -0.6517 -0.186 -0.921 0.343 158 107 84 0 0
5.7233 9.6506 -0.6500 -0.419 -0.864 0.278 154 104 81 0 0
5.7425 9.6468 -0.6491 -0.138 -0.906 0.399 175 125 103 0 0
5.9291 9.6817 -0.6368 0.008 -0.996 -0.085 132 83 68 0 0
7.2058 10.3688 -0.5324 0.146 -0.805 -0.576 247 246 245 0 0
7.2405 10.3874 -0.5296 0.441 -0.781 -0.442 247 247 245 0 0
7.2656 10.3893 -0.5280 0.574 -0.791 -0.212 246 248 245 0 0
6.3847 7.7438 -0.6989 -0.702 -0.484 0.522 218 199 169 0 0
6.4169 7.6191 -0.7027 -0.663 -0.713 0.229 214 197 169 0 0
6.4304 7.6106 -0.7023 -0.727 -0.686 -0.027 220 203 174 0 0
6.4739 7.5338 -0.7033 -0.621 -0.775 0.115 221 201 171 0 0
6.5125 7.5061 -0.7024 -0.433 -0.813 0.389 221 200 171 0 0
6.5279 7.5006 -0.7018 -0.411 -0.774 0.481 220 199 171 0 0
6.5234 7.4395 -0.7048 -0.505 -0.848 -0.164 219 200 169 0 0
6.7151 7.2534 -0.7023 -0.579 -0.760 0.295 212 195 167 0 0
6.8367 7.1594 -0.6996 -0.297 -0.790 0.536 213 193 160 0 0
6.9499 7.1308 -0.6944 -0.448 -0.847 0.287 204 186 156 0 0
7.2243 7.0349 -0.6830 -0.421 -0.900 0.109 214 197 169 0 0
8.1633 7.3628 -0.6143 0.430 -0.691 0.581 232 222 211 0 0
8.2219 7.4041 -0.6091 0.408 -0.707 0.577 244 239 232 0 0
8.2741 7.4379 -0.6045 0.408 -0.707 0.577 253 252 250 0 0
1.5029 11.4001 -0.8314 -0.317 -0.274 0.908 243 244 240 0 0
1.5698 11.5248 -0.8221 -0.414 -0.164 0.896 243 244 239 0 0
1.6090 11.1677 -0.8356 -0.174 -0.958 0.229 244 242 241 0 0
1.6269 11.1647 -0.8347 -0.174 -0.958 0.229 244 243 239 0 0
1.6450 11.1636 -0.8338 -0.078 -0.996 0.051 243 242 233 0 0
1.7809 10.9135 -0.8371 -0.515 -0.335 0.789 192 141 121 0 0
1.8018 10.9382 -0.8348 -0.455 -0.401 0.795 204 153 134 0 0
1.8175 10.9174 -0.8348 -0.519 -0.407 0.752 186 135 116 0 0
1.8475 10.8670 -0.8353 -0.368 -0.555 0.746 173 121 99 0 0
1.9816 10.7854 -0.8313 -0.540 -0.466 0.701 200 151 133 0 0
2.1225 10.7550 -0.8247 -0.436 -0.576 0.692 181 132 113 0 0
2.1395 10.7468 -0.8241 -0.216 -0.643 0.735 182 133 112 0 0
2.3314 10.6885 -0.8157 -0.404 -0.573 0.713 198 148 126 0 0
2.3470 10.6715 -0.8156 -0.564 -0.546 0.619 183 132 110 0 0
2.3642 10.6649 -0.8149 -0.498 -0.529 0.687 193 141 119 0 0
2.8673 10.4871 -0.7942 -0.355 -0.577 0.736 172 121 100 0 0
3.0954 10.4163 -0.7844 -0.171 -0.695 0.698 201 155 136 0 0
4.1770 10.0302 -0.7400 -0.134 -0.639 0.757 197 145 124 0 0
4.1968 10.0306 -0.7389 -0.075 -0.697 0.713 183 132 111 0 0
4.2161 10.0296 -0.7378 -0.075 -0.697 0.713 172 119 98 0 0
4.2576 10.0361 -0.7352 0.076 -0.736 0.672 176 124 103 0 0
4.6774 9.8292 -0.7205 -0.306 -0.542 0.782 172 114 92 0 0
5.0987 9.6805 -0.7031 0.022 -0.844 0.535 160 102 79 0 0
5.1247 9.6936 -0.7011 -0.295 -0.807 0.511 172 114 91 0 0
5.2637 9.6396 -0.6955 0.001 -0.800 0.601 182 128 109 0 0
5.5778 9.6506 -0.6772 -0.036 -0.912 0.409 181 125 104 0 0
5.9567 9.6926 -0.6539 0.198 -0.919 -0.340 132 81 66 0 0
6.3746 7.7275 -0.7167 -0.657 -0.576 0.486 222 203 173 0 0
6.4151 7.6154 -0.7194 -0.663 -0.713 0.229 218 199 172 0 0
6.4257 7.6027 -0.7193 -0.607 -0.769 0.200 222 203 174 0 0
6.4904 7.5011 -0.7201 -0.192 -0.981 0.015 224 205 175 0 0
6.5069 7.4971 -0.7194 -0.652 -0.752 0.098 222 202 172 0 0
6.5198 7.4880 -0.7190 -0.337 -0.934 0.120 219 200 170 0 0
6.5521 7.4519 -0.7188 -0.601 -0.753 0.268 214 195 163 0 0
6.6078 7.3152 -0.7217 -0.650 -0.728 0.220 219 200 168 0 0
6.8305 7.1504 -0.7163 -0.297 -0.790 0.536 213 192 161 0 0
6.9454 7.1242 -0.7109 -0.328 -0.881 0.340 208 190 160 0 0
8.1905 7.3684 -0.6295 0.410 -0.722 0.557 233 227 218 0 0
8.2407 7.4001 -0.6253 0.410 -0.722 0.557 253 250 245 0 0
1.4746 11.4907 -0.8482 -0.678 -0.133 0.723 243 243 240 0 0
1.7609 10.8900 -0.8577 -0.670 -0.370 0.644 184 133 112 0 0
1.9802 10.7695 -0.8505 -0.643 -0.493 0.586 191 141 120 0 0
2.1197 10.7309 -0.8444 -0.305 -0.577 0.758 185 134 114 0 0
2.3449 10.6551 -0.8349 -0.404 -0.573 0.713 165 111 90 0 0
2.7038 10.5022 -0.8213 -0.505 -0.681 0.530 185 136 115 0 0
2.9116 10.4294 -0.8127 -0.142 -0.660 0.738 182 132 109 0 0
3.0898 10.3892 -0.8044 -0.239 -0.686 0.687 193 144 126 0 0
3.1095 10.3931 -0.8031 -0.393 -0.630 0.670 205 156 138 0 0
4.0777 10.0230 -0.7645 -0.459 -0.550 0.698 196 142 122 0 0
4.5454 9.8457 -0.7458 -0.032 -0.767 0.641 179 123 103 0 0
5.0379 9.6783 -0.7252 -0.427 -0.775 0.465 141 88 69 0 0
5.6902 9.6225 -0.6910 -0.105 -0.882 0.460 175 125 102 0 0
7.2389 10.4633 -0.5682 0.660 -0.719 -0.217 245 244 240 0 0
7.2891 10.5079 -0.5634 0.660 -0.719 -0.217 247 246 245 0 0
7.2620 10.4208 -0.5687 0.303 -0.842 -0.446 248 247 245 0 0
7.1908 10.2598 -0.5795 -0.952 -0.207 -0.226 246 247 245 0 0
6.3678 7.7161 -0.7341 -0.685 -0.496 0.533 223 204 174 0 0
6.4142 7.6130 -0.7359 -0.738 -0.622 0.261 217 199 171 0 0
6.4249 7.6004 -0.7358 -0.738 -0.622 0.261 220 200 172 0 0
6.5064 7.4954 -0.7357 -0.652 -0.752 0.098 218 199 169 0 0
6.6780 7.2792 -0.7353 -0.570 -0.679 0.463 215 196 164 0 0
6.7661 7.1912 -0.7341 -0.676 -0.678 0.288 212 194 162 0 0
6.7959 7.1798 -0.7329 -0.348 -0.843 0.411 208 191 160 0 0
6.8103 7.1482 -0.7334 -0.379 -0.788 0.486 213 195 163 0 0
6.8258 7.1434 -0.7328 -0.306 -0.829 0.467 218 198 167 0 0
6.9584 7.0905 -0.7276 -0.521 -0.839 0.160 209 192 162 0 0
6.9747 7.0866 -0.7268 -0.579 -0.805 0.130 206 188 157 0 0
6.9891 7.0802 -0.7263 -0.368 -0.897 0.246 207 188 156 0 0
8.2935 7.4336 -0.6380 0.514 -0.706 0.487 253 252 248 0 0
8.3667 7.4902 -0.6314 0.513 -0.714 0.477 252 252 251 0 0
1.3793 11.2138 -0.8841 0.038 -0.459 0.887 242 242 240 0 0
2.2051 10.6899 -0.8598 -0.154 -0.648 0.746 190 138 116 0 0
2.3066 10.6403 -0.8561 -0.374 -0.527 0.763 178 126 105 0 0
2.6867 10.5059 -0.8405 -0.005 -0.708 0.707 191 142 121 0 0
2.8416 10.4469 -0.8344 -0.315 -0.637 0.704 198 143 122 0 0
2.8585 10.4392 -0.8337 -0.315 -0.637 0.704 190 137 115 0 0
3.1036 10.3647 -0.8232 -0.409 -0.596 0.692 187 133 115 0 0
4.0548 10.0102 -0.7849 -0.404 -0.622 0.671 188 134 114 0 0
