ply
format ascii 1.0
element vertex 822
property float x
property float y
property float z
property float nx
property float ny
property float nz
property uchar diffuse_red
property uchar diffuse_green
property uchar diffuse_blue
property uchar class
property uchar detection
end_header
6.7799 7.0423 -1.1620 -0.345 -0.934 0.098 189 173 140 0 0
7.0655 6.9107 -1.1198 -0.350 -0.904 -0.244 185 166 134 0 0
7.0892 6.9222 -1.1177 -0.315 -0.948 0.038 179 162 130 0 0
7.1522 6.8900 -1.1082 -0.021 -0.999 -0.046 186 167 135 0 0
8.5321 7.5219 -0.9795 0.703 -0.679 0.214 248 248 245 0 0
0.4773 11.4185 -2.1986 -0.698 -0.293 -0.653 243 243 241 0 0
0.4970 11.4017 -2.1952 -0.857 -0.256 -0.448 244 244 242 0 0
1.3540 9.3617 -1.9687 -0.240 -0.630 0.739 185 137 117 0 0
1.9245 9.2361 -1.8926 -0.504 -0.529 0.682 183 125 103 0 0
2.1627 9.1834 -1.8609 -0.092 -0.703 0.705 177 126 109 0 0
2.4659 9.1337 -1.8215 -0.216 -0.785 0.580 189 137 119 0 0
2.4816 9.1271 -1.8192 -0.126 -0.834 0.537 189 137 119 0 0
2.5127 9.1077 -1.8143 -0.746 -0.460 0.481 184 133 112 0 0
2.5276 9.0886 -1.8113 -0.680 -0.496 0.540 168 116 94 0 0
3.1351 8.9734 -1.7315 0.036 -0.857 0.514 186 133 113 0 0
3.1508 8.9678 -1.7292 -0.286 -0.777 0.560 177 122 102 0 0
3.1855 8.9818 -1.7259 -0.458 -0.782 0.424 179 125 103 0 0
3.2010 8.9745 -1.7236 -0.206 -0.864 0.459 174 120 99 0 0
3.2834 8.9740 -1.7137 -0.108 -0.979 0.173 142 86 69 0 0
3.2711 8.1072 -1.6626 -0.125 -0.991 -0.048 138 90 69 0 0
3.2853 8.1003 -1.6605 -0.404 -0.830 0.384 165 122 98 0 0
3.3001 8.0970 -1.6585 -0.574 -0.481 0.663 165 127 100 0 0
3.3590 8.1810 -1.6566 -0.853 -0.200 -0.483 219 194 163 0 0
3.5436 7.9978 -1.6233 0.091 -0.801 0.592 229 208 181 0 0
3.5574 7.9896 -1.6212 -0.078 -0.698 0.712 228 207 178 0 0
3.5734 7.9934 -1.6195 0.018 -0.827 0.562 228 209 179 0 0
3.7837 7.9670 -1.5926 -0.113 -0.799 0.591 223 204 176 0 0
4.0161 7.8965 -1.5605 0.173 -0.759 0.628 226 206 179 0 0
4.0743 7.8798 -1.5525 -0.237 -0.635 0.736 224 203 172 0 0
4.1206 7.8782 -1.5468 -0.273 -0.710 0.649 220 200 171 0 0
4.1365 7.8794 -1.5450 0.469 -0.833 0.292 228 208 181 0 0
4.1516 7.8774 -1.5431 0.081 -0.911 0.405 229 209 181 0 0
4.3711 7.8188 -1.5132 0.062 -0.949 0.308 227 206 177 0 0
4.7152 7.7029 -1.4649 -0.844 -0.512 0.162 228 207 176 0 0
4.7257 7.6861 -1.4626 -0.844 -0.512 0.162 229 208 177 0 0
6.5748 10.4230 -1.4067 0.366 -0.793 -0.487 130 87 72 0 0
6.7585 10.5090 -1.3899 0.153 -0.986 -0.064 139 105 91 0 0
6.8342 10.4842 -1.3793 -0.761 -0.573 0.303 130 99 90 0 0
6.9910 10.6006 -1.3676 0.634 -0.649 -0.422 214 207 201 0 0
7.0273 10.6347 -1.3653 0.647 -0.658 -0.384 217 210 204 0 0
7.0279 10.5848 -1.3622 0.353 -0.930 0.101 217 211 205 0 0
6.3892 7.3911 -1.2451 -0.582 -0.794 0.176 209 190 163 0 0
6.4536 7.3216 -1.2332 -0.338 -0.940 -0.057 202 185 156 0 0
6.6498 7.1302 -1.1981 -0.506 -0.861 -0.055 192 172 141 0 0
6.6882 7.1100 -1.1922 -0.468 -0.884 -0.004 198 177 148 0 0
6.8769 7.0062 -1.1633 -0.369 -0.885 0.283 191 174 142 0 0
6.9288 6.9821 -1.1556 -0.453 -0.888 0.076 185 166 134 0 0
0.4947 11.4474 -2.2177 -0.868 -0.256 -0.425 244 244 242 0 0
1.2933 9.3640 -1.9927 -0.540 -0.598 0.592 189 138 120 0 0
1.6100 9.2770 -1.9494 -0.180 -0.644 0.744 177 125 105 0 0
1.6258 9.2717 -1.9472 -0.375 -0.622 0.687 171 121 101 0 0
1.9263 9.2149 -1.9077 -0.504 -0.529 0.682 173 116 94 0 0
1.9421 9.2032 -1.9051 -0.504 -0.529 0.682 172 115 94 0 0
2.4341 9.1056 -1.8402 -0.088 -0.673 0.734 179 124 105 0 0
2.4661 9.1030 -1.8362 -0.117 -0.653 0.748 161 107 90 0 0
2.5451 9.0776 -1.8252 -0.245 -0.740 0.626 154 102 81 0 0
2.9096 8.9827 -1.7757 -0.436 -0.728 0.529 199 141 121 0 0
3.1189 8.9573 -1.7491 -0.313 -0.726 0.613 194 143 121 0 0
3.1361 8.9638 -1.7475 0.036 -0.857 0.514 202 150 128 0 0
3.1515 8.9561 -1.7451 -0.286 -0.777 0.560 187 134 111 0 0
3.1860 8.9693 -1.7418 -0.606 -0.781 0.153 150 97 73 0 0
3.2014 8.9613 -1.7395 -0.272 -0.945 0.180 182 130 107 0 0
3.2180 8.9617 -1.7375 -0.350 -0.746 0.567 180 129 107 0 0
3.2338 8.9573 -1.7354 0.074 -0.938 0.338 189 139 119 0 0
3.2506 8.9593 -1.7335 0.074 -0.938 0.338 174 121 102 0 0
3.2716 8.0972 -1.6774 -0.115 -0.988 0.099 182 147 122 0 0
3.3106 8.0531 -1.6700 -0.639 -0.415 0.647 221 196 165 0 0
3.3651 8.2069 -1.6730 -0.804 -0.211 -0.555 220 198 167 0 0
3.4822 7.9847 -1.6452 -0.357 -0.815 0.457 227 208 178 0 0
3.4970 7.9824 -1.6433 -0.476 -0.737 0.480 224 205 175 0 0
3.5122 7.9820 -1.6414 0.061 -0.861 0.506 228 208 179 0 0
3.7835 7.9561 -1.6074 -0.113 -0.799 0.591 227 207 179 0 0
3.8360 7.9122 -1.5984 -0.690 -0.597 0.409 229 210 183 0 0
3.9397 7.8923 -1.5847 -0.041 -0.774 0.632 226 206 177 0 0
4.0154 7.8847 -1.5752 -0.118 -0.935 0.335 222 202 174 0 0
4.0901 7.8720 -1.5655 -0.330 -0.790 0.516 226 205 175 0 0
4.1045 7.8673 -1.5635 -0.330 -0.790 0.516 225 205 175 0 0
6.5842 10.4397 -1.4269 0.366 -0.793 -0.487 134 90 79 0 0
6.6098 10.4506 -1.4245 0.315 -0.789 -0.527 126 83 71 0 0
6.6361 10.4634 -1.4222 0.235 -0.760 -0.606 129 87 77 0 0
6.7530 10.5413 -1.4130 0.522 -0.795 -0.309 122 95 82 0 0
6.7616 10.5097 -1.4100 0.021 -0.993 0.120 131 107 95 0 0
6.8390 10.5409 -1.4027 -0.052 -0.640 0.767 162 144 135 0 0
6.8642 10.5499 -1.4003 0.096 -0.977 -0.191 174 160 151 0 0
7.0410 10.6602 -1.3860 0.570 -0.606 -0.556 218 212 206 0 0
7.0157 10.5494 -1.3821 0.344 -0.933 -0.105 218 213 207 0 0
6.2874 8.7093 -1.3548 -0.952 0.117 0.284 224 219 213 0 0
6.1635 8.0590 -1.3292 -0.950 -0.252 0.186 200 174 144 0 0
6.3644 7.4036 -1.2644 -0.604 -0.766 0.223 210 191 161 0 0
6.4270 7.3302 -1.2524 -0.431 -0.899 0.077 211 192 161 0 0
6.5966 7.1496 -1.2209 -0.361 -0.932 -0.015 201 185 152 0 0
6.6114 7.1465 -1.2189 -0.229 -0.958 0.170 202 184 151 0 0
6.6584 7.1119 -1.2111 -0.239 -0.971 0.031 196 178 148 0 0
7.0178 6.9336 -1.1571 -0.383 -0.920 -0.079 178 158 124 0 0
7.1140 6.9015 -1.1436 -0.025 -0.995 -0.101 182 163 130 0 0
0.4912 11.5039 -2.2412 -0.896 -0.253 -0.366 244 244 242 0 0
1.4546 9.2957 -1.9857 -0.481 -0.543 0.688 184 133 114 0 0
1.7702 9.2130 -1.9428 -0.362 -0.594 0.719 169 117 100 0 0
1.8176 9.2138 -1.9372 -0.219 -0.582 0.783 179 125 107 0 0
1.9596 9.1714 -1.9176 -0.260 -0.580 0.772 175 120 99 0 0
1.9755 9.1738 -1.9159 -0.175 -0.724 0.668 176 121 101 0 0
1.9913 9.1718 -1.9139 -0.175 -0.724 0.668 180 125 105 0 0
2.3225 9.0757 -1.8683 -0.372 -0.777 0.508 187 139 122 0 0
2.3385 9.0768 -1.8664 -0.538 -0.668 0.514 182 135 117 0 0
2.9104 8.9707 -1.7915 -0.436 -0.728 0.529 197 141 120 0 0
3.1198 8.9476 -1.7651 -0.036 -0.909 0.416 172 121 101 0 0
3.1519 8.9425 -1.7609 -0.328 -0.873 0.361 166 114 91 0 0
3.1659 8.9234 -1.7580 -0.032 -0.743 0.669 157 103 77 0 0
3.1890 8.9757 -1.7586 -0.291 -0.760 -0.581 174 120 95 0 0
3.2026 8.9535 -1.7556 -0.624 -0.781 0.000 135 81 58 0 0
3.5129 7.9745 -1.6562 -0.321 -0.820 0.473 228 207 178 0 0
3.5412 7.9619 -1.6520 -0.101 -0.710 0.697 228 208 181 0 0
3.7781 7.9202 -1.6211 -0.123 -0.790 0.601 227 207 179 0 0
3.7943 7.9237 -1.6194 -0.549 -0.775 0.315 228 208 180 0 0
3.8333 7.8897 -1.6126 -0.706 -0.608 0.362 226 206 178 0 0
3.9397 7.8829 -1.5995 -0.031 -0.921 0.389 223 203 173 0 0
3.9963 7.8599 -1.5913 -0.643 -0.564 0.517 225 205 178 0 0
4.1042 7.8578 -1.5783 -0.330 -0.790 0.516 224 203 174 0 0
4.1186 7.8531 -1.5763 -0.330 -0.790 0.516 228 208 181 0 0
4.1484 7.8477 -1.5724 -0.105 -0.782 0.615 229 209 181 0 0
4.8885 7.6390 -1.4709 -0.100 -0.319 0.943 230 204 179 0 0
4.9022 7.6324 -1.4688 -0.256 -0.291 0.922 198 166 143 0 0
6.2541 10.2823 -1.4765 0.239 -0.960 -0.143 120 74 58 0 0
6.3013 10.2976 -1.4718 0.119 -0.954 -0.276 115 69 54 0 0
6.5936 10.4563 -1.4471 0.364 -0.740 -0.566 134 91 80 0 0
6.8265 10.6089 -1.4291 -0.071 -0.997 -0.039 196 185 177 0 0
6.9456 10.5306 -1.4099 0.192 -0.933 0.304 218 211 204 0 0
6.9712 10.5400 -1.4074 0.265 -0.925 0.273 218 211 205 0 0
6.9946 10.5441 -1.4049 -0.160 -0.909 0.386 218 213 207 0 0
7.0270 10.5691 -1.4026 0.049 -0.942 0.332 221 216 210 0 0
6.2805 8.6877 -1.3717 -0.975 0.111 0.195 225 220 213 0 0
6.1672 8.0622 -1.3454 -0.942 -0.239 -0.234 203 176 146 0 0
6.4101 7.3580 -1.2716 -0.381 -0.756 0.533 206 187 159 0 0
6.4254 7.3228 -1.2675 -0.273 -0.961 -0.054 207 188 158 0 0
6.4427 7.3241 -1.2656 -0.539 -0.842 -0.010 208 189 159 0 0
6.4542 7.3142 -1.2636 -0.491 -0.865 0.099 209 190 160 0 0
6.4814 7.2707 -1.2575 -0.479 -0.851 0.216 205 186 156 0 0
6.5983 7.1487 -1.2358 -0.266 -0.938 -0.222 201 184 151 0 0
6.6102 7.1403 -1.2339 -0.400 -0.895 0.198 203 184 152 0 0
7.1373 6.8821 -1.1546 -0.125 -0.988 0.087 176 159 129 0 0
0.4956 11.4838 -2.2590 -0.841 -0.274 -0.466 243 243 241 0 0
0.5206 11.4158 -2.2516 -0.868 -0.256 -0.425 243 243 242 0 0
1.4412 9.2892 -2.0035 -0.436 -0.610 0.662 186 138 120 0 0
1.5048 9.2535 -1.9936 -0.260 -0.648 0.716 173 119 96 0 0
1.8354 9.1832 -1.9497 -0.435 -0.653 0.620 174 123 103 0 0
2.7495 8.9569 -1.8263 -0.260 -0.666 0.699 197 144 123 0 0
3.1210 8.9402 -1.7811 -0.036 -0.909 0.416 203 151 132 0 0
3.1383 8.9476 -1.7795 0.164 -0.959 0.232 171 119 99 0 0
3.1532 8.9354 -1.7770 -0.328 -0.873 0.361 172 120 98 0 0
3.1689 8.9304 -1.7748 -0.328 -0.873 0.361 156 101 77 0 0
3.2751 7.9924 -1.7010 -0.125 -0.434 0.892 224 201 169 0 0
3.3056 7.9943 -1.6975 -0.254 -0.516 0.818 227 206 175 0 0
3.4965 7.9565 -1.6723 -0.450 -0.628 0.635 226 205 176 0 0
3.5103 7.9487 -1.6702 -0.450 -0.628 0.635 228 207 179 0 0
3.7446 7.8962 -1.6389 -0.362 -0.742 0.565 223 204 174 0 0
3.8916 7.8652 -1.6194 -0.253 -0.744 0.618 226 207 177 0 0
6.6048 10.4777 -1.4674 0.455 -0.688 -0.565 136 104 91 0 0
6.8821 10.7919 -1.4550 0.634 -0.537 -0.557 202 196 188 0 0
6.8286 10.6070 -1.4493 -0.078 -0.992 0.104 206 199 192 0 0
6.9574 10.5006 -1.4270 0.131 -0.674 0.727 219 214 208 0 0
7.0394 10.6427 -1.4266 0.562 -0.827 0.021 220 215 209 0 0
6.1693 8.0618 -1.3616 -0.932 -0.185 -0.313 197 170 140 0 0
6.2761 7.5901 -1.3181 -0.816 -0.565 0.120 200 178 144 0 0
6.4422 7.3190 -1.2807 -0.491 -0.865 0.099 201 182 152 0 0
7.4494 6.8451 -1.1301 0.180 -0.915 0.362 203 184 154 0 0
0.4932 11.5303 -2.2819 -0.841 -0.274 -0.466 243 243 241 0 0
0.5183 11.4613 -2.2743 -0.868 -0.256 -0.425 244 242 242 0 0
1.1040 9.4940 -2.0736 -0.182 -0.881 0.438 177 129 105 0 0
1.7588 9.1667 -1.9742 -0.079 -0.632 0.771 147 89 70 0 0
2.1997 9.0887 -1.9168 -0.238 -0.547 0.802 189 141 124 0 0
2.3254 9.0496 -1.8993 -0.319 -0.640 0.699 178 129 111 0 0
2.3412 9.0472 -1.8972 -0.469 -0.606 0.642 175 126 108 0 0
2.3567 9.0393 -1.8949 -0.506 -0.594 0.625 189 139 120 0 0
2.3876 9.0195 -1.8899 -0.511 -0.701 0.499 184 132 111 0 0
2.7666 8.9442 -1.8400 0.018 -0.891 0.454 197 148 128 0 0
2.8306 8.9398 -1.8321 -0.280 -0.704 0.653 184 133 111 0 0
2.8464 8.9356 -1.8300 -0.367 -0.689 0.626 191 138 117 0 0
3.8910 7.8533 -1.6340 -0.253 -0.744 0.618 228 209 178 0 0
4.3276 7.7423 -1.5749 -0.025 -0.765 0.643 228 207 178 0 0
4.8169 7.5999 -1.5074 -0.031 -0.848 0.529 225 204 175 0 0
4.8420 7.5807 -1.5032 -0.340 -0.821 0.458 232 212 184 0 0
4.8540 7.5693 -1.5010 -0.208 -0.736 0.645 234 212 185 0 0
5.0610 7.6199 -1.4798 -0.167 -0.379 0.910 127 81 62 0 0
5.0682 7.5952 -1.4773 -0.261 -0.443 0.858 119 72 54 0 0
6.8270 10.8114 -1.4837 0.595 -0.401 -0.696 203 194 186 0 0
6.8889 10.8557 -1.4794 0.791 -0.540 -0.287 209 201 196 0 0
6.8818 10.7840 -1.4754 0.738 -0.671 0.077 210 203 197 0 0
6.8302 10.6039 -1.4695 -0.212 -0.977 -0.028 213 206 198 0 0
6.7732 10.4123 -1.4635 0.500 -0.866 -0.032 214 206 199 0 0
6.8502 10.4952 -1.4599 0.554 -0.814 -0.174 216 209 202 0 0
6.8862 10.5301 -1.4579 -0.236 -0.912 -0.335 216 209 203 0 0
6.9094 10.5338 -1.4554 0.044 -0.991 -0.128 217 211 205 0 0
6.9263 10.5226 -1.4527 -0.349 -0.917 0.192 220 213 205 0 0
6.9326 10.4351 -1.4461 0.115 -0.673 0.731 221 216 210 0 0
6.9561 10.4399 -1.4436 0.121 -0.758 0.641 222 217 211 0 0
7.0996 10.7258 -1.4457 0.667 -0.745 0.009 224 219 213 0 0
6.3332 7.4617 -1.3186 -0.795 -0.573 -0.199 204 184 156 0 0
6.4060 7.3413 -1.3019 -0.485 -0.864 0.138 205 185 158 0 0
6.4489 7.3275 -1.2959 -0.370 -0.928 0.036 205 186 156 0 0
6.5737 7.1562 -1.2697 -0.459 -0.875 0.152 193 173 140 0 0
8.5174 7.4845 -1.0614 0.720 -0.654 0.233 248 246 243 0 0
0.5160 11.5072 -2.2972 -0.868 -0.256 -0.425 245 242 242 0 0
1.4472 9.2316 -2.0319 -0.448 -0.518 0.728 192 146 129 0 0
1.7296 9.1513 -1.9931 -0.269 -0.630 0.729 171 116 95 0 0
1.7610 9.1409 -1.9886 -0.156 -0.778 0.608 175 118 99 0 0
2.1695 9.0731 -1.9358 -0.077 -0.592 0.802 191 144 127 0 0
2.1852 9.0702 -1.9337 -0.300 -0.610 0.734 191 143 126 0 0
2.2010 9.0664 -1.9316 -0.238 -0.547 0.802 193 144 127 0 0
2.3266 9.0328 -1.9145 -0.456 -0.647 0.611 186 138 117 0 0
2.3425 9.0327 -1.9126 -0.506 -0.594 0.625 194 143 123 0 0
2.3581 9.0260 -1.9103 -0.720 -0.548 0.426 177 125 103 0 0
2.3735 9.0156 -1.9078 -0.593 -0.584 0.554 159 105 84 0 0
2.3884 8.9964 -1.9047 -0.600 -0.660 0.452 167 113 92 0 0
2.4043 8.9959 -1.9028 -0.215 -0.721 0.659 173 119 97 0 0
2.6575 8.9600 -1.8705 -0.393 -0.598 0.698 176 128 109 0 0
2.7517 8.9341 -1.8576 -0.241 -0.703 0.669 189 141 119 0 0
2.7679 8.9362 -1.8558 0.018 -0.891 0.454 185 138 116 0 0
3.4074 7.9443 -1.7126 0.051 -0.826 0.562 230 210 182 0 0
3.8597 7.8410 -1.6521 -0.046 -0.756 0.653 224 203 174 0 0
3.8855 7.8187 -1.6476 -0.420 -0.805 0.419 224 204 173 0 0
3.9057 7.8411 -1.6467 -0.622 -0.725 0.296 216 196 167 0 0
4.3289 7.7394 -1.5898 -0.304 -0.602 0.739 228 207 177 0 0
4.3432 7.7349 -1.5878 -0.382 -0.635 0.672 227 207 177 0 0
4.3719 7.7259 -1.5838 -0.650 -0.588 0.481 221 201 171 0 0
4.3864 7.7223 -1.5818 -0.387 -0.720 0.577 225 204 175 0 0
4.4004 7.7165 -1.5798 -0.128 -0.902 0.411 226 205 176 0 0
4.6156 7.6514 -1.5499 -0.362 -0.588 0.723 227 207 179 0 0
4.6986 7.6160 -1.5377 -0.098 -0.644 0.759 227 206 177 0 0
4.7452 7.6149 -1.5321 -0.133 -0.670 0.731 230 209 181 0 0
5.0582 7.5606 -1.4915 -0.647 -0.584 0.490 115 69 52 0 0
5.0713 7.5530 -1.4894 -0.461 -0.621 0.634 112 65 49 0 0
5.0843 7.5449 -1.4873 -0.467 -0.586 0.662 124 78 61 0 0
6.2286 10.3034 -1.5406 0.270 -0.928 -0.255 125 77 62 0 0
6.9138 10.9647 -1.5049 0.622 -0.425 -0.658 210 203 197 0 0
6.9004 10.8766 -1.5005 0.809 -0.566 -0.159 212 205 200 0 0
6.8977 10.8157 -1.4966 0.712 -0.597 0.370 214 207 201 0 0
6.7817 10.4783 -1.4873 0.204 -0.931 -0.302 216 208 202 0 0
6.8113 10.4982 -1.4851 0.088 -0.992 -0.087 216 209 202 0 0
6.8696 10.4833 -1.4772 -0.835 -0.513 0.200 219 212 206 0 0
6.8814 10.4600 -1.4742 -0.600 -0.654 0.461 219 212 206 0 0
6.8788 10.4025 -1.4706 0.171 -0.626 0.761 219 213 208 0 0
6.1804 8.0761 -1.3942 -0.914 -0.241 -0.328 193 166 135 0 0
6.3389 7.4687 -1.3340 -0.703 -0.674 -0.229 208 189 159 0 0
6.4075 7.3397 -1.3171 -0.568 -0.823 -0.019 209 190 161 0 0
6.4466 7.3188 -1.3111 -0.606 -0.789 -0.102 206 186 156 0 0
6.4841 7.2632 -1.3028 -0.559 -0.801 0.215 199 183 151 0 0
6.5445 7.1897 -1.2907 -0.636 -0.750 0.182 196 180 148 0 0
6.5744 7.1532 -1.2847 -0.459 -0.875 0.152 197 178 146 0 0
1.1268 9.4460 -2.1010 -0.524 -0.582 0.622 176 126 103 0 0
1.1432 9.4342 -2.0983 -0.524 -0.582 0.622 177 128 105 0 0
1.3236 9.2647 -2.0652 -0.650 -0.749 0.131 177 129 111 0 0
1.7318 9.1331 -2.0080 -0.269 -0.630 0.729 182 127 107 0 0
1.7631 9.1314 -2.0042 -0.128 -0.698 0.705 161 106 85 0 0
2.2015 9.0236 -1.9451 -0.497 -0.528 0.689 199 152 134 0 0
2.3281 9.0212 -1.9300 -0.400 -0.657 0.640 177 129 108 0 0
2.3592 9.0060 -1.9253 -0.530 -0.589 0.610 163 109 88 0 0
2.3898 8.9841 -1.9201 -0.597 -0.631 0.496 170 115 94 0 0
2.6256 8.9345 -1.8889 -0.353 -0.655 0.668 185 134 116 0 0
2.8931 8.8765 -1.8534 -0.534 -0.845 -0.029 182 131 111 0 0
2.9095 8.8797 -1.8517 -0.035 -0.998 0.058 183 133 111 0 0
2.9256 8.8793 -1.8498 -0.035 -0.998 0.058 182 131 109 0 0
2.9415 8.8773 -1.8478 -0.244 -0.965 0.093 186 135 114 0 0
2.9567 8.8685 -1.8454 -0.223 -0.974 -0.049 165 116 94 0 0
2.9721 8.8614 -1.8431 -0.045 -0.977 0.207 174 126 104 0 0
3.0059 8.8755 -1.8401 0.254 -0.863 0.437 189 138 116 0 0
3.0887 8.8901 -1.8313 0.075 -0.907 0.415 168 117 95 0 0
3.0681 7.9725 -1.7697 0.176 -0.710 -0.682 162 111 86 0 0
3.0992 7.9816 -1.7667 0.261 -0.965 0.033 195 161 132 0 0
3.2019 7.9667 -1.7536 -0.181 -0.901 0.394 227 204 173 0 0
3.2165 7.9634 -1.7516 -0.045 -0.761 0.647 224 202 170 0 0
3.4065 7.9272 -1.7267 -0.049 -0.713 0.700 228 207 178 0 0
3.4221 7.9300 -1.7251 0.096 -0.777 0.622 225 202 174 0 0
3.5922 7.8649 -1.7005 -0.101 -0.824 0.557 225 204 175 0 0
3.6373 7.8628 -1.6951 -0.503 -0.639 0.583 226 207 177 0 0
4.0335 7.7860 -1.6431 0.187 -0.794 0.579 228 207 176 0 0
4.3559 7.7169 -1.6003 -0.756 -0.590 0.283 228 208 179 0 0
4.3847 7.7084 -1.5963 -0.508 -0.703 0.498 227 206 177 0 0
4.4398 7.6832 -1.5881 -0.262 -0.743 0.615 226 205 175 0 0
4.5980 7.6382 -1.5663 -0.191 -0.708 0.680 228 207 180 0 0
4.6820 7.6062 -1.5542 -0.271 -0.686 0.675 225 204 174 0 0
4.7370 7.5824 -1.5461 -0.448 -0.811 0.378 228 207 178 0 0
4.7515 7.5787 -1.5441 -0.245 -0.766 0.595 227 207 179 0 0
4.7642 7.5695 -1.5420 -0.227 -0.777 0.587 228 208 181 0 0
4.9037 7.5644 -1.5252 -0.334 -0.917 0.220 227 206 179 0 0
4.9188 7.5626 -1.5233 -0.396 -0.909 -0.132 228 208 180 0 0
5.0572 7.5518 -1.5063 -0.353 -0.478 0.804 118 79 60 0 0
5.0814 7.5307 -1.5020 -0.467 -0.586 0.662 123 76 59 0 0
5.0947 7.5237 -1.4999 -0.567 -0.479 0.670 121 74 58 0 0
6.7677 10.8130 -1.5327 0.514 -0.382 -0.768 207 200 193 0 0
6.8421 10.8893 -1.5292 0.436 -0.374 -0.819 209 204 198 0 0
6.8031 10.4712 -1.5047 0.404 -0.890 0.213 218 211 205 0 0
6.8435 10.5173 -1.5031 0.575 -0.818 -0.008 218 211 205 0 0
6.8789 10.5507 -1.5013 0.530 -0.839 0.127 220 213 207 0 0
6.2430 8.4943 -1.4325 -0.963 0.086 0.256 193 167 139 0 0
6.2221 7.7113 -1.3803 -0.807 -0.571 0.152 189 166 133 0 0
6.2333 7.6990 -1.3782 -0.827 -0.561 -0.040 198 175 143 0 0
6.2714 7.6014 -1.3669 -0.693 -0.682 -0.234 205 181 147 0 0
6.4069 7.3343 -1.3323 -0.521 -0.854 -0.002 203 184 154 0 0
6.4361 7.3264 -1.3283 -0.294 -0.895 -0.336 202 185 155 0 0
6.4492 7.3194 -1.3263 -0.333 -0.923 -0.194 202 182 152 0 0
6.4562 7.3009 -1.3241 -0.444 -0.853 -0.274 203 182 151 0 0
6.4798 7.2825 -1.3201 -0.546 -0.837 0.012 196 177 145 0 0
6.5577 7.1794 -1.3037 -0.472 -0.842 -0.259 203 184 151 0 0
6.7703 7.0273 -1.2681 -0.344 -0.926 0.156 186 169 138 0 0
6.7840 7.0225 -1.2661 -0.344 -0.926 0.156 186 169 137 0 0
7.1773 6.8787 -1.2098 -0.181 -0.983 0.014 176 157 125 0 0
8.5844 7.5435 -1.0906 0.715 -0.662 0.226 248 248 248 0 0
8.6822 7.6504 -1.0866 0.715 -0.662 0.226 248 248 250 0 0
0.5129 11.5851 -2.3423 -0.851 -0.264 -0.454 243 241 241 0 0
0.5420 11.4753 -2.3310 -0.868 -0.256 -0.425 243 242 240 0 0
1.2935 9.2869 -2.0868 -0.739 -0.637 0.219 155 104 83 0 0
1.4062 9.1889 -2.0666 -0.513 -0.738 0.439 180 133 114 0 0
1.4218 9.1854 -2.0645 -0.399 -0.755 0.520 176 130 112 0 0
1.7029 9.1088 -2.0260 -0.427 -0.527 0.735 190 138 119 0 0
1.7186 9.0958 -2.0233 -0.385 -0.645 0.660 164 109 91 0 0
1.7497 9.1037 -2.0202 -0.246 -0.647 0.722 164 111 90 0 0
1.9058 9.0634 -1.9990 -0.151 -0.788 0.597 171 119 100 0 0
1.9214 9.0615 -1.9970 0.022 -0.817 0.576 174 120 100 0 0
1.9527 9.0588 -1.9932 -0.407 -0.626 0.665 166 111 90 0 0
2.3607 8.9953 -1.9408 -0.535 -0.728 0.429 158 105 84 0 0
2.4380 8.9572 -1.9290 -0.138 -0.612 0.779 178 125 107 0 0
2.4696 8.9550 -1.9251 -0.138 -0.612 0.779 166 114 93 0 0
2.4856 8.9559 -1.9233 -0.073 -0.636 0.769 174 120 100 0 0
2.5013 8.9520 -1.9212 -0.363 -0.607 0.707 184 130 110 0 0
2.8951 8.8758 -1.8696 -0.534 -0.845 -0.029 172 119 98 0 0
2.9108 8.8724 -1.8675 -0.279 -0.943 -0.182 166 114 92 0 0
2.9423 8.8652 -1.8633 -0.124 -0.991 -0.043 177 126 104 0 0
2.9582 8.8631 -1.8613 -0.124 -0.991 -0.043 181 130 107 0 0
2.9737 8.8571 -1.8590 0.013 -0.995 0.094 178 126 104 0 0
3.0233 8.8679 -1.8540 0.175 -0.881 0.440 163 112 90 0 0
3.0715 7.9836 -1.7852 -0.138 -0.987 -0.078 194 153 125 0 0
3.0859 7.9796 -1.7833 0.296 -0.946 0.133 226 194 163 0 0
3.1006 7.9777 -1.7814 0.181 -0.818 0.546 220 194 161 0 0
3.1157 7.9794 -1.7798 0.351 -0.759 0.548 220 195 161 0 0
3.5924 7.8551 -1.7150 -0.101 -0.824 0.557 221 200 171 0 0
4.0170 7.7724 -1.6593 -0.354 -0.575 0.737 228 209 179 0 0
4.0337 7.7781 -1.6577 0.120 -0.858 0.499 229 209 179 0 0
4.3907 7.6666 -1.6079 -0.733 -0.625 0.269 223 202 173 0 0
4.4046 7.6609 -1.6059 -0.457 -0.733 0.504 227 206 177 0 0
4.4381 7.6697 -1.6026 -0.167 -0.633 0.756 226 204 173 0 0
4.4804 7.6548 -1.5965 -0.258 -0.674 0.692 219 198 167 0 0
4.6526 7.6054 -1.5728 -0.355 -0.899 0.257 230 209 179 0 0
4.6797 7.5922 -1.5687 -0.295 -0.664 0.688 226 205 174 0 0
4.7505 7.5689 -1.5587 -0.443 -0.652 0.615 228 207 180 0 0
4.7653 7.5665 -1.5568 -0.344 -0.640 0.687 228 208 181 0 0
6.6449 10.6599 -1.5571 0.651 -0.486 -0.583 207 198 192 0 0
6.6889 10.7168 -1.5560 0.715 -0.514 -0.474 208 201 195 0 0
6.7382 10.7864 -1.5552 0.755 -0.530 -0.386 209 202 196 0 0
6.8142 10.9226 -1.5560 0.541 -0.385 -0.748 211 204 198 0 0
6.8594 10.9806 -1.5548 0.514 -0.382 -0.768 213 204 200 0 0
6.8857 10.9908 -1.5524 0.436 -0.374 -0.819 213 207 201 0 0
6.7437 10.5826 -1.5400 0.148 -0.879 0.453 213 207 201 0 0
6.8214 10.4569 -1.5219 0.393 -0.877 0.276 219 212 206 0 0
6.2330 8.4660 -1.4488 -0.917 0.086 0.390 189 163 134 0 0
6.3669 7.4486 -1.3606 -0.594 -0.754 0.281 204 184 153 0 0
6.4046 7.3580 -1.3497 -0.561 -0.711 -0.424 203 184 152 0 0
6.4534 7.3234 -1.3415 -0.336 -0.892 -0.303 207 188 157 0 0
6.4599 7.3038 -1.3393 -0.444 -0.853 -0.274 201 181 150 0 0
6.4727 7.2965 -1.3373 -0.444 -0.853 -0.274 204 185 153 0 0
6.7222 7.0840 -1.2929 0.182 -0.944 0.273 194 174 142 0 0
6.8079 7.0029 -1.2770 -0.419 -0.908 -0.003 188 170 140 0 0
6.9356 6.9674 -1.2595 -0.402 -0.904 -0.146 183 166 133 0 0
6.9619 6.9560 -1.2556 -0.432 -0.900 0.050 185 168 135 0 0
6.9674 6.9376 -1.2537 -0.211 -0.943 0.259 186 169 137 0 0
8.5766 7.5293 -1.1072 0.718 -0.660 0.222 248 248 247 0 0
1.2148 9.3437 -2.1166 -0.462 -0.754 0.468 176 124 102 0 0
1.2311 9.3311 -2.1138 -0.625 -0.715 0.314 176 128 107 0 0
1.2799 9.2883 -2.1049 -0.635 -0.705 0.315 177 124 104 0 0
1.2960 9.2758 -2.1021 -0.674 -0.702 0.229 179 124 103 0 0
2.1882 8.9764 -1.9760 -0.332 -0.890 0.312 184 130 111 0 0
2.2512 8.9785 -1.9688 -0.204 -0.590 0.781 196 145 124 0 0
2.3597 8.9356 -1.9530 -0.005 -0.651 0.759 171 119 98 0 0
2.4544 8.9305 -1.9416 -0.305 -0.614 0.728 193 141 122 0 0
2.4701 8.9280 -1.9395 -0.146 -0.654 0.742 174 122 101 0 0
2.4859 8.9274 -1.9377 -0.092 -0.708 0.700 182 129 108 0 0
2.5020 8.9306 -1.9360 -0.125 -0.720 0.683 169 115 95 0 0
2.5334 8.9246 -1.9319 -0.563 -0.787 0.254 176 125 106 0 0
2.9137 8.8796 -1.8842 0.012 -0.982 -0.187 189 134 113 0 0
2.9293 8.8751 -1.8820 -0.097 -0.995 0.007 172 117 96 0 0
2.9455 8.8759 -1.8802 -0.368 -0.930 0.011 162 107 86 0 0
2.9610 8.8698 -1.8779 -0.368 -0.930 0.011 151 96 75 0 0
2.9765 8.8637 -1.8757 -0.368 -0.930 0.011 157 102 81 0 0
2.9919 8.8571 -1.8734 -0.033 -0.996 -0.088 151 96 74 0 0
3.0081 8.8577 -1.8715 0.011 -1.000 0.009 182 128 104 0 0
3.0225 8.8424 -1.8687 -0.512 -0.785 0.349 174 120 96 0 0
3.0591 7.9885 -1.8022 0.328 -0.875 0.357 224 189 159 0 0
3.0750 7.9957 -1.8009 -0.350 -0.922 -0.165 219 190 158 0 0
3.0876 7.9781 -1.7981 0.296 -0.946 0.133 220 196 163 0 0
3.1157 7.9647 -1.7939 0.279 -0.734 0.619 225 200 168 0 0
4.0324 7.7643 -1.6721 0.160 -0.770 0.618 225 206 176 0 0
4.0430 7.7439 -1.6694 -0.283 -0.627 0.726 225 204 175 0 0
4.3354 7.6832 -1.6308 -0.404 -0.599 0.691 225 202 172 0 0
4.4785 7.6408 -1.6109 -0.258 -0.674 0.692 221 200 169 0 0
4.4930 7.6372 -1.6090 -0.258 -0.674 0.692 219 198 167 0 0
4.9424 7.4813 -1.5451 -0.256 -0.686 0.680 228 209 179 0 0
4.9579 7.4808 -1.5432 -0.315 -0.631 0.709 227 207 181 0 0
4.9721 7.4764 -1.5413 -0.300 -0.597 0.744 226 204 176 0 0
4.9872 7.4748 -1.5394 -0.375 -0.620 0.689 226 206 176 0 0
4.9979 7.4606 -1.5371 -0.168 -0.585 0.793 219 200 169 0 0
6.6222 10.6497 -1.5796 0.596 -0.519 -0.613 209 200 193 0 0
6.7607 10.8360 -1.5770 0.761 -0.518 -0.390 211 205 197 0 0
6.7900 10.7994 -1.5709 0.543 -0.519 -0.660 214 206 199 0 0
6.7284 10.5911 -1.5629 -0.390 -0.907 0.159 215 208 201 0 0
6.7202 10.4642 -1.5546 0.614 -0.765 0.195 217 210 204 0 0
6.7554 10.4981 -1.5530 0.641 -0.704 0.305 218 211 205 0 0
6.8585 10.4877 -1.5402 -0.081 -0.633 0.770 220 215 209 0 0
6.2362 8.4678 -1.4657 -0.874 0.067 0.482 189 162 132 0 0
6.4128 7.3698 -1.3651 -0.443 -0.804 -0.397 205 184 153 0 0
6.4598 7.2994 -1.3544 -0.644 -0.765 -0.002 206 187 155 0 0
6.4707 7.2883 -1.3524 -0.504 -0.856 -0.116 202 183 151 0 0
6.7165 7.0700 -1.3077 0.095 -0.924 0.370 187 167 134 0 0
6.9386 6.9687 -1.2744 -0.391 -0.905 -0.167 183 166 134 0 0
8.5681 7.5145 -1.1236 0.720 -0.664 0.204 247 247 245 0 0
1.7230 9.0574 -2.0526 -0.420 -0.647 0.636 174 121 103 0 0
1.7384 9.0696 -2.0517 -0.367 -0.625 0.689 165 113 93 0 0
1.7851 9.0550 -2.0452 -0.104 -0.645 0.757 184 132 111 0 0
1.8006 9.0585 -2.0437 -0.144 -0.633 0.760 179 127 106 0 0
1.8317 9.0516 -2.0395 -0.266 -0.622 0.737 183 130 109 0 0
1.9407 9.0248 -2.0248 -0.441 -0.542 0.715 188 133 113 0 0
2.0341 9.0048 -2.0124 -0.289 -0.609 0.738 191 141 124 0 0
2.2207 8.9505 -1.9867 -0.141 -0.680 0.719 196 139 119 0 0
2.2372 8.9695 -1.9862 0.117 -0.701 0.703 202 148 125 0 0
2.2528 8.9676 -1.9842 -0.349 -0.641 0.683 188 137 114 0 0
2.2683 8.9615 -1.9819 -0.349 -0.641 0.683 177 126 106 0 0
2.3608 8.9153 -1.9677 0.070 -0.673 0.736 187 135 115 0 0
2.4871 8.9142 -1.9529 -0.067 -0.734 0.675 174 122 101 0 0
2.5030 8.9152 -1.9511 -0.056 -0.758 0.650 186 135 114 0 0
2.5187 8.9117 -1.9491 -0.091 -0.730 0.677 176 124 104 0 0
2.5350 8.9183 -1.9476 -0.563 -0.787 0.254 154 103 83 0 0
2.9289 8.8514 -1.8968 -0.229 -0.783 0.578 165 112 90 0 0
2.9447 8.8483 -1.8947 -0.229 -0.783 0.578 182 129 108 0 0
2.9774 8.8528 -1.8912 -0.293 -0.914 0.282 183 127 107 0 0
3.0086 8.8436 -1.8869 -0.665 -0.746 0.030 158 106 83 0 0
3.0602 7.9820 -1.8168 0.277 -0.878 0.390 221 197 163 0 0
3.0772 7.9976 -1.8160 -0.350 -0.922 -0.165 227 204 170 0 0
3.0870 7.9585 -1.8119 -0.366 -0.693 0.620 221 198 166 0 0
3.2557 7.8857 -1.7868 0.007 -0.825 0.565 222 202 172 0 0
3.3020 7.8952 -1.7821 -0.563 -0.498 0.660 226 205 176 0 0
3.3423 7.8654 -1.7752 -0.022 -0.906 0.422 229 208 179 0 0
3.3573 7.8662 -1.7735 -0.044 -0.920 0.389 224 203 174 0 0
3.9691 7.7466 -1.6934 -0.393 -0.626 0.674 227 206 176 0 0
3.9831 7.7410 -1.6913 -0.325 -0.649 0.688 230 209 180 0 0
4.2312 7.6898 -1.6586 -0.328 -0.824 0.463 227 208 178 0 0
4.4902 7.6205 -1.6233 -0.361 -0.564 0.743 225 204 173 0 0
4.5044 7.6159 -1.6213 -0.349 -0.641 0.684 229 206 176 0 0
4.9647 7.4492 -1.5552 -0.396 -0.472 0.787 224 203 176 0 0
6.6394 10.7419 -1.6051 0.441 -0.396 -0.805 211 202 195 0 0
6.6988 10.7826 -1.6012 0.415 -0.417 -0.809 211 205 196 0 0
6.6770 10.6718 -1.5955 0.573 -0.617 -0.540 211 205 197 0 0
6.8291 10.8901 -1.5940 0.398 -0.389 -0.831 215 208 201 0 0
6.7296 10.5870 -1.5830 -0.390 -0.907 0.159 216 209 203 0 0
6.7032 10.4152 -1.5733 0.415 -0.863 0.288 218 211 205 0 0
6.8233 10.4476 -1.5617 -0.354 -0.494 0.794 222 217 211 0 0
6.8412 10.4392 -1.5590 -0.354 -0.494 0.794 223 218 213 0 0
6.8435 10.3933 -1.5553 -0.577 -0.464 0.672 223 218 214 0 0
6.8332 10.2670 -1.5471 0.107 -0.982 0.157 224 219 213 0 0
6.8589 10.2777 -1.5450 -0.188 -0.857 0.479 226 221 215 0 0
6.3875 7.3812 -1.3844 -0.538 -0.842 -0.036 200 181 151 0 0
6.3998 7.3725 -1.3823 -0.432 -0.902 -0.013 201 180 149 0 0
6.4610 7.2974 -1.3696 -0.631 -0.774 0.046 203 186 154 0 0
6.5320 7.2118 -1.3549 -0.156 -0.979 -0.129 202 181 151 0 0
6.5467 7.2083 -1.3529 -0.303 -0.910 -0.283 199 179 149 0 0
6.5605 7.2031 -1.3510 -0.303 -0.910 -0.283 195 176 146 0 0
6.5954 7.1757 -1.3449 -0.018 -0.997 0.080 197 180 150 0 0
8.6341 7.5496 -1.1351 0.653 -0.648 0.391 248 248 247 0 0
1.2367 9.3001 -2.1438 -0.266 -0.718 0.643 178 126 108 0 0
1.3667 9.1692 -2.1188 -0.486 -0.741 0.463 181 131 114 0 0
1.5702 9.0732 -2.0879 -0.625 -0.625 0.468 164 113 95 0 0
1.5858 9.0610 -2.0851 0.003 -0.727 0.687 153 105 86 0 0
1.6013 9.0593 -2.0832 -0.056 -0.720 0.692 169 120 100 0 0
1.6167 9.0600 -2.0814 -0.074 -0.711 0.699 184 135 114 0 0
1.7252 9.0365 -2.0671 -0.491 -0.591 0.641 186 135 115 0 0
1.8337 9.0441 -2.0550 -0.391 -0.736 0.552 190 137 117 0 0
2.2844 8.9211 -1.9934 -0.074 -0.652 0.754 175 125 108 0 0
2.3465 8.9043 -1.9849 -0.349 -0.661 0.664 185 133 114 0 0
2.6428 8.8442 -1.9459 -0.252 -0.750 0.612 154 106 91 0 0
2.9117 8.8204 -1.9128 -0.070 -0.942 0.327 148 98 77 0 0
3.0677 7.9099 -1.8256 -0.640 -0.622 0.452 225 201 169 0 0
3.3288 7.8623 -1.7917 -0.032 -0.687 0.726 228 207 178 0 0
3.3414 7.8479 -1.7891 -0.032 -0.869 0.493 226 204 176 0 0
3.3583 7.8600 -1.7881 -0.203 -0.744 0.637 227 205 175 0 0
3.6470 7.7932 -1.7495 -0.434 -0.638 0.636 224 203 173 0 0
3.8070 7.7616 -1.7285 -0.249 -0.607 0.754 229 210 181 0 0
3.8214 7.7579 -1.7265 -0.260 -0.590 0.764 230 212 183 0 0
4.5821 7.5576 -1.6230 -0.265 -0.801 0.537 226 205 176 0 0
4.7715 7.5179 -1.5980 -0.437 -0.735 0.519 230 210 182 0 0
4.9205 7.4507 -1.5755 -0.322 -0.738 0.593 226 206 176 0 0
4.9382 7.4569 -1.5740 -0.488 -0.696 0.527 223 202 172 0 0
4.9512 7.4494 -1.5719 -0.488 -0.696 0.527 224 203 175 0 0
4.9652 7.4445 -1.5699 -0.347 -0.770 0.535 226 207 179 0 0
4.9765 7.4323 -1.5676 0.085 -0.897 0.433 229 211 181 0 0
4.9930 7.4347 -1.5659 0.085 -0.897 0.433 227 207 176 0 0
5.0094 7.4371 -1.5642 0.085 -0.897 0.433 229 208 177 0 0
5.0259 7.4395 -1.5624 0.085 -0.897 0.433 228 206 176 0 0
6.6670 10.6942 -1.6190 0.226 -0.618 -0.753 213 207 199 0 0
6.6096 10.3336 -1.5983 -0.387 -0.898 -0.210 215 209 204 0 0
6.6545 10.3927 -1.5975 0.033 -0.873 0.487 217 210 203 0 0
6.6790 10.4010 -1.5953 0.289 -0.849 0.441 218 210 205 0 0
6.2074 7.8066 -1.4531 -0.919 -0.309 0.247 193 167 133 0 0
6.3896 7.3809 -1.3996 -0.395 -0.822 -0.409 202 182 151 0 0
6.4015 7.3715 -1.3975 -0.300 -0.952 -0.055 198 177 146 0 0
6.4546 7.3127 -1.3869 -0.088 -0.876 -0.474 198 182 151 0 0
6.5399 7.2224 -1.3701 -0.273 -0.962 0.017 204 185 155 0 0
6.5805 7.1746 -1.3618 0.060 -0.998 0.020 198 181 151 0 0
6.6085 7.1654 -1.3578 -0.229 -0.920 -0.319 196 180 148 0 0
1.4330 9.0980 -2.1219 -0.695 -0.621 0.362 195 146 127 0 0
1.6809 9.0279 -2.0878 -0.182 -0.657 0.731 178 127 108 0 0
1.8357 9.0230 -2.0695 -0.008 -0.785 0.620 188 135 117 0 0
2.1617 8.9391 -2.0253 -0.150 -0.633 0.760 181 128 108 0 0
2.3477 8.8879 -1.9998 -0.415 -0.599 0.685 172 120 101 0 0
3.0826 7.8958 -1.8378 -0.467 -0.836 0.288 224 203 172 0 0
3.0954 7.8803 -1.8352 -0.069 -0.865 0.497 225 204 175 0 0
3.2566 7.8654 -1.8153 -0.116 -0.799 0.590 221 201 172 0 0
3.2699 7.8553 -1.8130 -0.445 -0.716 0.538 224 204 174 0 0
3.5181 7.8183 -1.7814 -0.726 -0.665 0.175 224 203 174 0 0
4.4547 7.5904 -1.6553 -0.195 -0.943 0.268 225 202 171 0 0
4.4739 7.6035 -1.6541 0.199 -0.932 0.302 227 204 174 0 0
4.4841 7.5852 -1.6515 -0.138 -0.985 0.104 227 206 177 0 0
4.5813 7.5482 -1.6374 -0.248 -0.748 0.616 229 207 176 0 0
4.5956 7.5443 -1.6355 -0.262 -0.792 0.551 227 207 178 0 0
4.7969 7.4939 -1.6083 -0.107 -0.720 0.685 228 207 178 0 0
4.8191 7.4667 -1.6036 -0.116 -0.712 0.692 228 208 181 0 0
4.9641 7.4354 -1.5844 -0.265 -0.722 0.639 228 208 178 0 0
4.9782 7.4310 -1.5824 -0.250 -0.692 0.677 227 208 178 0 0
5.0088 7.4293 -1.5787 0.204 -0.886 0.417 230 209 180 0 0
6.6199 10.3524 -1.6186 -0.396 -0.888 0.235 217 210 202 0 0
6.6789 10.4464 -1.6191 0.373 -0.646 0.666 218 211 203 0 0
6.9275 10.3259 -1.5810 -0.110 -0.359 0.927 228 223 217 0 0
6.2490 8.6489 -1.5296 -0.966 0.047 -0.253 230 226 219 0 0
6.2229 8.4621 -1.5182 -0.958 -0.126 -0.256 185 167 147 0 0
6.2325 7.7093 -1.4588 -0.797 -0.590 -0.128 198 173 140 0 0
6.2427 7.6950 -1.4565 -0.797 -0.590 -0.128 196 172 141 0 0
6.2656 7.6361 -1.4493 -0.854 -0.452 0.257 201 180 149 0 0
6.4430 7.3182 -1.4041 -0.594 -0.693 -0.409 199 182 153 0 0
6.5417 7.2216 -1.3852 -0.273 -0.962 0.017 200 182 152 0 0
6.5962 7.1691 -1.3748 -0.063 -0.990 -0.125 193 177 147 0 0
6.6157 7.1745 -1.3730 -0.495 -0.868 -0.036 193 176 146 0 0
6.7331 7.0584 -1.3504 -0.402 -0.905 0.139 182 166 136 0 0
6.7925 7.0179 -1.3404 -0.240 -0.968 -0.075 182 163 131 0 0
8.6314 7.5391 -1.1679 0.683 -0.728 0.059 247 247 246 0 0
1.4354 9.0865 -2.1370 -0.695 -0.632 0.343 192 141 121 0 0
1.4511 9.0749 -2.1342 -0.711 -0.645 0.279 194 143 123 0 0
1.5591 9.0567 -2.1204 -0.626 -0.596 0.503 195 144 126 0 0
1.5748 9.0427 -2.1174 -0.626 -0.596 0.503 188 138 120 0 0
1.9150 8.9655 -2.0721 -0.120 -0.657 0.744 163 111 90 0 0
2.0234 8.9419 -2.0577 -0.180 -0.693 0.698 194 148 130 0 0
2.3485 8.8627 -2.0140 -0.447 -0.640 0.625 183 130 110 0 0
2.5499 8.8144 -1.9869 -0.219 -0.620 0.754 187 137 119 0 0
3.0820 7.8766 -1.8514 -0.311 -0.733 0.605 221 200 171 0 0
3.2443 7.8703 -1.8322 0.144 -0.890 0.432 224 203 174 0 0
3.5617 7.7989 -1.7900 -0.545 -0.640 0.542 224 205 175 0 0
3.5750 7.7895 -1.7877 -0.545 -0.640 0.542 225 206 174 0 0
4.3807 7.5935 -1.6792 -0.112 -0.835 0.538 227 205 176 0 0
4.4731 7.5934 -1.6686 -0.048 -0.974 0.221 226 204 174 0 0
4.4981 7.5733 -1.6641 -0.489 -0.847 0.208 226 205 177 0 0
4.5163 7.5301 -1.6586 0.018 -0.985 0.169 229 208 179 0 0
4.5341 7.5381 -1.6572 0.035 -0.957 0.290 227 207 177 0 0
4.5618 7.5276 -1.6531 -0.108 -0.913 0.394 229 208 179 0 0
4.6835 7.5212 -1.6386 -0.425 -0.801 0.421 224 203 172 0 0
4.7843 7.4491 -1.6212 0.093 -0.733 0.674 226 206 176 0 0
4.9334 7.4309 -1.6026 -0.366 -0.792 0.489 227 207 180 0 0
4.9472 7.4258 -1.6006 -0.366 -0.792 0.489 227 208 178 0 0
5.0227 7.4185 -1.5913 -0.360 -0.745 0.562 230 211 181 0 0
6.5231 10.3670 -1.6511 -0.314 -0.940 0.135 216 209 203 0 0
6.5900 10.3763 -1.6441 -0.425 -0.884 -0.193 215 211 202 0 0
6.6692 10.4154 -1.6381 -0.405 -0.865 0.296 219 212 204 0 0
6.7014 10.4423 -1.6365 0.045 -0.884 0.465 220 213 206 0 0
6.7696 10.2465 -1.6132 0.194 -0.654 0.731 225 220 214 0 0
6.7788 10.2180 -1.6099 -0.108 -0.666 0.738 226 221 215 0 0
6.8644 10.2708 -1.6041 -0.377 -0.657 0.653 228 223 218 0 0
6.8790 10.2552 -1.6012 -0.016 -0.396 0.918 229 224 220 0 0
6.2276 8.4674 -1.5352 -0.827 0.024 -0.561 191 176 157 0 0
6.1833 7.9694 -1.5009 -0.948 -0.247 0.203 190 165 133 0 0
6.2444 7.6939 -1.4721 -0.802 -0.596 -0.040 200 177 146 0 0
6.2541 7.6784 -1.4698 -0.857 -0.496 -0.142 200 178 150 0 0
6.5860 7.1766 -1.3919 -0.087 -0.989 0.122 192 173 142 0 0
6.7382 7.0635 -1.3654 -0.526 -0.850 0.042 187 170 140 0 0
8.5195 7.4349 -1.1892 0.611 -0.791 -0.013 248 247 244 0 0
8.5628 7.4682 -1.1868 0.611 -0.791 -0.013 247 247 248 0 0
0.5454 11.5825 -2.4565 -0.825 -0.324 -0.462 242 241 239 0 0
1.3425 9.1531 -2.1693 -0.595 -0.734 0.326 164 109 89 0 0
1.4530 9.0768 -2.1504 -0.556 -0.694 0.457 194 140 120 0 0
1.4848 9.0436 -2.1441 -0.300 -0.563 0.770 199 148 127 0 0
1.5311 9.0291 -2.1376 -0.388 -0.675 0.627 170 119 98 0 0
1.5615 9.0418 -2.1351 -0.626 -0.596 0.503 174 123 104 0 0
1.5771 9.0283 -2.1322 -0.739 -0.565 0.368 180 129 110 0 0
1.5927 9.0198 -2.1298 -0.235 -0.658 0.716 171 120 101 0 0
2.3344 8.8523 -2.0310 -0.085 -0.686 0.723 161 110 91 0 0
2.3496 8.8437 -2.0285 -0.579 -0.642 0.503 167 114 93 0 0
2.5507 8.7973 -2.0017 -0.310 -0.683 0.661 191 143 126 0 0
2.5661 8.7926 -1.9995 -0.238 -0.779 0.580 173 121 102 0 0
2.5976 8.7918 -1.9958 -0.197 -0.746 0.636 177 126 107 0 0
2.7224 8.7733 -1.9800 -0.134 -0.921 0.367 187 136 115 0 0
2.7380 8.7715 -1.9781 -0.173 -0.960 0.220 176 126 105 0 0
2.7852 8.7670 -1.9723 -0.385 -0.817 -0.429 163 110 90 0 0
2.8023 8.7809 -1.9714 -0.421 -0.906 -0.028 157 102 82 0 0
2.8828 8.7897 -1.9629 -0.021 -0.970 0.242 184 130 109 0 0
2.8987 8.7889 -1.9610 -0.329 -0.902 0.280 175 123 102 0 0
2.9785 7.8581 -1.8769 -0.186 -0.751 0.633 227 205 174 0 0
2.9930 7.8571 -1.8751 -0.132 -0.758 0.638 224 202 170 0 0
3.0088 7.8658 -1.8740 -0.262 -0.798 0.542 224 202 169 0 0
3.0376 7.8603 -1.8702 -0.123 -0.826 0.551 223 201 170 0 0
3.4283 7.7960 -1.8201 0.186 -0.934 0.306 228 205 174 0 0
3.5746 7.7770 -1.8018 -0.525 -0.727 0.444 226 207 175 0 0
4.1799 7.6377 -1.7209 -0.152 -0.873 0.464 231 210 181 0 0
4.3801 7.5843 -1.6936 -0.112 -0.835 0.538 226 204 175 0 0
4.5021 7.5271 -1.6750 -0.048 -0.990 0.129 227 206 177 0 0
4.5176 7.5276 -1.6732 0.018 -0.985 0.169 228 207 178 0 0
4.5637 7.5274 -1.6679 0.059 -0.961 0.269 228 207 178 0 0
4.7352 7.4823 -1.6446 -0.247 -0.737 0.629 225 206 176 0 0
4.8148 7.4414 -1.6321 -0.268 -0.710 0.651 225 204 175 0 0
4.9002 7.4187 -1.6205 -0.104 -0.779 0.619 218 201 175 0 0
4.9156 7.4181 -1.6187 -0.183 -0.695 0.695 226 206 180 0 0
4.9326 7.4224 -1.6171 -0.366 -0.792 0.489 230 210 183 0 0
6.6025 10.3476 -1.6606 -0.065 -0.486 -0.871 219 213 204 0 0
6.6330 10.3709 -1.6589 -0.262 -0.702 -0.662 220 213 205 0 0
6.6693 10.4086 -1.6578 -0.405 -0.865 0.296 220 213 205 0 0
6.7061 10.4469 -1.6567 0.669 -0.577 -0.469 221 215 207 0 0
6.8238 10.5782 -1.6537 0.576 -0.574 -0.582 222 218 213 0 0
6.7772 10.4121 -1.6457 0.564 -0.815 0.132 224 220 215 0 0
6.7536 10.1510 -1.6274 -0.396 -0.420 0.817 228 223 217 0 0
6.8416 10.2603 -1.6260 -0.256 -0.432 0.865 229 224 218 0 0
6.8583 10.2497 -1.6233 -0.479 -0.452 0.752 230 225 220 0 0
6.2455 7.6914 -1.4877 -0.815 -0.577 -0.052 195 171 140 0 0
6.2565 7.6787 -1.4855 -0.857 -0.496 -0.142 198 175 146 0 0
6.4153 7.3855 -1.4436 -0.514 -0.824 -0.240 199 178 147 0 0
6.4911 7.2744 -1.4259 -0.525 -0.849 -0.068 197 178 148 0 0
0.5155 11.7241 -2.4913 0.447 -0.883 0.139 241 240 238 0 0
0.5454 11.6066 -2.4782 -0.687 -0.709 -0.159 241 240 238 0 0
1.3450 9.1414 -2.1843 -0.476 -0.757 0.447 129 75 55 0 0
1.4875 9.0207 -2.1581 -0.094 -0.725 0.682 198 147 126 0 0
1.5028 9.0190 -2.1562 -0.177 -0.715 0.676 203 152 130 0 0
1.5181 9.0194 -2.1545 -0.328 -0.677 0.659 186 135 114 0 0
1.5490 9.0071 -2.1499 -0.230 -0.704 0.672 181 130 110 0 0
1.5645 9.0006 -2.1476 -0.388 -0.675 0.627 184 133 114 0 0
1.5951 8.9988 -2.1439 -0.560 -0.650 0.514 160 111 91 0 0
1.9803 8.9071 -2.0923 -0.379 -0.612 0.694 188 135 116 0 0
2.3042 8.8324 -2.0490 0.096 -0.796 0.597 182 130 109 0 0
2.3198 8.8335 -2.0473 -0.029 -0.770 0.637 176 125 105 0 0
2.3355 8.8343 -2.0456 -0.029 -0.770 0.637 168 118 99 0 0
2.5828 8.7777 -2.0126 -0.238 -0.779 0.580 192 139 119 0 0
2.5988 8.7807 -2.0110 -0.187 -0.734 0.653 195 144 123 0 0
2.6763 8.7646 -2.0008 -0.147 -0.833 0.533 187 134 112 0 0
2.7076 8.7613 -1.9970 -0.374 -0.846 0.380 165 114 94 0 0
2.7228 8.7547 -1.9947 -0.049 -0.990 0.129 171 121 100 0 0
2.7391 8.7609 -1.9933 -0.004 -0.964 0.267 169 117 96 0 0
2.8036 8.7724 -1.9869 -0.144 -0.987 0.075 152 98 78 0 0
2.8840 8.7808 -1.9783 0.008 -0.951 0.309 173 118 98 0 0
2.9012 8.7934 -1.9774 -0.167 -0.971 0.173 161 107 87 0 0
2.9645 7.8476 -1.8925 -0.317 -0.796 0.516 226 203 172 0 0
3.3957 7.7677 -1.8366 -0.016 -0.765 0.644 225 203 174 0 0
3.5344 7.7105 -1.8160 -0.091 -0.957 0.275 224 203 174 0 0
3.5485 7.7062 -1.8140 -0.111 -0.837 0.535 224 205 175 0 0
3.8381 7.6581 -1.7769 -0.037 -0.825 0.564 228 207 178 0 0
4.1744 7.6079 -1.7342 -0.376 -0.810 0.450 229 208 178 0 0
4.3825 7.5855 -1.7085 0.234 -0.878 0.417 225 202 171 0 0
4.3902 7.5582 -1.7054 -0.525 -0.686 0.504 225 202 171 0 0
4.5016 7.5186 -1.6894 0.196 -0.939 0.282 227 206 175 0 0
4.8117 7.4259 -1.6462 -0.338 -0.753 0.564 231 210 181 0 0
4.8832 7.4082 -1.6366 -0.104 -0.779 0.619 220 200 173 0 0
4.8980 7.4061 -1.6347 -0.093 -0.780 0.619 218 198 171 0 0
4.9309 7.4115 -1.6314 -0.339 -0.754 0.563 225 205 178 0 0
4.9445 7.4060 -1.6294 -0.299 -0.860 0.413 228 209 179 0 0
6.5181 10.3401 -1.6898 -0.034 -0.982 -0.186 218 211 205 0 0
6.5620 10.3446 -1.6851 -0.577 -0.817 -0.012 219 212 206 0 0
6.6868 10.4450 -1.6790 -0.272 -0.601 -0.751 222 215 208 0 0
6.8184 10.5580 -1.6732 0.412 -0.445 -0.795 224 221 216 0 0
6.8597 10.6057 -1.6724 -0.345 -0.583 -0.735 225 221 216 0 0
6.7517 10.1399 -1.6466 -0.619 -0.546 0.565 228 223 217 0 0
6.1895 7.9349 -1.5301 -0.905 -0.352 0.239 186 160 125 0 0
6.2402 7.7114 -1.5059 -0.667 -0.723 -0.180 192 168 135 0 0
6.2751 7.5717 -1.4905 -0.503 -0.706 -0.499 193 170 139 0 0
6.2884 7.5644 -1.4883 -0.422 -0.762 -0.492 197 174 142 0 0
6.4320 7.3485 -1.4542 -0.736 -0.636 -0.234 194 173 142 0 0
6.5894 7.1747 -1.4219 -0.317 -0.938 0.142 191 172 140 0 0
6.6035 7.1703 -1.4199 -0.317 -0.938 0.142 193 174 143 0 0
8.6559 7.5618 -1.2168 0.663 -0.739 0.120 247 247 246 0 0
0.5300 11.6005 -2.4992 0.149 -0.974 0.174 241 240 238 0 0
0.5471 11.6138 -2.4984 -0.757 -0.537 -0.372 241 240 238 0 0
0.5643 11.6262 -2.4974 -0.721 -0.296 -0.627 241 240 238 0 0
1.3153 9.1620 -2.2057 -0.346 -0.826 0.444 198 156 136 0 0
1.3630 9.1251 -2.1972 -0.462 -0.777 0.427 162 107 88 0 0
1.3789 9.1126 -2.1943 -0.532 -0.804 0.266 115 58 39 0 0
1.3947 9.1020 -2.1916 -0.540 -0.823 0.176 140 86 65 0 0
1.5359 8.9971 -2.1667 -0.366 -0.634 0.681 181 130 110 0 0
1.5822 8.9795 -2.1600 -0.310 -0.581 0.752 162 112 91 0 0
1.9974 8.8833 -2.1045 -0.233 -0.631 0.740 176 123 103 0 0
2.2280 8.8217 -2.0730 -0.283 -0.582 0.762 163 107 90 0 0
2.3212 8.8193 -2.0622 -0.078 -0.760 0.645 180 129 109 0 0
2.3518 8.8078 -2.0577 -0.191 -0.625 0.757 173 122 102 0 0
2.3673 8.8053 -2.0557 -0.220 -0.753 0.620 179 128 108 0 0
2.6461 8.7553 -2.0197 0.099 -0.790 0.605 172 115 92 0 0
2.7096 8.7605 -2.0129 0.001 -0.880 0.475 156 106 87 0 0
2.8372 8.7707 -1.9991 0.109 -0.993 -0.038 142 90 69 0 0
2.8695 8.7753 -1.9958 0.130 -0.944 0.303 171 116 96 0 0
2.8856 8.7771 -1.9941 -0.369 -0.867 0.336 159 104 83 0 0
2.8248 7.8897 -1.9269 -0.498 -0.723 0.478 167 115 93 0 0
2.8387 7.8832 -1.9248 -0.016 -0.809 0.588 160 104 84 0 0
2.9650 7.8364 -1.9065 -0.152 -0.828 0.540 224 202 171 0 0
2.9795 7.8349 -1.9047 -0.152 -0.828 0.540 224 203 171 0 0
3.0767 7.7931 -1.8901 -0.396 -0.787 0.472 226 206 178 0 0
3.1834 7.8194 -1.8801 -0.275 -0.679 0.681 223 204 174 0 0
3.2405 7.8058 -1.8724 -0.398 -0.801 0.446 226 205 176 0 0
3.5224 7.7159 -1.8327 -0.097 -0.884 0.457 228 207 178 0 0
3.5356 7.7064 -1.8304 -0.306 -0.903 0.300 226 206 176 0 0
3.5488 7.6971 -1.8281 -0.111 -0.837 0.535 224 205 175 0 0
3.5799 7.7044 -1.8252 -0.054 -0.842 0.536 224 205 175 0 0
3.5949 7.7045 -1.8235 -0.054 -0.842 0.536 226 207 177 0 0
3.6095 7.7033 -1.8217 0.053 -0.852 0.521 226 206 177 0 0
3.6983 7.6983 -1.8112 -0.510 -0.588 0.628 226 205 176 0 0
3.8676 7.6461 -1.7875 -0.215 -0.844 0.491 228 207 178 0 0
4.1299 7.6045 -1.7540 -0.538 -0.745 0.394 229 209 182 0 0
4.1437 7.5991 -1.7520 -0.424 -0.766 0.484 225 204 174 0 0
4.4155 7.5319 -1.7153 0.064 -0.820 0.569 226 205 174 0 0
4.4317 7.5352 -1.7137 0.209 -0.808 0.551 227 206 177 0 0
4.4402 7.5111 -1.7108 -0.262 -0.724 0.638 226 205 176 0 0
4.6258 7.4648 -1.6857 -0.194 -0.796 0.573 222 202 173 0 0
4.6395 7.4596 -1.6837 -0.114 -0.795 0.595 229 208 179 0 0
4.8508 7.3976 -1.6544 -0.114 -0.774 0.623 224 205 175 0 0
6.5887 10.4052 -1.7072 0.203 -0.915 -0.348 221 214 208 0 0
6.6891 10.4438 -1.6990 -0.205 -0.778 -0.593 222 217 210 0 0
6.6875 10.1297 -1.6729 0.272 -0.694 -0.667 227 222 216 0 0
6.6541 9.9987 -1.6658 0.448 -0.600 -0.663 228 223 217 0 0
6.2702 8.5069 -1.5850 -0.763 0.059 -0.644 191 172 147 0 0
6.2621 8.4471 -1.5809 -0.763 0.059 -0.644 186 161 130 0 0
6.2854 7.5884 -1.5064 -0.734 -0.670 0.114 201 178 146 0 0
6.4575 7.2970 -1.4624 -0.659 -0.745 0.100 196 180 150 0 0
6.5825 7.1885 -1.4391 -0.218 -0.968 0.124 196 179 149 0 0
6.6035 7.1663 -1.4348 -0.474 -0.860 0.189 193 174 142 0 0
6.6647 7.0971 -1.4221 -0.500 -0.852 -0.157 191 171 143 0 0
6.7424 7.0592 -1.4100 -0.451 -0.876 0.170 183 166 138 0 0
6.7672 7.0447 -1.4060 -0.498 -0.847 0.187 186 169 139 0 0
8.4461 7.3752 -1.2418 0.614 -0.783 0.100 217 208 195 0 0
8.4902 7.4100 -1.2397 0.614 -0.783 0.100 231 227 220 0 0
8.5343 7.4447 -1.2375 0.595 -0.791 0.139 247 247 244 0 0
8.6005 7.5090 -1.2354 0.665 -0.741 0.098 247 247 248 0 0
8.6599 7.5637 -1.2331 0.649 -0.740 0.178 247 247 246 0 0
0.5574 11.5307 -2.5099 -0.577 -0.650 -0.494 241 239 239 0 0
0.5608 11.6869 -2.5228 -0.894 -0.268 -0.359 240 239 237 0 0
0.5894 11.5800 -2.5104 -0.855 -0.289 -0.430 239 238 236 0 0
1.3968 9.0965 -2.2071 -0.532 -0.804 0.266 142 84 64 0 0
1.4130 9.0757 -2.2035 -0.260 -0.965 0.027 142 87 66 0 0
1.9529 8.8695 -2.1245 -0.357 -0.618 0.700 166 109 89 0 0
2.2294 8.8078 -2.0878 -0.213 -0.631 0.746 177 122 102 0 0
2.7113 8.7569 -2.0286 0.241 -0.946 0.216 155 107 86 0 0
2.7779 8.7935 -2.0241 -0.489 -0.872 0.016 158 104 86 0 0
2.7931 8.7863 -2.0218 -0.404 -0.910 -0.091 167 114 95 0 0
2.8400 8.7783 -2.0158 -0.002 -0.873 0.488 163 110 88 0 0
2.8560 8.7789 -2.0140 -0.175 -0.868 0.465 157 104 82 0 0
2.8258 7.8814 -1.9410 -0.523 -0.665 0.534 172 117 96 0 0
2.8418 7.8941 -1.9403 -0.697 -0.565 0.442 169 114 93 0 0
3.0773 7.7835 -1.9041 -0.324 -0.824 0.464 228 208 179 0 0
3.0911 7.7769 -1.9020 -0.341 -0.852 0.398 224 205 175 0 0
3.1051 7.7723 -1.9000 -0.330 -0.823 0.462 226 205 176 0 0
3.1841 7.8115 -1.8943 -0.273 -0.695 0.665 227 207 176 0 0
3.1981 7.8058 -1.8922 -0.312 -0.708 0.633 229 206 176 0 0
3.3251 7.7660 -1.8744 -0.464 -0.627 0.626 225 204 175 0 0
3.3388 7.7589 -1.8722 -0.529 -0.634 0.564 228 204 176 0 0
3.3522 7.7504 -1.8700 -0.464 -0.627 0.626 225 202 172 0 0
3.6258 7.7002 -1.8346 0.237 -0.805 0.544 228 207 178 0 0
3.8676 7.6375 -1.8017 0.007 -0.904 0.427 226 205 176 0 0
4.0684 7.5930 -1.7750 -0.301 -0.614 0.730 224 203 172 0 0
4.8321 7.3820 -1.6701 -0.305 -0.686 0.660 225 204 175 0 0
4.8453 7.3753 -1.6681 -0.016 -0.741 0.671 226 207 178 0 0
5.0270 7.3199 -1.6427 0.011 -0.905 0.425 228 211 185 0 0
5.0450 7.3271 -1.6412 -0.208 -0.962 0.178 227 210 182 0 0
6.4972 10.3263 -1.7311 0.138 -0.989 -0.050 219 212 207 0 0
6.5382 10.3773 -1.7308 0.042 -0.989 0.142 220 213 207 0 0
6.5578 10.3732 -1.7283 0.055 -0.998 -0.015 219 214 208 0 0
6.6292 10.5003 -1.7309 0.065 -0.998 0.003 220 215 209 0 0
6.6203 10.4242 -1.7255 0.074 -0.903 -0.424 221 216 210 0 0
6.6991 10.4614 -1.7197 -0.002 -0.908 -0.419 222 218 210 0 0
6.7013 10.4143 -1.7154 -0.173 -0.798 -0.577 224 219 212 0 0
6.7242 10.4182 -1.7131 0.009 -0.785 -0.620 225 220 214 0 0
6.6988 10.1502 -1.6932 0.236 -0.754 -0.613 227 222 218 0 0
6.2516 7.7258 -1.5378 -0.463 -0.620 -0.633 189 165 131 0 0
6.2759 7.5989 -1.5242 -0.839 -0.480 -0.257 192 169 138 0 0
6.2867 7.5864 -1.5219 -0.749 -0.657 0.092 193 172 141 0 0
6.2931 7.5647 -1.5194 -0.846 -0.534 0.002 193 172 141 0 0
6.4592 7.2960 -1.4776 -0.572 -0.797 -0.194 198 179 149 0 0
6.4708 7.2864 -1.4754 -0.504 -0.816 -0.284 197 178 148 0 0
6.7360 7.0732 -1.4271 -0.437 -0.899 -0.027 187 170 140 0 0
6.7799 7.0342 -1.4188 -0.364 -0.917 0.162 188 171 142 0 0
6.8052 6.9922 -1.4123 -0.282 -0.958 0.061 184 167 138 0 0
7.1717 6.8606 -1.3594 -0.145 -0.989 -0.008 187 171 139 0 0
7.5202 6.8315 -1.3173 -0.212 -0.975 -0.063 186 166 133 0 0
8.4485 7.3750 -1.2578 0.614 -0.783 0.100 213 205 195 0 0
8.4925 7.4098 -1.2558 0.614 -0.783 0.100 238 235 230 0 0
8.5352 7.4426 -1.2537 0.595 -0.791 0.139 247 247 243 0 0
8.5779 7.4750 -1.2516 0.595 -0.791 0.139 247 247 246 0 0
8.5823 7.4558 -1.2495 0.444 -0.770 0.458 246 246 246 0 0
0.6044 11.6419 -2.5338 -0.879 -0.225 -0.421 239 238 234 0 0
1.2887 9.1591 -2.2411 -0.522 -0.713 0.467 188 138 120 0 0
1.3836 9.0933 -2.2246 -0.476 -0.757 0.447 170 111 90 0 0
1.3996 9.0778 -2.2215 -0.690 -0.642 0.335 164 106 86 0 0
1.4157 9.0560 -2.2177 -0.347 -0.886 0.308 154 99 78 0 0
1.5261 8.9442 -2.1955 -0.398 -0.726 0.561 170 118 97 0 0
2.1074 8.7961 -2.1167 0.073 -0.720 0.690 165 109 87 0 0
2.2152 8.7887 -2.1039 -0.095 -0.646 0.757 159 103 86 0 0
2.2308 8.7904 -2.1022 -0.307 -0.710 0.633 173 117 99 0 0
2.2464 8.7940 -2.1008 -0.030 -0.731 0.682 165 112 93 0 0
2.8250 8.7661 -2.0327 0.189 -0.907 0.377 156 105 82 0 0
2.8574 8.7716 -2.0295 -0.061 -0.992 -0.114 159 107 86 0 0
2.8112 7.8626 -1.9560 -0.660 -0.685 0.308 148 95 74 0 0
2.8697 7.8649 -1.9496 -0.059 -0.691 0.721 219 192 162 0 0
3.1981 7.7925 -1.9060 -0.358 -0.793 0.493 227 205 175 0 0
3.2118 7.7857 -1.9039 -0.659 -0.619 0.427 224 203 172 0 0
3.2381 7.7643 -1.8990 -0.608 -0.533 0.588 225 204 175 0 0
3.5204 7.6831 -1.8600 -0.087 -0.721 0.688 226 204 176 0 0
3.8686 7.6331 -1.8161 0.125 -0.969 0.214 227 206 177 0 0
3.8842 7.6354 -1.8146 0.125 -0.969 0.214 227 206 175 0 0
3.9956 7.5958 -1.7985 -0.370 -0.632 0.681 226 205 174 0 0
4.1160 7.5935 -1.7846 -0.090 -0.837 0.539 225 205 175 0 0
4.7471 7.3981 -1.6961 -0.286 -0.728 0.623 228 206 176 0 0
4.8461 7.3715 -1.6826 -0.064 -0.728 0.683 226 207 178 0 0
5.0273 7.3150 -1.6571 -0.091 -0.957 0.277 228 211 184 0 0
5.0449 7.3210 -1.6556 0.232 -0.969 0.089 225 208 180 0 0
6.6164 10.4610 -1.7494 0.177 -0.727 0.663 220 215 211 0 0
6.5944 10.3522 -1.7424 -0.361 -0.874 -0.326 221 216 212 0 0
6.7016 10.1503 -1.7128 0.630 -0.683 -0.368 228 223 219 0 0
6.6902 10.0725 -1.7073 0.614 -0.537 -0.579 229 224 220 0 0
6.3344 8.7270 -1.6311 -0.874 0.166 -0.456 233 229 223 0 0
