ply
format ascii 1.0
element vertex 826
property float x
property float y
property float z
property float nx
property float ny
property float nz
property uchar diffuse_red
property uchar diffuse_green
property uchar diffuse_blue
property uchar class
property uchar detection
end_header
2.6606 6.9443 -2.6018 -0.346 -0.655 0.672 227 206 177 0 0
3.3000 6.6740 -2.6340 -0.336 -0.635 0.696 229 210 181 0 0
3.3239 6.6620 -2.6350 -0.196 -0.632 0.750 225 205 176 0 0
3.3802 6.6255 -2.6366 -0.234 -0.632 0.739 226 205 178 0 0
3.7125 6.4796 -2.6528 0.023 -0.747 0.665 229 209 183 0 0
3.9005 6.3774 -2.6600 -0.439 -0.516 0.736 227 207 178 0 0
4.5038 6.0385 -2.6823 0.012 -0.865 0.502 228 210 183 0 0
4.5178 6.0352 -2.6832 -0.118 -0.789 0.603 225 207 179 0 0
4.5332 6.0338 -2.6845 -0.460 -0.690 0.559 228 210 183 0 0
5.1649 6.0143 -2.7404 0.103 -0.994 0.033 213 213 210 0 0
7.1629 8.0148 -3.1171 0.419 -0.834 0.358 210 210 210 0 0
7.0784 7.8416 -3.0926 -0.800 0.089 0.594 209 211 209 0 0
7.1121 7.8536 -3.0969 -0.911 0.180 0.371 210 211 210 0 0
7.0553 7.7645 -3.0830 -0.810 0.107 0.577 209 211 209 0 0
8.2038 8.6212 -3.2711 -0.649 -0.017 -0.761 213 215 213 0 0
7.3870 7.7237 -3.1094 0.275 -0.890 -0.363 213 215 213 0 0
7.8002 7.6122 -3.1363 -0.430 -0.255 0.866 223 223 222 0 0
7.8572 7.5493 -3.1354 -0.587 -0.593 0.552 225 225 225 0 0
0.2867 11.4735 -2.8424 -0.666 -0.746 0.031 238 237 235 0 0
0.3022 11.4597 -2.8425 -0.666 -0.746 0.031 237 236 234 0 0
0.3218 11.4949 -2.8477 -0.422 -0.568 -0.706 237 236 234 0 0
0.6706 11.1380 -2.8447 -0.873 -0.449 -0.190 228 224 221 0 0
0.7791 11.0656 -2.8476 -0.317 -0.731 0.604 224 219 216 0 0
0.7949 11.0581 -2.8483 -0.317 -0.731 0.604 224 219 216 0 0
0.9386 11.2468 -2.8801 -0.852 -0.130 -0.507 219 213 209 0 0
1.7792 8.3800 -2.6753 -0.233 -0.855 -0.464 132 86 71 0 0
1.7932 8.3768 -2.6762 -0.188 -0.887 -0.422 143 97 82 0 0
1.8429 8.3950 -2.6826 -0.172 -0.970 -0.174 144 101 85 0 0
2.7546 8.9630 -2.8225 0.002 -0.751 -0.660 104 60 48 0 0
2.7725 8.9657 -2.8244 0.407 -0.851 -0.331 106 62 49 0 0
2.8104 8.9764 -2.8290 0.188 -0.906 -0.380 107 63 50 0 0
2.8705 9.0481 -2.8416 -0.116 -0.993 0.031 109 64 52 0 0
2.8856 9.0421 -2.8424 0.502 -0.837 -0.219 106 62 51 0 0
2.9530 9.0843 -2.8527 0.477 -0.858 -0.189 100 58 44 0 0
2.9743 9.0946 -2.8557 0.393 -0.878 -0.275 109 69 56 0 0
2.9957 9.1051 -2.8587 0.393 -0.878 -0.275 99 59 47 0 0
3.0173 9.1161 -2.8618 0.404 -0.866 -0.295 91 51 39 0 0
3.0390 9.1273 -2.8649 0.404 -0.866 -0.295 101 62 48 0 0
3.0718 9.1676 -2.8719 0.254 -0.774 -0.580 105 66 51 0 0
3.0945 9.1807 -2.8753 0.300 -0.851 -0.432 109 69 55 0 0
3.1355 9.1949 -2.8804 0.345 -0.787 -0.512 105 62 49 0 0
3.1495 6.7036 -2.6364 -0.362 -0.628 0.689 226 206 179 0 0
3.1846 6.6847 -2.6378 -0.176 -0.591 0.787 226 205 176 0 0
3.3556 6.6374 -2.6489 -0.668 -0.394 0.631 226 207 177 0 0
3.5784 6.5159 -2.6574 -0.686 -0.506 0.522 228 207 179 0 0
3.9073 6.3642 -2.6728 -0.579 -0.551 0.602 227 209 180 0 0
4.0898 6.2548 -2.6788 -0.612 -0.426 0.666 229 210 180 0 0
4.1875 6.2100 -2.6834 -0.222 -0.764 0.605 230 210 183 0 0
4.2901 6.1489 -2.6868 -0.219 -0.878 0.426 227 207 180 0 0
4.4685 6.0360 -2.6922 -0.075 -0.740 0.668 227 207 181 0 0
4.4825 6.0329 -2.6931 -0.118 -0.789 0.603 228 209 182 0 0
4.4968 6.0300 -2.6942 -0.157 -0.929 0.334 226 209 181 0 0
4.5271 6.0265 -2.6966 -0.412 -0.735 0.539 227 209 181 0 0
4.5385 6.0198 -2.6970 -0.412 -0.735 0.539 229 211 184 0 0
4.6529 5.9323 -2.6989 -0.280 -0.704 0.653 227 207 180 0 0
4.6749 5.9180 -2.6995 -0.452 -0.529 0.718 228 207 178 0 0
4.9317 5.8614 -2.7176 0.318 -0.947 -0.051 211 188 159 0 0
4.9524 5.8658 -2.7200 0.036 -0.976 0.213 200 185 164 0 0
7.3972 7.7355 -3.1292 -0.078 -0.805 -0.587 215 217 214 0 0
7.4312 7.7468 -3.1335 0.207 -0.812 -0.546 215 217 214 0 0
9.6976 9.6597 -3.5306 0.364 -0.632 -0.684 221 221 221 0 0
7.9005 7.7867 -3.1806 -0.652 -0.077 0.754 222 222 220 0 0
7.8089 7.5500 -3.1489 -0.020 -0.529 0.848 226 226 226 0 0
7.8731 7.4948 -3.1494 0.476 -0.834 -0.280 228 228 228 0 0
0.6855 11.1278 -2.8628 -0.847 -0.531 0.038 228 223 220 0 0
2.7005 8.9068 -2.8281 0.089 -0.800 -0.594 119 73 58 0 0
2.7560 8.9690 -2.8394 -0.368 -0.722 -0.586 108 64 51 0 0
2.7731 8.9691 -2.8410 0.252 -0.850 -0.462 108 64 51 0 0
2.8132 8.9858 -2.8464 0.185 -0.887 -0.423 112 68 55 0 0
2.8488 9.0376 -2.8549 -0.218 -0.942 -0.254 112 68 55 0 0
3.0196 9.1241 -2.8794 0.302 -0.866 -0.399 97 56 44 0 0
3.0560 9.1743 -2.8878 0.254 -0.774 -0.580 99 58 44 0 0
3.0771 9.1834 -2.8906 0.254 -0.774 -0.580 99 60 45 0 0
3.0997 9.1962 -2.8940 0.326 -0.759 -0.563 109 67 53 0 0
3.1400 9.2086 -2.8990 0.335 -0.748 -0.572 110 66 53 0 0
2.9230 6.7862 -2.6370 -0.433 -0.516 0.740 229 209 182 0 0
3.0599 6.7338 -2.6444 -0.210 -0.581 0.786 225 204 175 0 0
3.3897 6.5893 -2.6606 -0.279 -0.612 0.740 226 205 177 0 0
3.4060 6.5912 -2.6623 -0.210 -0.672 0.710 227 206 177 0 0
3.4193 6.5878 -2.6632 -0.439 -0.557 0.706 225 204 175 0 0
3.4315 6.5823 -2.6638 -0.389 -0.622 0.680 225 205 175 0 0
3.4423 6.5743 -2.6640 -0.327 -0.678 0.658 226 207 177 0 0
3.4542 6.5684 -2.6645 -0.298 -0.597 0.745 228 207 178 0 0
3.8277 6.3886 -2.6812 -0.092 -0.616 0.783 229 208 177 0 0
3.8368 6.3781 -2.6810 0.014 -0.739 0.673 229 209 180 0 0
3.8648 6.3727 -2.6831 0.189 -0.836 0.515 228 208 180 0 0
3.9024 6.3575 -2.6851 -0.568 -0.656 0.497 231 210 180 0 0
4.1931 6.1956 -2.6959 -0.301 -0.780 0.549 229 209 182 0 0
4.4610 6.0268 -2.7039 -0.020 -0.803 0.596 223 203 176 0 0
4.4754 6.0242 -2.7050 -0.162 -0.730 0.664 225 206 179 0 0
4.9316 5.8621 -2.7311 0.318 -0.947 -0.051 203 182 154 0 0
4.9487 5.8622 -2.7327 -0.050 -0.958 0.282 203 188 169 0 0
4.9570 5.8516 -2.7324 -0.727 -0.372 0.578 214 209 199 0 0
4.9637 5.8394 -2.7318 -0.727 -0.372 0.578 215 216 210 0 0
6.9794 8.0981 -3.1444 0.448 -0.651 0.613 214 214 212 0 0
6.8552 7.9263 -3.1158 -0.431 -0.698 -0.572 214 214 214 0 0
7.4079 7.7478 -3.1492 0.291 -0.798 -0.528 215 217 215 0 0
7.4451 7.7624 -3.1542 0.245 -0.841 -0.482 216 218 215 0 0
7.8822 8.0707 -3.2255 -0.299 -0.398 -0.867 217 217 217 0 0
7.6788 7.5162 -3.1513 -0.549 -0.732 0.403 225 225 223 0 0
7.6900 7.5036 -3.1510 -0.599 -0.621 0.505 224 224 224 0 0
7.8546 7.5247 -3.1684 0.329 -0.693 0.642 227 228 227 0 0
0.2698 11.0788 -2.8367 0.425 -0.817 0.391 237 236 234 0 0
0.6998 11.1127 -2.8804 -0.411 -0.756 0.509 228 223 220 0 0
0.9209 11.1259 -2.9024 -0.921 -0.309 -0.237 221 216 212 0 0
2.5848 8.8640 -2.8290 0.223 -0.873 -0.435 117 69 55 0 0
2.7588 8.9786 -2.8569 -0.299 -0.698 -0.650 105 61 47 0 0
2.7762 8.9795 -2.8586 0.252 -0.850 -0.462 104 60 46 0 0
2.8156 8.9944 -2.8638 0.295 -0.806 -0.513 110 66 53 0 0
2.8524 9.0493 -2.8728 -0.116 -0.993 0.031 105 61 49 0 0
2.8708 9.0525 -2.8748 0.361 -0.763 -0.536 109 65 54 0 0
2.9806 9.1152 -2.8914 0.246 -0.846 -0.474 90 52 41 0 0
3.0069 9.1389 -2.8963 0.109 -0.787 -0.607 97 57 45 0 0
3.0260 9.1429 -2.8985 0.466 -0.785 -0.409 100 59 46 0 0
3.0476 9.1538 -2.9016 0.348 -0.777 -0.524 113 72 57 0 0
3.0850 9.2062 -2.9104 0.212 -0.710 -0.671 102 63 48 0 0
3.1459 9.2258 -2.9181 0.335 -0.748 -0.572 109 66 52 0 0
3.0280 6.7302 -2.6544 -0.110 -0.841 0.530 227 206 177 0 0
3.0397 6.7241 -2.6549 -0.046 -0.833 0.552 225 205 174 0 0
3.0520 6.7189 -2.6555 -0.149 -0.808 0.571 225 205 175 0 0
3.1352 6.6778 -2.6591 -0.677 -0.469 0.567 227 207 180 0 0
3.1465 6.6707 -2.6595 -0.636 -0.570 0.520 230 210 183 0 0
3.4566 6.5462 -2.6759 -0.415 -0.679 0.605 226 205 176 0 0
3.4683 6.5399 -2.6763 -0.357 -0.719 0.596 228 207 178 0 0
4.0644 6.2425 -2.7020 -0.450 -0.688 0.569 226 205 174 0 0
4.0754 6.2351 -2.7022 -0.588 -0.615 0.525 228 208 181 0 0
4.4256 6.0459 -2.7158 -0.159 -0.816 0.556 228 208 182 0 0
4.4634 6.0089 -2.7156 -0.297 -0.719 0.628 227 207 180 0 0
4.5932 5.9422 -2.7210 -0.007 -0.731 0.682 227 207 182 0 0
4.6162 5.9293 -2.7219 -0.198 -0.642 0.741 229 209 184 0 0
4.9553 5.8708 -2.7476 0.274 -0.956 -0.106 206 193 177 0 0
4.9505 5.8447 -2.7445 -0.718 -0.385 0.580 217 214 205 0 0
4.9575 5.8327 -2.7440 -0.727 -0.372 0.578 215 216 212 0 0
6.9584 8.0744 -3.1581 0.450 -0.707 0.545 214 214 212 0 0
7.4365 7.7542 -3.1704 -0.024 -0.915 -0.403 216 218 216 0 0
7.5470 7.5751 -3.1626 -0.973 -0.201 -0.114 220 220 220 0 0
7.6821 7.5204 -3.1697 -0.369 -0.929 0.038 225 225 224 0 0
7.6680 7.4826 -3.1645 -0.180 -0.709 0.682 225 225 223 0 0
0.8020 10.9966 -2.8958 -0.157 -0.974 0.162 225 220 217 0 0
0.8184 10.9938 -2.8971 -0.157 -0.974 0.162 224 219 216 0 0
0.9120 10.9412 -2.9005 -0.363 -0.887 -0.285 221 216 213 0 0
0.9734 11.2633 -2.9394 -0.830 -0.136 -0.541 219 214 213 0 0
1.8128 8.4005 -2.7246 -0.247 -0.768 -0.591 134 88 73 0 0
1.8450 8.4091 -2.7285 -0.270 -0.942 -0.202 133 88 72 0 0
2.5642 8.8539 -2.8420 0.374 -0.891 -0.257 124 77 61 0 0
2.8516 9.0488 -2.8891 -0.116 -0.993 0.031 102 58 47 0 0
2.8745 9.0646 -2.8928 0.445 -0.795 -0.413 103 59 48 0 0
2.8971 9.0793 -2.8965 0.538 -0.775 -0.330 113 70 59 0 0
2.9841 9.1265 -2.9095 0.167 -0.839 -0.518 94 56 44 0 0
3.0116 9.1534 -2.9149 0.101 -0.782 -0.615 113 73 60 0 0
3.0289 9.1527 -2.9164 0.425 -0.778 -0.462 101 60 46 0 0
3.0521 9.1675 -2.9201 0.294 -0.742 -0.603 108 68 52 0 0
3.0870 9.2134 -2.9281 0.447 -0.806 -0.389 105 67 51 0 0
3.1527 9.2454 -2.9376 0.334 -0.731 -0.595 118 76 62 0 0
3.1731 9.2519 -2.9402 0.399 -0.733 -0.551 110 67 52 0 0
2.7165 7.7367 -2.7416 0.825 -0.527 -0.205 210 186 153 0 0
2.6918 6.8551 -2.6488 -0.337 -0.722 0.605 227 208 178 0 0
3.5117 6.5096 -2.6906 -0.451 -0.545 0.707 228 208 177 0 0
3.5163 6.4910 -2.6892 -0.569 -0.662 0.488 231 211 180 0 0
3.5433 6.4848 -2.6911 -0.174 -0.724 0.667 227 207 178 0 0
4.1112 6.2181 -2.7172 -0.733 -0.357 0.579 227 207 180 0 0
4.4218 6.0415 -2.7283 -0.400 -0.777 0.487 227 209 181 0 0
4.4334 6.0352 -2.7288 -0.400 -0.777 0.487 227 208 178 0 0
4.4570 6.0012 -2.7275 -0.297 -0.719 0.628 226 206 179 0 0
4.5828 5.9295 -2.7320 -0.286 -0.572 0.769 227 207 182 0 0
4.9403 5.8536 -2.7579 -0.087 -0.934 0.346 209 200 184 0 0
4.9445 5.8383 -2.7567 -0.727 -0.372 0.578 217 216 209 0 0
4.9513 5.8261 -2.7561 -0.675 -0.430 0.600 216 217 213 0 0
7.2182 7.8471 -3.1772 -0.742 0.134 0.657 215 215 215 0 0
7.3507 7.8647 -3.1915 0.328 -0.827 0.457 215 216 215 0 0
7.3681 7.8581 -3.1924 -0.174 -0.775 0.608 215 217 216 0 0
7.8084 8.1503 -3.2639 0.485 -0.476 0.734 216 218 217 0 0
6.8161 6.9818 -3.0505 0.256 -0.964 0.067 217 219 216 0 0
7.5663 7.5716 -3.1817 -0.874 -0.251 -0.416 222 222 222 0 0
0.6934 11.3592 -2.9409 -0.909 -0.366 -0.201 229 225 223 0 0
0.7038 11.3024 -2.9360 -0.382 -0.748 -0.543 229 225 222 0 0
0.8191 11.0047 -2.9160 -0.458 -0.849 0.262 225 219 218 0 0
0.9000 10.9817 -2.9213 -0.559 -0.826 -0.080 222 217 214 0 0
0.9121 10.9467 -2.9187 -0.332 -0.907 -0.259 221 216 214 0 0
0.9689 11.2357 -2.9542 -0.761 -0.183 -0.622 221 216 215 0 0
1.2652 10.0529 -2.8593 -0.784 -0.491 -0.379 139 91 76 0 0
2.0594 8.5230 -2.7755 0.248 -0.953 0.172 135 86 72 0 0
2.0952 8.5394 -2.7806 0.321 -0.947 -0.030 119 74 59 0 0
2.8490 9.0434 -2.9046 -0.258 -0.952 -0.164 104 59 48 0 0
2.8791 9.0792 -2.9112 0.361 -0.795 -0.488 109 65 54 0 0
2.8932 9.0702 -2.9116 0.577 -0.776 -0.256 111 68 56 0 0
2.9872 9.1368 -2.9275 0.187 -0.811 -0.554 102 62 50 0 0
3.0158 9.1666 -2.9333 0.509 -0.801 -0.314 106 66 53 0 0
3.0573 9.1833 -2.9390 0.375 -0.751 -0.544 110 70 56 0 0
3.0904 9.2240 -2.9463 0.447 -0.806 -0.389 106 70 54 0 0
3.1558 9.2553 -2.9558 0.266 -0.760 -0.593 109 67 53 0 0
3.1784 9.2675 -2.9592 0.233 -0.795 -0.560 107 66 50 0 0
2.5512 6.8954 -2.6529 -0.638 -0.452 0.623 226 204 173 0 0
2.5635 6.8907 -2.6536 -0.118 -0.699 0.705 226 204 174 0 0
3.4670 6.5126 -2.7000 -0.438 -0.498 0.748 226 206 175 0 0
3.5035 6.4963 -2.7018 -0.606 -0.559 0.566 226 205 174 0 0
3.9751 6.2529 -2.7212 -0.220 -0.741 0.634 226 207 177 0 0
4.0036 6.2483 -2.7235 -0.120 -0.702 0.702 229 209 182 0 0
4.2930 6.0658 -2.7320 -0.194 -0.786 0.587 226 205 179 0 0
4.3093 6.0661 -2.7335 0.154 -0.820 0.551 227 206 179 0 0
4.3220 6.0390 -2.7319 -0.581 -0.550 0.600 228 209 180 0 0
4.3938 6.0265 -2.7374 -0.062 -0.716 0.695 222 203 176 0 0
4.4145 6.0326 -2.7400 -0.163 -0.838 0.521 222 204 177 0 0
4.4308 6.0325 -2.7416 -0.681 -0.591 0.433 224 206 176 0 0
4.9200 5.8505 -2.7691 0.224 -0.971 0.078 199 184 163 0 0
4.9343 5.8472 -2.7701 -0.269 -0.936 0.226 213 206 192 0 0
4.9469 5.8419 -2.7707 -0.284 -0.922 0.264 217 217 211 0 0
7.4514 7.8981 -3.2224 -0.155 -0.908 0.390 217 219 218 0 0
7.5561 7.9340 -3.2361 0.410 -0.431 0.804 217 219 220 0 0
7.1423 7.1844 -3.1188 0.269 -0.650 0.710 220 220 219 0 0
7.5962 7.5790 -3.2030 -0.794 -0.198 -0.575 222 223 222 0 0
0.6931 11.3623 -2.9593 -0.455 -0.634 -0.625 229 225 224 0 0
0.7081 11.3443 -2.9588 -0.779 -0.301 -0.550 229 225 223 0 0
0.8467 10.9638 -2.9319 -0.340 -0.878 0.338 225 221 216 0 0
0.8957 10.9544 -2.9356 -0.642 -0.575 -0.507 223 218 215 0 0
0.9113 10.9456 -2.9362 -0.834 -0.550 -0.040 223 218 215 0 0
1.2667 10.0644 -2.8773 -0.784 -0.491 -0.379 163 116 100 0 0
2.0620 8.5339 -2.7920 0.259 -0.962 -0.086 125 77 63 0 0
2.8518 9.0530 -2.9223 -0.244 -0.920 -0.305 108 66 54 0 0
3.0184 9.1753 -2.9511 0.528 -0.783 -0.327 107 64 52 0 0
3.0467 9.2039 -2.9568 0.444 -0.785 -0.431 104 63 52 0 0
3.0939 9.2352 -2.9647 0.498 -0.790 -0.357 98 62 50 0 0
3.1610 9.2706 -2.9748 0.301 -0.785 -0.542 110 68 55 0 0
3.1850 9.2864 -2.9788 0.276 -0.891 -0.361 111 71 55 0 0
2.6135 7.5562 -2.7417 0.514 -0.691 -0.509 205 179 147 0 0
2.5569 6.8764 -2.6646 -0.281 -0.645 0.711 227 203 175 0 0
2.7614 6.7873 -2.6748 -0.210 -0.788 0.579 229 208 180 0 0
3.4901 6.4739 -2.7114 -0.417 -0.455 0.787 231 211 181 0 0
3.6238 6.4145 -2.7180 0.050 -0.794 0.606 226 207 177 0 0
3.9689 6.2443 -2.7330 -0.195 -0.714 0.673 223 204 174 0 0
3.9827 6.2414 -2.7340 -0.057 -0.849 0.525 226 206 178 0 0
4.0113 6.2130 -2.7338 -0.126 -0.659 0.742 227 206 177 0 0
4.9115 5.8614 -2.7828 -0.188 -0.939 -0.289 196 179 153 0 0
4.9274 5.8600 -2.7842 -0.138 -0.925 -0.355 202 189 172 0 0
4.9429 5.8582 -2.7855 -0.138 -0.925 -0.355 217 211 200 0 0
4.9584 5.8564 -2.7868 -0.138 -0.925 -0.355 218 218 214 0 0
6.6412 7.7837 -3.1509 0.321 -0.559 0.765 217 219 215 0 0
6.8394 7.9118 -3.1834 0.317 -0.748 0.584 215 217 215 0 0
7.3511 8.1802 -3.2606 -0.991 0.099 -0.093 216 216 215 0 0
7.1878 7.9182 -3.2174 -0.993 0.106 -0.049 216 216 216 0 0
7.4184 7.8889 -3.2364 -0.183 -0.887 0.423 218 220 219 0 0
7.1135 7.1556 -3.1299 0.304 -0.732 0.610 221 221 221 0 0
7.1646 7.1851 -3.1379 0.159 -0.695 0.701 221 221 221 0 0
7.1943 7.1925 -3.1415 0.225 -0.653 0.723 222 222 220 0 0
0.6960 11.3931 -2.9809 -0.639 -0.458 -0.617 229 225 222 0 0
0.7108 11.3732 -2.9802 -0.754 -0.404 -0.518 229 225 222 0 0
0.7303 11.3946 -2.9844 -0.803 -0.228 -0.551 229 225 222 0 0
0.7756 10.8040 -2.9257 -0.691 -0.489 0.533 225 221 220 0 0
0.8389 11.0377 -2.9567 0.067 -0.824 0.562 226 221 218 0 0
0.8474 10.9745 -2.9508 0.154 -0.987 -0.051 224 220 217 0 0
1.7678 8.4619 -2.7711 -0.468 -0.749 -0.468 148 97 81 0 0
2.0443 8.5280 -2.8048 0.316 -0.855 -0.411 128 80 65 0 0
2.0617 8.5348 -2.8072 0.295 -0.895 -0.335 129 81 67 0 0
2.0963 8.5470 -2.8118 0.229 -0.924 -0.306 122 74 60 0 0
2.9303 9.1284 -2.9543 0.433 -0.846 -0.313 101 57 46 0 0
3.0018 9.1799 -2.9667 0.513 -0.758 -0.404 115 71 60 0 0
3.0255 9.1963 -2.9707 0.309 -0.747 -0.588 106 63 52 0 0
3.0515 9.2187 -2.9756 0.447 -0.781 -0.436 107 67 56 0 0
3.0751 9.2344 -2.9796 0.447 -0.781 -0.436 93 56 45 0 0
3.1014 9.2569 -2.9845 0.275 -0.890 -0.362 95 59 48 0 0
3.1449 9.2774 -2.9909 0.432 -0.840 -0.329 108 70 58 0 0
3.1672 9.2888 -2.9943 0.336 -0.810 -0.480 110 68 53 0 0
3.1894 9.2997 -2.9976 0.046 -0.840 -0.541 118 79 61 0 0
3.2112 9.3096 -3.0007 -0.711 -0.449 -0.540 108 66 50 0 0
2.6056 6.8581 -2.6805 -0.211 -0.593 0.777 228 208 179 0 0
3.0687 6.6383 -2.7016 -0.593 -0.498 0.632 226 206 179 0 0
3.0894 6.6208 -2.7018 -0.041 -0.755 0.655 228 208 180 0 0
3.1169 6.6169 -2.7040 0.047 -0.796 0.603 228 208 179 0 0
3.4448 6.4485 -2.7176 -0.380 -0.407 0.831 229 207 177 0 0
3.5224 6.4513 -2.7254 -0.187 -0.594 0.783 230 210 183 0 0
3.6174 6.4045 -2.7295 -0.115 -0.697 0.708 227 208 178 0 0
3.6304 6.4007 -2.7304 -0.116 -0.685 0.720 226 207 177 0 0
3.6394 6.3899 -2.7301 -0.437 -0.608 0.663 227 207 178 0 0
3.6923 6.3755 -2.7337 -0.219 -0.776 0.592 227 207 178 0 0
3.7474 6.3141 -2.7324 -0.367 -0.496 0.787 223 204 174 0 0
3.7627 6.3138 -2.7339 -0.089 -0.665 0.742 224 205 175 0 0
3.8366 6.2830 -2.7377 -0.367 -0.599 0.711 228 208 182 0 0
3.9365 6.2438 -2.7431 -0.098 -0.797 0.596 228 208 181 0 0
3.9523 6.2439 -2.7447 -0.246 -0.602 0.759 228 208 180 0 0
3.9749 6.2303 -2.7454 -0.272 -0.791 0.548 228 207 181 0 0
3.9900 6.2054 -2.7442 -0.126 -0.659 0.742 227 206 177 0 0
4.0033 6.2019 -2.7451 -0.126 -0.659 0.742 228 207 177 0 0
4.0099 6.1880 -2.7442 -0.685 -0.414 0.599 225 204 175 0 0
4.2393 6.0598 -2.7527 -0.005 -0.821 0.571 226 209 181 0 0
4.2514 6.0543 -2.7532 -0.256 -0.669 0.698 228 208 181 0 0
4.3304 6.0079 -2.7559 -0.354 -0.632 0.689 227 207 177 0 0
4.3737 5.9790 -2.7570 -0.582 -0.536 0.611 227 208 181 0 0
4.5915 5.8587 -2.7651 -0.341 -0.680 0.649 227 206 179 0 0
4.8891 5.8760 -2.7956 -0.496 -0.788 -0.364 205 185 152 0 0
4.9002 5.8689 -2.7959 -0.173 -0.796 -0.580 192 172 142 0 0
4.9152 5.8665 -2.7971 -0.173 -0.796 -0.580 196 179 155 0 0
4.9342 5.8690 -2.7992 -0.573 -0.606 -0.552 205 196 179 0 0
4.9505 5.8681 -2.8007 0.015 -0.825 -0.564 218 215 204 0 0
6.6196 7.7592 -3.1635 0.304 -0.535 0.788 217 217 215 0 0
6.6977 7.7992 -3.1753 0.435 -0.631 0.642 218 218 218 0 0
7.3547 8.1852 -3.2799 -0.984 0.093 -0.154 217 217 215 0 0
7.3178 8.0119 -3.2578 -0.916 -0.090 -0.392 218 218 218 0 0
0.6982 11.4184 -3.0020 -0.639 -0.458 -0.617 230 226 223 0 0
0.6680 11.0095 -2.9548 -0.858 -0.386 -0.341 230 226 223 0 0
0.7866 10.7664 -2.9400 -0.434 -0.793 0.427 226 221 220 0 0
1.0383 10.7864 -2.9666 -0.677 -0.736 -0.012 218 213 210 0 0
1.0811 10.8470 -2.9773 -0.888 -0.259 -0.381 217 211 208 0 0
1.7560 8.4759 -2.7863 -0.358 -0.861 -0.360 161 110 93 0 0
1.7698 8.4716 -2.7871 -0.499 -0.760 -0.417 161 112 96 0 0
1.7825 8.4630 -2.7874 -0.670 -0.679 -0.300 150 102 87 0 0
1.8089 8.4499 -2.7886 -0.342 -0.805 -0.485 150 103 89 0 0
2.0819 8.5526 -2.8262 0.049 -0.782 -0.622 116 69 55 0 0
2.8694 9.1060 -2.9625 0.438 -0.844 -0.311 109 68 52 0 0
2.9984 9.1725 -2.9822 0.462 -0.885 0.060 114 69 58 0 0
3.0221 9.1890 -2.9863 0.193 -0.978 -0.074 114 73 61 0 0
3.0445 9.2017 -2.9899 0.467 -0.872 0.147 94 55 45 0 0
3.0786 9.2455 -2.9979 0.439 -0.771 -0.461 97 60 49 0 0
3.1019 9.2601 -3.0018 0.420 -0.859 -0.295 103 67 58 0 0
3.1474 9.2857 -3.0090 0.432 -0.840 -0.329 104 66 54 0 0
3.1714 9.3017 -3.0130 0.336 -0.810 -0.480 113 71 57 0 0
3.1939 9.3133 -3.0164 -0.034 -0.756 -0.654 113 74 58 0 0
3.2156 9.3226 -3.0196 -0.671 -0.515 -0.533 94 53 39 0 0
2.5607 7.5785 -2.7673 -0.009 -0.720 -0.694 95 55 39 0 0
2.6512 7.6162 -2.7801 0.574 -0.676 -0.461 208 182 149 0 0
2.7143 6.7808 -2.6958 -0.607 -0.593 0.529 224 202 172 0 0
2.7488 6.7617 -2.6971 -0.503 -0.507 0.700 227 208 180 0 0
2.7587 6.7520 -2.6971 -0.569 -0.455 0.685 228 208 181 0 0
2.7713 6.7481 -2.6978 -0.310 -0.527 0.792 229 209 182 0 0
2.8956 6.6739 -2.7019 -0.498 -0.622 0.604 228 207 178 0 0
2.9056 6.6643 -2.7018 -0.634 -0.520 0.573 229 208 179 0 0
2.9494 6.6649 -2.7061 -0.332 -0.670 0.664 228 205 174 0 0
3.0724 6.6175 -2.7129 -0.323 -0.691 0.646 227 208 178 0 0
3.5278 6.4354 -2.7374 -0.182 -0.625 0.759 227 207 181 0 0
3.5731 6.4083 -2.7389 -0.543 -0.566 0.620 227 207 179 0 0
3.5831 6.3994 -2.7389 -0.511 -0.576 0.638 228 208 179 0 0
3.6461 6.3764 -2.7425 -0.141 -0.667 0.732 226 208 180 0 0
3.6568 6.3686 -2.7427 -0.431 -0.686 0.586 228 208 181 0 0
3.6715 6.3674 -2.7440 -0.048 -0.822 0.568 225 205 178 0 0
3.8625 6.2511 -2.7500 -0.032 -0.692 0.721 229 209 182 0 0
3.9443 6.2326 -2.7559 -0.143 -0.621 0.771 225 205 177 0 0
3.9564 6.2270 -2.7565 -0.150 -0.700 0.698 228 208 181 0 0
4.2322 6.0506 -2.7642 -0.138 -0.713 0.688 226 209 182 0 0
4.2442 6.0450 -2.7647 -0.256 -0.669 0.698 228 209 182 0 0
4.3209 5.9956 -2.7668 -0.354 -0.703 0.616 224 204 173 0 0
4.3323 5.9893 -2.7673 -0.329 -0.720 0.612 227 208 178 0 0
4.5848 5.8510 -2.7768 -0.341 -0.680 0.649 225 204 176 0 0
4.5978 5.8466 -2.7776 -0.090 -0.731 0.677 223 203 176 0 0
4.6897 5.7761 -2.7789 -0.584 -0.514 0.628 224 203 174 0 0
4.7027 5.7719 -2.7797 -0.201 -0.810 0.551 221 202 171 0 0
4.7173 5.7695 -2.7808 -0.231 -0.712 0.663 221 201 169 0 0
4.7504 5.7694 -2.7840 -0.108 -0.875 0.472 208 188 155 0 0
4.8038 5.7938 -2.7919 0.140 -0.932 0.334 205 185 152 0 0
4.8967 5.8861 -2.8109 -0.474 -0.651 -0.593 198 178 146 0 0
4.9414 5.8579 -2.8122 -0.141 -0.770 -0.622 218 218 209 0 0
6.7579 6.9692 -3.1088 0.393 -0.902 -0.179 220 221 220 0 0
7.1916 7.1685 -3.1724 0.294 -0.698 0.653 222 224 223 0 0
6.9127 6.8616 -3.1121 0.489 -0.718 -0.496 223 225 224 0 0
7.0179 6.9463 -3.1315 0.420 -0.659 -0.625 224 224 224 0 0
7.0524 6.9590 -3.1362 0.556 -0.736 -0.387 225 225 225 0 0
0.6818 10.9914 -2.9717 -0.785 -0.233 -0.575 229 225 222 0 0
0.7550 10.7801 -2.9557 -0.772 -0.497 0.396 227 222 219 0 0
0.7688 10.7598 -2.9549 -0.704 -0.528 0.475 227 221 220 0 0
0.7846 10.7551 -2.9559 -0.474 -0.797 0.374 226 221 218 0 0
0.9719 10.9112 -2.9913 -0.992 -0.087 0.089 222 217 214 0 0
1.0372 10.7835 -2.9837 0.032 -0.910 -0.414 219 214 211 0 0
1.7585 8.4875 -2.8026 -0.499 -0.760 -0.417 166 117 100 0 0
1.7713 8.4793 -2.8029 -0.499 -0.760 -0.417 165 118 101 0 0
1.7836 8.4692 -2.8030 -0.319 -0.830 -0.458 146 98 83 0 0
2.9971 9.1708 -2.9986 0.458 -0.777 -0.432 106 64 52 0 0
3.0196 9.1839 -3.0022 -0.635 -0.520 -0.572 105 64 53 0 0
3.1499 9.2941 -3.0270 0.432 -0.840 -0.329 104 67 54 0 0
3.1733 9.3084 -3.0309 0.379 -0.859 -0.343 109 69 58 0 0
3.2075 9.3507 -3.0389 -0.775 -0.406 -0.483 108 69 57 0 0
3.2182 9.3312 -3.0378 -0.735 -0.446 -0.511 99 59 47 0 0
2.5932 7.5859 -2.7854 0.195 -0.826 -0.529 101 61 45 0 0
2.6321 7.6078 -2.7916 0.574 -0.676 -0.461 203 175 146 0 0
2.6570 7.6325 -2.7967 0.574 -0.676 -0.461 207 179 147 0 0
2.5922 6.8292 -2.7024 -0.433 -0.614 0.660 226 205 175 0 0
2.7202 6.7633 -2.7076 -0.502 -0.493 0.710 223 202 171 0 0
2.7296 6.7521 -2.7073 -0.177 -0.599 0.781 223 204 174 0 0
2.8912 6.6658 -2.7137 -0.482 -0.603 0.635 226 205 176 0 0
2.9021 6.6583 -2.7139 -0.404 -0.713 0.573 226 205 176 0 0
2.9156 6.6561 -2.7150 -0.231 -0.802 0.550 224 203 173 0 0
2.9317 6.6595 -2.7169 -0.121 -0.671 0.731 225 203 172 0 0
3.0429 6.6183 -2.7233 -0.064 -0.771 0.633 226 205 176 0 0
3.0540 6.6111 -2.7236 -0.189 -0.603 0.775 225 206 176 0 0
3.0675 6.6088 -2.7247 -0.323 -0.691 0.646 228 208 181 0 0
3.0881 6.5913 -2.7248 -0.179 -0.577 0.797 228 208 181 0 0
3.1241 6.5753 -2.7265 -0.443 -0.470 0.764 225 205 177 0 0
3.6660 6.3340 -2.7531 -0.296 -0.468 0.833 227 207 180 0 0
3.8221 6.2619 -2.7604 -0.154 -0.749 0.644 227 207 181 0 0
3.9464 6.2126 -2.7672 -0.200 -0.737 0.645 225 206 176 0 0
4.0237 6.1165 -2.7642 -0.232 -0.827 0.511 228 208 181 0 0
4.1743 6.0598 -2.7727 -0.319 -0.562 0.763 228 208 180 0 0
4.2266 6.0436 -2.7761 -0.005 -0.821 0.571 227 210 182 0 0
4.2370 6.0358 -2.7762 -0.256 -0.669 0.698 228 209 182 0 0
4.2485 6.0295 -2.7767 -0.107 -0.685 0.720 228 208 179 0 0
4.2623 6.0264 -2.7777 -0.107 -0.685 0.720 226 207 179 0 0
4.3399 5.9785 -2.7800 -0.303 -0.865 0.400 223 202 174 0 0
4.3596 5.9615 -2.7801 -0.782 -0.624 -0.002 228 208 181 0 0
4.6830 5.7686 -2.7905 -0.202 -0.742 0.639 224 203 174 0 0
4.7113 5.7628 -2.7927 -0.180 -0.834 0.522 220 199 168 0 0
4.7421 5.7600 -2.7954 0.095 -0.994 0.058 207 185 153 0 0
4.9538 5.8735 -2.8285 0.000 -0.728 -0.685 219 219 212 0 0
4.9686 5.8708 -2.8297 -0.279 -0.569 -0.774 218 220 218 0 0
6.5988 7.7106 -3.1907 0.164 -0.509 0.845 218 218 218 0 0
6.9900 8.0105 -3.2618 -0.670 0.069 -0.739 218 218 218 0 0
7.2502 7.9906 -3.2851 -0.988 0.133 0.079 219 219 219 0 0
7.1560 7.7325 -3.2476 -0.627 -0.217 0.748 219 219 219 0 0
7.1059 7.0141 -3.1640 0.556 -0.736 -0.387 225 225 225 0 0
0.7687 10.7640 -2.9726 -0.462 -0.746 0.480 229 221 219 0 0
0.9661 10.8752 -3.0044 -0.984 -0.099 -0.149 223 218 215 0 0
1.0809 10.8542 -3.0134 -0.755 -0.305 -0.580 219 214 210 0 0
1.1073 10.9155 -3.0228 -0.943 -0.125 -0.308 217 214 209 0 0
1.1290 10.6236 -2.9925 -0.941 -0.237 -0.241 217 208 204 0 0
2.0324 8.5460 -2.8509 0.241 -0.944 -0.227 129 82 67 0 0
2.0492 8.5508 -2.8531 0.241 -0.944 -0.227 127 81 67 0 0
2.6747 8.9935 -2.9638 0.281 -0.951 -0.127 120 74 59 0 0
2.6944 9.0017 -2.9667 0.241 -0.967 -0.084 115 69 55 0 0
2.9213 9.1571 -3.0063 0.140 -0.813 -0.566 114 73 57 0 0
3.0811 9.2557 -3.0329 0.432 -0.859 -0.276 83 47 37 0 0
3.1027 9.2659 -3.0362 0.351 -0.863 -0.364 94 61 50 0 0
3.1331 9.2991 -3.0429 0.516 -0.812 -0.273 90 57 46 0 0
3.2104 9.3601 -3.0573 -0.822 -0.445 -0.356 104 66 55 0 0
3.2229 9.3454 -3.0569 -0.566 -0.549 -0.615 107 68 57 0 0
2.5807 7.5941 -2.7992 0.054 -0.850 -0.523 104 64 49 0 0
2.5967 7.5962 -2.8010 0.054 -0.850 -0.523 100 63 47 0 0
2.6288 6.7835 -2.7140 -0.336 -0.566 0.753 227 204 174 0 0
2.7036 6.7592 -2.7187 -0.575 -0.445 0.687 226 203 171 0 0
2.7148 6.7524 -2.7190 -0.502 -0.493 0.710 226 204 173 0 0
2.7233 6.7395 -2.7184 -0.177 -0.599 0.781 225 204 175 0 0
2.9091 6.6437 -2.7261 0.117 -0.898 0.425 229 208 179 0 0
2.9234 6.6434 -2.7275 -0.078 -0.717 0.693 227 206 175 0 0
2.9371 6.6417 -2.7286 -0.217 -0.744 0.632 223 203 172 0 0
2.9997 6.6208 -2.7325 -0.164 -0.656 0.737 227 207 180 0 0
3.0608 6.5965 -2.7358 -0.163 -0.745 0.646 226 206 179 0 0
3.0823 6.5810 -2.7362 -0.176 -0.629 0.757 231 211 185 0 0
3.0974 6.5818 -2.7378 -0.063 -0.670 0.740 227 207 181 0 0
3.4374 6.4382 -2.7553 -0.539 -0.617 0.573 227 208 178 0 0
3.9335 6.2178 -2.7797 -0.838 -0.506 0.203 226 207 176 0 0
3.9411 6.2054 -2.7791 -0.315 -0.807 0.499 223 204 173 0 0
3.9609 6.1879 -2.7791 -0.613 -0.554 0.563 225 204 174 0 0
3.9694 6.1770 -2.7787 -0.732 -0.460 0.503 225 204 173 0 0
4.1711 6.0561 -2.7852 -0.342 -0.686 0.642 228 208 181 0 0
4.2298 6.0264 -2.7876 -0.379 -0.611 0.695 229 209 182 0 0
4.3672 5.9508 -2.7928 -0.869 -0.397 0.295 222 202 175 0 0
4.3770 5.9422 -2.7928 -0.425 -0.759 0.492 224 204 176 0 0
4.3835 5.9294 -2.7920 -0.603 -0.711 0.363 226 206 179 0 0
4.3934 5.9210 -2.7921 -0.603 -0.711 0.363 225 205 180 0 0
4.4044 5.9142 -2.7924 -0.501 -0.817 0.285 226 206 180 0 0
4.4875 5.8743 -2.7961 -0.416 -0.572 0.706 225 205 178 0 0
4.6772 5.7622 -2.8024 -0.118 -0.835 0.538 225 204 175 0 0
4.9722 5.8963 -2.8463 0.190 -0.732 -0.654 219 218 214 0 0
4.9957 5.8834 -2.8472 -0.558 -0.439 -0.704 220 219 217 0 0
5.0037 5.8726 -2.8468 -0.558 -0.439 -0.704 220 219 217 0 0
6.9850 8.1126 -3.2906 -0.098 -0.228 0.969 219 219 218 0 0
7.2555 7.9197 -3.2958 -0.945 0.014 -0.326 219 221 220 0 0
7.2327 7.8176 -3.2822 -0.862 -0.158 -0.482 220 221 220 0 0
7.2472 7.8082 -3.2826 -0.885 -0.171 -0.433 218 220 217 0 0
7.5548 7.4223 -3.2701 0.494 -0.698 -0.519 226 226 226 0 0
0.7878 10.7898 -2.9947 -0.313 -0.891 0.328 226 221 218 0 0
0.9074 10.5828 -2.9833 -0.839 -0.539 -0.072 223 217 217 0 0
0.9719 10.8033 -3.0145 -0.995 -0.082 0.048 223 218 215 0 0
1.0359 10.6724 -3.0061 -0.202 -0.961 0.187 221 216 212 0 0
1.0515 10.6651 -3.0069 0.165 -0.920 0.356 219 214 210 0 0
1.0632 10.6329 -3.0044 -0.505 -0.759 0.411 218 213 210 0 0
1.1056 10.7989 -3.0273 -0.948 -0.177 -0.263 220 213 210 0 0
1.3725 9.7861 -2.9399 -0.893 -0.399 -0.207 167 116 100 0 0
2.0519 8.5622 -2.8697 0.169 -0.881 -0.441 129 81 68 0 0
2.0687 8.5665 -2.8719 0.169 -0.881 -0.441 115 71 55 0 0
2.5463 8.9129 -2.9582 0.441 -0.836 -0.326 108 64 51 0 0
2.5671 8.9252 -2.9617 0.441 -0.836 -0.326 103 59 46 0 0
2.6679 8.9754 -2.9773 0.270 -0.784 -0.559 120 72 55 0 0
2.6966 9.0099 -2.9840 0.058 -0.963 -0.264 112 65 50 0 0
2.9456 9.1778 -3.0276 0.131 -0.878 -0.460 106 63 49 0 0
3.0060 9.1985 -3.0359 0.366 -0.729 -0.579 106 65 52 0 0
3.0808 9.2567 -3.0499 0.475 -0.879 -0.050 102 63 53 0 0
3.1074 9.2801 -3.0551 0.488 -0.856 -0.170 106 66 56 0 0
3.2133 9.3695 -3.0757 -0.822 -0.445 -0.356 103 64 52 0 0
2.5862 7.6098 -2.8157 -0.080 -0.763 -0.642 101 63 50 0 0
2.6012 7.6094 -2.8172 -0.080 -0.763 -0.642 108 71 54 0 0
2.7196 6.7325 -2.7303 -0.108 -0.610 0.785 230 209 179 0 0
2.7632 6.7023 -2.7313 -0.044 -0.855 0.517 229 208 179 0 0
2.8322 6.6652 -2.7340 -0.094 -0.730 0.677 226 206 179 0 0
2.8579 6.6587 -2.7358 -0.133 -0.731 0.670 228 207 180 0 0
3.0359 6.6065 -2.7476 -0.198 -0.580 0.790 227 206 176 0 0
3.0767 6.5710 -2.7476 -0.519 -0.519 0.680 229 209 182 0 0
3.4650 6.4082 -2.7678 -0.076 -0.746 0.661 228 207 176 0 0
3.5238 6.3789 -2.7704 -0.260 -0.723 0.640 225 206 177 0 0
4.0640 6.0849 -2.7909 -0.017 -0.992 0.127 227 208 181 0 0
4.1117 6.0625 -2.7931 -0.081 -0.826 0.559 229 209 184 0 0
4.1262 6.0607 -2.7944 0.072 -0.836 0.544 231 211 186 0 0
4.1554 6.0571 -2.7969 0.042 -0.797 0.603 227 207 180 0 0
4.1650 6.0482 -2.7968 -0.342 -0.686 0.642 228 208 181 0 0
4.1934 6.0209 -2.7966 -0.659 -0.439 0.611 229 212 184 0 0
4.2088 6.0202 -2.7980 -0.171 -0.720 0.673 227 210 184 0 0
4.3770 5.9214 -2.8036 -0.119 -0.703 0.701 225 206 176 0 0
4.3971 5.9267 -2.8062 -0.178 -0.905 0.386 222 203 175 0 0
4.4127 5.9045 -2.8052 -0.344 -0.824 0.451 226 206 177 0 0
4.4192 5.8917 -2.8044 -0.197 -0.920 0.338 226 206 178 0 0
4.4418 5.8789 -2.8053 -0.267 -0.804 0.531 224 204 177 0 0
4.4536 5.8732 -2.8058 -0.358 -0.836 0.416 226 206 179 0 0
4.4883 5.8550 -2.8072 -0.356 -0.520 0.776 226 206 179 0 0
4.5799 5.8053 -2.8107 -0.156 -0.787 0.597 228 207 180 0 0
5.0058 5.8962 -2.8631 -0.558 -0.439 -0.704 220 220 218 0 0
7.2090 7.9987 -3.3180 -0.830 -0.271 0.488 219 219 219 0 0
0.6956 10.9838 -3.0249 -0.648 -0.114 -0.753 230 226 223 0 0
1.0154 10.6505 -3.0190 -0.382 -0.444 0.811 222 217 214 0 0
1.1332 10.6577 -3.0315 -0.829 -0.350 -0.435 221 213 210 0 0
2.0507 8.5600 -2.8845 0.359 -0.918 -0.165 125 77 63 0 0
2.5486 8.9216 -2.9754 0.464 -0.849 -0.252 103 61 47 0 0
2.5701 8.9362 -2.9792 0.434 -0.857 -0.278 112 69 55 0 0
2.6748 8.9974 -2.9966 0.177 -0.722 -0.669 123 76 60 0 0
2.8489 9.1044 -3.0262 0.101 -0.818 -0.566 107 65 51 0 0
2.9486 9.1877 -3.0457 0.131 -0.878 -0.460 114 70 57 0 0
2.9937 9.2150 -3.0533 0.295 -0.665 -0.686 109 66 54 0 0
3.0087 9.2077 -3.0539 0.169 -0.661 -0.731 92 51 39 0 0
2.5048 6.8609 -2.7366 -0.391 -0.918 0.066 220 197 164 0 0
2.7592 6.6946 -2.7431 -0.057 -0.891 0.450 228 207 178 0 0
2.7660 6.6784 -2.7419 -0.439 -0.748 0.498 226 205 176 0 0
3.1570 6.5281 -2.7639 -0.361 -0.615 0.701 228 209 179 0 0
3.1684 6.5218 -2.7643 -0.157 -0.627 0.763 228 208 178 0 0
3.1810 6.5177 -2.7651 -0.157 -0.627 0.763 225 204 175 0 0
3.2199 6.4794 -2.7646 -0.043 -0.589 0.807 227 206 179 0 0
3.6081 6.3168 -2.7849 -0.462 -0.499 0.733 224 206 178 0 0
4.0703 6.0721 -2.8032 -0.307 -0.565 0.766 229 211 184 0 0
4.1326 6.0254 -2.8041 -0.609 -0.668 0.427 225 205 178 0 0
4.3837 5.8882 -2.8136 -0.138 -0.744 0.654 226 206 179 0 0
4.4073 5.8981 -2.8171 -0.208 -0.854 0.478 225 205 178 0 0
4.4443 5.8830 -2.8191 -0.167 -0.984 0.063 228 208 181 0 0
5.0177 5.9111 -2.8796 -0.506 -0.535 -0.677 220 220 218 0 0
5.0512 5.9304 -2.8851 -0.114 -0.690 -0.715 220 220 219 0 0
6.7309 7.6371 -3.2471 0.416 -0.481 0.772 220 220 219 0 0
6.8841 7.6850 -3.2679 -0.958 0.282 -0.059 221 221 219 0 0
6.8796 7.6546 -3.2640 -0.953 0.220 -0.208 220 220 219 0 0
7.1198 7.7460 -3.2984 -0.570 -0.795 -0.209 222 222 222 0 0
7.1375 7.7402 -3.2995 -0.625 -0.759 0.181 221 221 220 0 0
7.1319 7.7089 -3.2953 -0.867 -0.477 0.143 221 221 219 0 0
7.1361 7.6884 -3.2934 -0.858 -0.414 0.303 221 221 219 0 0
0.7082 11.0955 -3.0566 -0.782 -0.059 -0.620 231 227 224 0 0
0.6549 10.5110 -2.9839 -0.619 -0.172 -0.766 232 228 225 0 0
0.7229 10.9405 -3.0402 -0.521 -0.457 -0.721 230 226 223 0 0
0.7476 11.0069 -3.0504 -0.812 -0.149 -0.564 230 226 223 0 0
0.7848 10.7760 -3.0275 -0.177 -0.888 0.424 227 223 219 0 0
0.8786 10.6189 -3.0189 -0.533 -0.670 0.516 224 220 219 0 0
0.8933 10.6070 -3.0190 -0.321 -0.607 0.727 224 220 219 0 0
2.5494 8.9259 -2.9920 0.357 -0.878 -0.318 116 74 60 0 0
2.8543 9.1212 -3.0452 0.124 -0.860 -0.496 100 57 44 0 0
2.9765 9.2180 -3.0686 0.203 -0.802 -0.562 100 56 44 0 0
2.9966 9.2246 -3.0714 0.195 -0.852 -0.486 99 56 44 0 0
3.0171 9.2323 -3.0743 0.203 -0.802 -0.562 108 68 57 0 0
3.0374 9.2395 -3.0772 0.203 -0.802 -0.562 96 56 45 0 0
3.0629 9.2602 -3.0822 0.293 -0.732 -0.615 102 62 50 0 0
3.1164 9.3077 -3.0930 0.396 -0.833 -0.386 109 71 59 0 0
3.1392 9.3205 -3.0968 0.350 -0.836 -0.423 98 59 48 0 0
3.2760 9.4412 -3.1244 0.236 -0.960 -0.153 108 68 58 0 0
2.5039 6.8599 -2.7494 -0.560 -0.825 -0.073 219 197 164 0 0
2.5225 6.8032 -2.7448 -0.649 -0.424 0.631 211 188 154 0 0
2.7643 6.6759 -2.7545 -0.572 -0.657 0.491 225 202 174 0 0
3.2457 6.4458 -2.7764 -0.194 -0.754 0.628 226 206 177 0 0
3.8730 6.1514 -2.8056 -0.790 -0.449 0.417 226 206 176 0 0
4.0236 6.0734 -2.8118 -0.016 -0.763 0.647 228 208 181 0 0
4.0520 6.0691 -2.8141 -0.169 -0.714 0.679 230 210 183 0 0
4.0870 6.0513 -2.8156 -0.413 -0.727 0.548 228 208 183 0 0
4.1169 6.0264 -2.8158 -0.336 -0.601 0.725 228 209 183 0 0
4.1286 6.0205 -2.8163 -0.317 -0.619 0.719 225 206 179 0 0
4.1399 6.0141 -2.8167 -0.357 -0.575 0.736 227 208 181 0 0
4.1564 6.0152 -2.8184 -0.648 -0.684 0.336 226 207 180 0 0
4.3491 5.8856 -2.8229 -0.546 -0.556 0.627 229 209 184 0 0
4.3910 5.8772 -2.8261 -0.106 -0.730 0.676 228 208 183 0 0
4.4381 5.8756 -2.8307 -0.490 -0.850 0.194 230 211 183 0 0
4.4436 5.8405 -2.8272 -0.076 -0.677 0.732 225 205 178 0 0
4.4755 5.8189 -2.8279 -0.378 -0.628 0.680 226 206 179 0 0
4.4863 5.8120 -2.8282 -0.378 -0.628 0.680 225 205 178 0 0
4.9464 5.9500 -2.8904 0.664 -0.707 -0.246 202 187 165 0 0
7.1319 7.6848 -3.3101 -0.858 -0.414 0.303 221 221 220 0 0
0.7808 10.8789 -3.0564 -0.806 -0.189 -0.561 228 224 221 0 0
0.8242 10.7055 -3.0406 -0.608 -0.757 0.240 227 223 221 0 0
1.0797 10.4333 -3.0348 -0.687 -0.645 0.336 221 213 210 0 0
2.2969 8.7528 -2.9622 0.231 -0.751 -0.618 125 78 63 0 0
2.9799 9.2292 -3.0870 0.260 -0.914 -0.311 101 57 45 0 0
3.0000 9.2359 -3.0898 0.260 -0.914 -0.311 106 63 51 0 0
3.0202 9.2426 -3.0926 0.260 -0.914 -0.311 111 69 59 0 0
3.0381 9.2431 -3.0945 0.510 -0.860 -0.003 103 63 52 0 0
3.1431 9.3328 -3.1156 0.191 -0.706 -0.683 105 67 54 0 0
3.2891 9.3354 -3.1307 -0.489 -0.146 -0.860 145 117 97 0 0
2.5057 6.8656 -2.7634 -0.717 -0.683 0.140 216 195 163 0 0
2.7624 6.6418 -2.7633 -0.225 -0.588 0.777 225 201 172 0 0
2.7739 6.6358 -2.7638 -0.391 -0.548 0.740 226 202 173 0 0
2.7855 6.6300 -2.7643 -0.385 -0.594 0.707 225 204 175 0 0
3.1383 6.4944 -2.7842 -0.160 -0.733 0.661 226 207 177 0 0
3.1513 6.4912 -2.7852 -0.163 -0.708 0.687 224 205 175 0 0
3.1641 6.4876 -2.7860 -0.035 -0.804 0.594 225 204 173 0 0
3.1754 6.4810 -2.7864 -0.151 -0.710 0.688 225 203 173 0 0
3.2912 6.4216 -2.7912 -0.139 -0.840 0.525 227 206 176 0 0
3.2987 6.4081 -2.7904 0.157 -0.888 0.433 228 207 178 0 0
3.4577 6.3459 -2.7993 -0.738 -0.478 0.476 228 209 179 0 0
3.4943 6.3311 -2.8013 -0.108 -0.691 0.715 228 209 180 0 0
3.7208 6.2033 -2.8093 -0.093 -0.852 0.515 230 210 183 0 0
4.0543 6.0504 -2.8253 -0.288 -0.644 0.709 228 208 181 0 0
4.0782 6.0394 -2.8264 -0.422 -0.639 0.644 226 208 182 0 0
4.1130 6.0216 -2.8279 -0.279 -0.729 0.625 227 210 184 0 0
4.1430 6.0194 -2.8307 -0.664 -0.695 0.276 227 210 182 0 0
4.1540 6.0125 -2.8310 -0.637 -0.641 0.427 225 208 180 0 0
4.3228 5.8940 -2.8343 -0.305 -0.720 0.623 227 207 180 0 0
4.3466 5.8830 -2.8354 -0.441 -0.706 0.554 230 210 185 0 0
4.3967 5.8644 -2.8383 -0.166 -0.755 0.635 229 210 183 0 0
4.4703 5.8129 -2.8398 -0.363 -0.623 0.693 225 205 178 0 0
4.4795 5.8040 -2.8397 -0.472 -0.583 0.662 228 208 181 0 0
4.6615 5.7256 -2.8490 0.051 -0.940 0.336 206 184 148 0 0
0.7589 11.2488 -3.1153 -0.919 -0.008 -0.393 230 226 223 0 0
0.7515 10.9139 -3.0750 -0.967 -0.033 -0.251 230 226 224 0 0
0.7810 10.8853 -3.0747 -0.945 -0.319 0.071 229 225 223 0 0
0.8056 10.8194 -3.0694 -0.807 -0.480 0.344 227 224 221 0 0
0.8171 10.7811 -3.0661 -0.616 -0.647 0.449 227 223 221 0 0
0.9280 10.5152 -3.0460 -0.479 -0.422 0.770 225 220 217 0 0
0.9642 10.5398 -3.0526 -0.579 -0.776 0.251 223 218 215 0 0
0.9790 10.5287 -3.0528 -0.579 -0.776 0.251 224 219 216 0 0
1.1141 10.4468 -3.0569 -0.682 -0.621 0.387 220 215 212 0 0
1.7476 8.6318 -2.9075 -0.727 -0.516 -0.454 173 121 107 0 0
2.3203 8.7781 -2.9832 0.351 -0.809 -0.472 140 92 77 0 0
2.9826 9.2384 -3.1051 0.125 -0.927 -0.353 114 71 57 0 0
3.0011 9.2405 -3.1072 0.138 -0.936 -0.324 115 73 60 0 0
3.0206 9.2454 -3.1097 0.175 -0.931 -0.321 115 73 61 0 0
3.3009 9.4142 -3.1583 -0.544 -0.431 -0.720 125 103 91 0 0
3.2968 9.3569 -3.1511 -0.270 -0.358 -0.894 178 162 146 0 0
2.5046 6.8642 -2.7762 -0.682 -0.731 -0.009 214 194 164 0 0
2.5659 6.7422 -2.7681 -0.387 -0.900 0.201 212 189 152 0 0
2.5752 6.7312 -2.7677 -0.559 -0.657 0.505 216 194 158 0 0
2.7821 6.6238 -2.7762 -0.397 -0.503 0.768 227 204 173 0 0
3.0681 6.5010 -2.7909 -0.549 -0.444 0.708 228 208 182 0 0
3.2558 6.4119 -2.7995 -0.119 -0.873 0.474 227 203 175 0 0
3.2717 6.4140 -2.8014 -0.270 -0.713 0.648 228 205 175 0 0
3.2828 6.4071 -2.8017 -0.119 -0.873 0.474 227 206 175 0 0
3.2942 6.4009 -2.8021 0.040 -0.916 0.399 226 205 174 0 0
3.6153 6.2808 -2.8207 -0.603 -0.617 0.506 227 208 178 0 0
3.6242 6.2704 -2.8204 -0.589 -0.621 0.518 224 205 175 0 0
3.6317 6.2577 -2.8197 -0.548 -0.649 0.529 225 206 178 0 0
3.6457 6.2558 -2.8209 -0.431 -0.739 0.519 226 206 179 0 0
3.9976 6.0599 -2.8337 0.150 -0.840 0.521 226 206 179 0 0
4.2101 5.9365 -2.8408 -0.481 -0.618 0.622 227 207 180 0 0
4.2208 5.9294 -2.8411 -0.406 -0.691 0.598 227 207 180 0 0
4.3109 5.9004 -2.8468 -0.255 -0.756 0.603 228 211 185 0 0
4.3180 5.8884 -2.8462 -0.443 -0.729 0.522 226 209 182 0 0
4.3289 5.8816 -2.8465 -0.443 -0.729 0.522 228 208 181 0 0
4.4434 5.7998 -2.8485 -0.567 -0.526 0.634 226 206 179 0 0
5.0300 5.9280 -2.9235 -0.345 -0.921 -0.178 221 221 219 0 0
0.7546 10.9446 -3.0965 -0.934 -0.017 -0.357 230 226 224 0 0
0.7920 10.8470 -3.0887 -0.892 -0.330 -0.309 229 225 224 0 0
0.8880 10.5822 -3.0670 -0.753 -0.598 -0.275 226 223 219 0 0
0.9012 10.5604 -3.0657 -0.799 -0.554 0.234 224 222 219 0 0
0.9118 10.5199 -3.0620 -0.369 -0.727 0.578 225 221 219 0 0
0.9506 10.5629 -3.0711 -0.477 -0.724 0.499 226 219 216 0 0
0.9783 10.5282 -3.0698 -0.495 -0.867 -0.054 224 219 216 0 0
1.0302 10.5459 -3.0772 -0.439 -0.540 0.718 222 217 214 0 0
1.4132 9.8457 -3.0330 -0.797 -0.418 -0.436 177 128 113 0 0
2.8411 9.1384 -3.0953 0.334 -0.838 -0.432 113 72 57 0 0
2.9842 9.2447 -3.1227 0.238 -0.948 -0.210 119 74 59 0 0
3.0029 9.2473 -3.1250 0.203 -0.931 -0.303 113 70 56 0 0
3.0219 9.2508 -3.1273 0.182 -0.894 -0.410 104 63 51 0 0
3.2966 9.4523 -3.1796 -0.689 -0.721 -0.074 140 123 116 0 0
3.2920 9.3933 -3.1721 -0.570 -0.461 -0.680 179 169 159 0 0
3.3128 9.3995 -3.1750 -0.380 -0.459 -0.803 189 177 164 0 0
2.5074 6.8722 -2.7906 -0.815 -0.565 -0.128 212 192 163 0 0
2.5407 6.7502 -2.7794 -0.597 -0.752 0.279 218 193 157 0 0
2.5625 6.7356 -2.7799 -0.704 -0.685 0.187 215 191 155 0 0
2.5699 6.7200 -2.7788 -0.751 -0.586 0.305 216 192 156 0 0
2.5818 6.7152 -2.7795 -0.665 -0.499 0.556 220 197 163 0 0
2.7760 6.6119 -2.7871 -0.505 -0.532 0.680 227 206 175 0 0
2.8825 6.5652 -2.7925 -0.442 -0.791 0.424 228 208 179 0 0
2.9922 6.5242 -2.7988 -0.518 -0.509 0.687 226 206 178 0 0
3.0748 6.4867 -2.8028 -0.112 -0.736 0.668 226 207 178 0 0
3.6553 6.2226 -2.8310 -0.521 -0.489 0.700 228 207 182 0 0
3.6817 6.2160 -2.8329 -0.430 -0.598 0.677 228 208 182 0 0
4.0331 6.0211 -2.8457 -0.074 -0.776 0.627 227 206 179 0 0
4.3977 5.8248 -2.8598 -0.780 -0.463 0.420 228 208 181 0 0
4.4063 5.8151 -2.8595 -0.643 -0.553 0.530 229 210 183 0 0
4.4147 5.8051 -2.8592 -0.041 -0.774 0.632 226 208 181 0 0
4.4274 5.8006 -2.8599 0.038 -0.884 0.467 225 206 180 0 0
4.4405 5.7967 -2.8608 -0.128 -0.845 0.518 226 206 179 0 0
0.8713 10.5844 -3.0826 -0.070 -0.984 -0.163 226 223 218 0 0
0.9443 10.5238 -3.0829 -0.876 -0.442 -0.193 227 220 217 0 0
0.9578 10.5043 -3.0819 -0.655 -0.605 -0.453 226 220 216 0 0
1.0297 10.3339 -3.0688 -0.925 -0.277 0.261 223 217 216 0 0
1.4170 9.8679 -3.0526 -0.817 -0.405 -0.412 170 121 106 0 0
1.5008 9.5715 -3.0255 -0.931 -0.343 -0.121 181 133 116 0 0
1.6468 8.9678 -2.9677 -0.496 -0.703 -0.509 156 107 91 0 0
2.3262 8.8009 -3.0178 0.344 -0.828 -0.443 129 80 65 0 0
2.9663 9.2456 -3.1377 0.024 -1.000 -0.009 108 64 50 0 0
2.9859 9.2512 -3.1404 0.126 -0.981 -0.147 104 60 46 0 0
3.0049 9.2546 -3.1428 0.263 -0.936 -0.232 110 67 53 0 0
3.2357 9.4387 -3.1889 0.461 -0.729 -0.505 111 75 66 0 0
3.2624 9.4607 -3.1943 0.488 -0.775 -0.402 116 90 84 0 0
3.2697 9.3846 -3.1859 -0.447 -0.183 0.876 185 177 170 0 0
3.2812 9.3671 -3.1850 -0.573 -0.114 0.811 189 181 173 0 0
2.5974 6.6876 -2.7907 -0.529 -0.535 0.658 217 196 163 0 0
3.1248 6.4434 -2.8158 -0.882 -0.462 -0.090 226 206 180 0 0
3.2726 6.3906 -2.8247 -0.080 -0.831 0.551 224 202 171 0 0
3.7037 6.1786 -2.8437 -0.330 -0.719 0.612 226 206 176 0 0
3.9915 6.0295 -2.8555 -0.274 -0.572 0.773 225 207 179 0 0
4.1077 5.9715 -2.8605 -0.407 -0.566 0.717 226 206 178 0 0
4.4075 5.7963 -2.8703 -0.041 -0.774 0.632 226 210 184 0 0
0.8182 10.8042 -3.1211 -0.812 -0.357 -0.462 229 225 222 0 0
0.9037 10.5868 -3.1034 -0.864 -0.489 0.119 227 223 220 0 0
0.9175 10.5686 -3.1026 -0.891 -0.442 -0.104 227 223 221 0 0
0.9345 10.5735 -3.1050 -0.796 -0.338 -0.503 226 221 220 0 0
1.0326 10.3565 -3.0887 -0.915 -0.392 0.099 224 218 215 0 0
1.6360 8.9894 -2.9846 -0.666 -0.608 -0.432 160 111 96 0 0
1.6488 8.9787 -2.9846 -0.496 -0.703 -0.509 159 110 93 0 0
1.7089 8.8467 -2.9748 -0.862 -0.412 -0.294 188 141 126 0 0
1.8484 8.5611 -2.9544 -0.393 -0.839 -0.375 135 87 72 0 0
1.8620 8.5554 -2.9551 -0.483 -0.805 -0.345 143 95 80 0 0
1.8751 8.5477 -2.9556 -0.483 -0.805 -0.345 142 94 80 0 0
2.9897 9.2633 -3.1591 0.296 -0.852 -0.431 107 64 50 0 0
3.2400 9.4518 -3.2082 0.450 -0.752 -0.481 121 94 89 0 0
2.5463 6.7330 -2.8038 -0.669 -0.743 -0.013 216 193 158 0 0
2.5586 6.7288 -2.8046 -0.399 -0.894 0.204 217 193 157 0 0
2.5709 6.6922 -2.8014 -0.411 -0.652 0.637 211 187 151 0 0
2.6022 6.6675 -2.8017 -0.369 -0.671 0.644 217 195 162 0 0
2.6208 6.6460 -2.8010 -0.588 -0.738 0.331 220 199 169 0 0
2.6421 6.6308 -2.8013 -0.538 -0.583 0.609 220 200 169 0 0
3.1278 6.4502 -2.8299 -0.830 -0.508 0.231 224 204 177 0 0
3.1438 6.4251 -2.8285 -0.615 -0.744 0.261 225 206 176 0 0
3.1529 6.4148 -2.8282 -0.558 -0.778 0.290 225 206 176 0 0
3.1650 6.4100 -2.8288 -0.407 -0.886 0.222 225 204 174 0 0
3.1736 6.3986 -2.8283 -0.520 -0.753 0.403 227 206 175 0 0
3.1842 6.3912 -2.8285 -0.520 -0.753 0.403 226 206 175 0 0
3.8878 6.0606 -2.8615 -0.159 -0.734 0.660 228 207 179 0 0
3.9843 6.0198 -2.8665 -0.070 -0.667 0.742 227 207 180 0 0
4.2858 5.8473 -2.8769 -0.213 -0.603 0.769 229 209 182 0 0
4.5357 5.7138 -2.8866 -0.234 -0.722 0.651 212 188 151 0 0
5.2753 6.2653 -3.0310 0.271 -0.843 -0.465 222 222 220 0 0
5.3027 6.2764 -3.0352 0.271 -0.843 -0.465 222 222 220 0 0
0.7644 10.6460 -3.1133 -0.659 -0.334 0.674 231 226 224 0 0
0.8440 10.6319 -3.1199 -0.511 -0.433 0.742 228 224 221 0 0
1.2303 10.4643 -3.1397 -0.882 -0.418 -0.218 220 214 211 0 0
1.6504 8.9876 -3.0013 -0.558 -0.808 -0.190 145 96 80 0 0
1.7459 8.7530 -2.9824 -0.581 -0.587 -0.563 182 134 119 0 0
1.8521 8.5769 -2.9718 -0.596 -0.784 -0.172 142 94 80 0 0
2.2501 8.7668 -3.0369 0.309 -0.783 -0.541 131 84 68 0 0
2.2852 8.7765 -3.0418 0.096 -0.912 -0.399 121 74 59 0 0
2.9930 9.2741 -3.1775 0.247 -0.812 -0.529 110 70 56 0 0
3.0741 9.3494 -3.1953 0.570 -0.752 -0.331 108 70 58 0 0
3.1263 9.3933 -3.2062 0.432 -0.804 -0.409 106 71 61 0 0
3.1964 9.4349 -3.2187 0.384 -0.875 -0.295 107 84 79 0 0
2.6175 6.6398 -2.8127 -0.453 -0.735 0.505 222 199 166 0 0
2.6257 6.6267 -2.8120 -0.538 -0.638 0.551 226 204 171 0 0
2.6495 6.6171 -2.8133 -0.211 -0.895 0.393 225 204 173 0 0
2.6737 6.6082 -2.8147 -0.535 -0.639 0.553 223 202 171 0 0
2.7302 6.5775 -2.8169 -0.149 -0.764 0.627 227 206 175 0 0
2.7428 6.5743 -2.8178 -0.149 -0.764 0.627 225 206 175 0 0
2.7561 6.5724 -2.8190 -0.032 -0.845 0.534 221 203 170 0 0
2.7936 6.5616 -2.8215 -0.246 -0.681 0.690 228 209 182 0 0
2.9330 6.4954 -2.8280 -0.366 -0.563 0.741 229 208 179 0 0
3.4715 6.2710 -2.8567 -0.260 -0.728 0.635 225 204 175 0 0
3.8044 6.0747 -2.8674 -0.113 -0.816 0.567 224 203 174 0 0
3.8180 6.0721 -2.8685 -0.113 -0.816 0.567 224 204 175 0 0
3.8322 6.0704 -2.8698 -0.305 -0.644 0.702 227 207 178 0 0
3.8815 6.0519 -2.8727 -0.159 -0.734 0.660 228 207 178 0 0
3.9536 6.0211 -2.8764 0.126 -0.919 0.373 223 203 176 0 0
3.9682 6.0198 -2.8778 0.025 -0.899 0.438 223 203 176 0 0
4.2153 5.8598 -2.8840 -0.473 -0.641 0.605 225 205 178 0 0
4.3062 5.8328 -2.8902 -0.373 -0.582 0.722 230 210 183 0 0
4.4287 5.7422 -2.8918 -0.427 -0.639 0.640 226 207 177 0 0
4.5162 5.7102 -2.8970 -0.328 -0.682 0.654 215 192 157 0 0
4.5288 5.7058 -2.8978 -0.171 -0.789 0.590 211 187 149 0 0
5.2850 6.2776 -3.0478 0.271 -0.843 -0.465 222 222 220 0 0
0.9169 10.4589 -3.1231 -0.831 -0.343 0.438 228 222 222 0 0
0.9667 10.4666 -3.1294 -0.670 -0.491 0.557 227 222 219 0 0
1.0276 10.3323 -3.1190 -0.607 -0.618 0.500 222 218 214 0 0
1.0434 10.3295 -3.1203 -0.842 -0.522 0.137 223 218 215 0 0
1.1066 10.6274 -3.1642 -0.865 -0.086 -0.494 223 218 215 0 0
1.2852 10.4006 -3.1547 -0.973 -0.225 -0.050 219 213 210 0 0
1.5355 9.5188 -3.0710 -0.614 -0.729 -0.301 166 118 103 0 0
1.7499 8.7709 -3.0002 -0.622 -0.601 -0.502 175 128 111 0 0
2.2523 8.7761 -3.0539 -0.042 -0.705 -0.708 127 80 63 0 0
2.2715 8.7862 -3.0572 0.275 -0.904 -0.327 125 78 61 0 0
2.2885 8.7893 -3.0594 0.198 -0.930 -0.310 126 79 63 0 0
2.8606 9.2009 -3.1712 0.229 -0.923 -0.309 109 67 55 0 0
3.1037 9.3828 -3.2196 0.575 -0.740 -0.350 107 70 60 0 0
3.1385 9.4277 -3.2289 0.054 -0.962 0.269 106 74 66 0 0
3.1562 9.4267 -3.2306 0.270 -0.945 0.182 116 94 88 0 0
2.6143 6.6337 -2.8245 -0.453 -0.735 0.505 218 195 159 0 0
2.6343 6.6156 -2.8244 -0.358 -0.717 0.598 226 203 170 0 0
2.6450 6.6080 -2.8245 -0.386 -0.702 0.598 225 204 172 0 0
2.6582 6.6062 -2.8257 -0.316 -0.727 0.609 223 202 171 0 0
2.6676 6.5960 -2.8254 -0.422 -0.790 0.445 219 198 168 0 0
2.6796 6.5913 -2.8261 -0.428 -0.686 0.588 223 202 171 0 0
2.6915 6.5866 -2.8268 -0.491 -0.604 0.628 223 202 171 0 0
2.7502 6.5609 -2.8298 -0.133 -0.695 0.707 222 204 173 0 0
2.7888 6.5525 -2.8328 0.054 -0.723 0.688 224 205 177 0 0
3.4528 6.2655 -2.8671 -0.099 -0.728 0.679 224 206 177 0 0
3.4673 6.2648 -2.8685 -0.053 -0.660 0.749 224 205 175 0 0
3.5071 6.2307 -2.8684 -0.373 -0.612 0.698 228 209 179 0 0
3.7979 6.0655 -2.8785 -0.081 -0.814 0.575 227 207 179 0 0
3.9467 6.0116 -2.8875 0.124 -0.841 0.527 227 207 180 0 0
4.0363 5.9388 -2.8878 -0.454 -0.891 0.015 227 210 183 0 0
4.0397 5.9213 -2.8860 -0.166 -0.967 0.193 227 210 183 0 0
4.5097 5.7029 -2.9084 -0.223 -0.749 0.624 209 185 151 0 0
5.2886 6.2828 -3.0630 0.252 -0.848 -0.466 223 223 221 0 0
0.8013 10.5651 -3.1412 -0.786 -0.468 0.405 230 227 224 0 0
0.8184 10.5719 -3.1439 0.016 -0.890 0.456 230 226 224 0 0
0.9640 10.4526 -3.1443 -0.643 -0.452 0.618 226 222 221 0 0
0.9735 10.4073 -3.1396 -0.046 -0.686 0.726 225 221 219 0 0
1.0428 10.3298 -3.1372 -0.795 -0.602 -0.073 223 218 215 0 0
1.1138 10.6771 -3.1886 -0.716 -0.138 -0.685 223 217 214 0 0
1.1194 10.6070 -3.1804 -0.716 -0.138 -0.685 224 217 215 0 0
1.2646 10.4767 -3.1793 -0.787 -0.426 -0.446 219 215 211 0 0
1.2754 10.4429 -3.1762 -0.948 -0.275 -0.158 219 214 211 0 0
1.9194 8.6041 -3.0124 -0.108 -0.934 -0.341 143 95 81 0 0
2.2549 8.7864 -3.0711 0.062 -0.957 -0.284 126 79 62 0 0
2.2722 8.7906 -3.0735 0.186 -0.952 -0.243 140 93 76 0 0
2.2896 8.7946 -3.0758 0.186 -0.952 -0.243 137 91 73 0 0
2.8558 9.1892 -3.1858 0.333 -0.904 -0.269 118 75 61 0 0
3.0193 9.3013 -3.2174 0.577 -0.778 -0.248 114 74 64 0 0
3.0417 9.3138 -3.2213 0.528 -0.764 -0.371 117 75 64 0 0
3.0804 9.3703 -3.2326 0.514 -0.769 -0.379 102 63 52 0 0
3.1263 9.4456 -3.2470 0.371 -0.882 0.291 104 70 62 0 0
3.1368 9.4251 -3.2455 0.009 -0.893 0.451 121 97 90 0 0
2.6050 6.6456 -2.8379 -0.790 -0.557 0.256 216 192 157 0 0
2.6302 6.6075 -2.8357 -0.422 -0.690 0.588 225 202 168 0 0
2.6757 6.5839 -2.8376 -0.428 -0.686 0.588 221 200 169 0 0
2.6863 6.5764 -2.8378 -0.416 -0.552 0.723 223 202 171 0 0
2.7563 6.5447 -2.8412 -0.276 -0.584 0.763 226 205 176 0 0
2.7703 6.5443 -2.8427 -0.136 -0.690 0.711 222 202 173 0 0
3.2896 6.3182 -2.8693 -0.093 -0.759 0.645 228 208 179 0 0
3.3104 6.3027 -2.8696 -0.471 -0.531 0.704 225 206 176 0 0
3.4597 6.2527 -2.8791 -0.278 -0.659 0.699 224 206 177 0 0
3.4768 6.2309 -2.8782 -0.040 -0.716 0.697 227 207 177 0 0
3.4994 6.2185 -2.8790 -0.388 -0.664 0.639 230 210 179 0 0
3.5372 6.2066 -2.8815 -0.227 -0.617 0.753 228 209 179 0 0
