ply
format ascii 1.0
element vertex 808
property float x
property float y
property float z
property float nx
property float ny
property float nz
property uchar diffuse_red
property uchar diffuse_green
property uchar diffuse_blue
property uchar class
property uchar detection
end_header
1.3759 9.9561 -3.0359 -0.951 -0.157 -0.267 160 113 97 0 0
1.3808 9.9425 -3.0418 -0.844 -0.391 -0.366 162 115 99 0 0
1.4531 9.8508 -3.1057 -0.875 -0.241 -0.421 174 123 107 0 0
1.4596 9.8388 -3.1121 -0.875 -0.241 -0.421 160 111 95 0 0
1.6299 9.5486 -3.2781 -0.822 -0.568 -0.039 176 134 120 0 0
1.6833 9.4910 -3.3231 -0.799 -0.446 -0.403 177 139 129 0 0
1.6914 9.4806 -3.3303 -0.832 -0.410 -0.373 182 144 133 0 0
1.6997 9.4704 -3.3375 -0.832 -0.410 -0.373 186 147 137 0 0
1.6805 9.4145 -3.3374 -0.972 -0.035 -0.232 190 149 138 0 0
1.6947 9.3734 -3.3548 -0.965 -0.136 -0.225 184 141 127 0 0
1.8457 9.2082 -3.4826 -0.897 -0.258 -0.360 161 119 102 0 0
1.9014 9.1150 -3.5365 -0.834 -0.369 -0.411 172 130 115 0 0
2.2240 9.0948 -3.7395 0.087 -0.955 -0.284 210 207 202 0 0
2.2250 8.8961 -3.7819 -0.673 -0.719 -0.172 225 224 220 0 0
2.2364 8.8878 -3.7906 -0.763 -0.627 -0.157 226 225 221 0 0
2.2465 8.8784 -3.7988 -0.754 -0.655 0.049 226 225 221 0 0
2.1630 8.7903 -3.7659 -0.540 -0.820 0.191 227 226 222 0 0
3.0859 7.4279 -4.6209 -0.725 0.105 0.681 224 223 219 0 0
0.6698 11.2738 -2.3414 -0.955 0.293 -0.044 193 148 141 0 0
0.6765 11.2624 -2.3479 -0.965 0.238 -0.109 179 133 118 0 0
0.6885 11.0483 -2.4001 -0.865 -0.381 -0.328 178 122 104 0 0
0.7009 11.0453 -2.4084 -0.804 -0.409 -0.431 176 120 101 0 0
0.7092 11.0364 -2.4154 -0.804 -0.409 -0.431 154 98 81 0 0
0.7385 10.9948 -2.4422 -0.965 -0.112 -0.236 169 117 96 0 0
0.8042 10.8801 -2.5068 -0.866 -0.374 -0.331 151 99 79 0 0
0.8124 10.8709 -2.5138 -0.972 -0.007 -0.234 152 101 82 0 0
0.8163 10.8558 -2.5194 -0.835 -0.323 -0.445 162 115 98 0 0
0.8229 10.8444 -2.5259 -0.857 -0.359 -0.370 181 136 120 0 0
0.8879 10.7893 -2.5775 -0.935 -0.161 -0.317 178 125 107 0 0
0.9561 10.6364 -2.6517 -0.895 -0.388 -0.221 178 130 114 0 0
0.9627 10.6249 -2.6582 -0.895 -0.388 -0.221 182 132 117 0 0
0.9705 10.6149 -2.6651 -0.920 -0.218 -0.327 159 110 95 0 0
0.9906 10.5807 -2.6847 -0.839 -0.327 -0.434 167 120 104 0 0
1.1867 10.3090 -2.8627 -0.940 -0.207 -0.272 166 117 101 0 0
1.1950 10.2993 -2.8698 -0.951 -0.250 -0.182 172 123 105 0 0
1.2069 10.2940 -2.8783 -0.824 -0.449 -0.345 167 117 100 0 0
1.3608 10.0068 -3.0335 -0.893 -0.289 -0.345 171 121 107 0 0
1.3672 9.9948 -3.0400 -0.893 -0.289 -0.345 164 115 100 0 0
1.3742 9.9835 -3.0467 -0.939 -0.124 -0.321 173 125 110 0 0
1.3783 9.9690 -3.0523 -0.951 -0.157 -0.267 164 117 101 0 0
1.3823 9.9542 -3.0578 -0.844 -0.391 -0.366 174 127 111 0 0
1.4418 9.8865 -3.1087 -0.939 -0.162 -0.302 167 120 104 0 0
1.5371 9.7616 -3.1938 -0.924 -0.293 -0.244 156 112 100 0 0
1.6205 9.5858 -3.2821 -0.837 -0.424 -0.344 176 134 123 0 0
1.6284 9.5753 -3.2892 -0.857 -0.459 -0.236 180 138 126 0 0
1.6734 9.5279 -3.3269 -0.981 -0.142 -0.132 174 133 121 0 0
1.6976 9.4779 -3.3523 -0.973 -0.220 -0.074 190 152 141 0 0
1.6971 9.3852 -3.3714 -0.896 -0.214 -0.388 184 142 130 0 0
1.7007 9.3704 -3.3767 -0.901 -0.191 -0.390 183 139 127 0 0
1.8485 9.2201 -3.4995 -0.962 -0.237 -0.138 160 121 105 0 0
1.8901 9.1682 -3.5361 -0.879 -0.350 -0.324 179 135 122 0 0
1.9151 9.1187 -3.5619 -0.887 -0.365 -0.283 178 137 123 0 0
2.2185 8.9537 -3.7839 -0.652 -0.753 0.089 226 224 220 0 0
2.2315 8.9467 -3.7933 -0.738 -0.536 0.410 226 225 221 0 0
2.2162 8.9157 -3.7904 -0.680 -0.630 -0.375 225 223 220 0 0
2.2441 8.9034 -3.8102 -0.665 -0.597 -0.448 226 224 221 0 0
2.2422 8.8838 -3.8131 -0.940 -0.336 0.054 227 225 221 0 0
2.1450 8.7840 -3.7740 -0.321 -0.852 0.413 228 226 222 0 0
2.2763 8.8405 -3.8432 -0.258 -0.719 -0.646 228 227 223 0 0
2.3051 8.8466 -3.8598 -0.484 -0.629 -0.608 228 227 223 0 0
2.9592 7.3456 -4.5781 -0.685 0.688 0.239 225 224 219 0 0
2.8897 7.2892 -4.5470 -0.625 0.629 0.462 226 224 219 0 0
3.1581 7.1830 -4.7351 -0.761 -0.629 0.158 224 223 219 0 0
3.1407 7.1573 -4.7297 -0.238 -0.953 0.186 224 223 219 0 0
3.0841 7.0310 -4.7212 -0.401 -0.829 -0.391 223 224 219 0 0
0.6747 11.2929 -2.3579 -0.980 0.151 -0.130 197 161 154 0 0
0.6842 11.2856 -2.3653 -0.965 0.238 -0.109 194 149 135 0 0
0.6507 11.1098 -2.3812 -0.986 -0.093 -0.140 177 123 102 0 0
0.7038 11.0609 -2.4243 -0.887 -0.459 0.045 182 127 107 0 0
0.7130 11.0533 -2.4316 -0.761 -0.485 -0.431 174 118 103 0 0
0.7353 11.0226 -2.4518 -0.856 -0.417 -0.305 160 109 91 0 0
0.7900 10.9130 -2.5085 -0.890 -0.308 -0.336 189 135 114 0 0
0.8024 10.9096 -2.5169 -0.816 -0.463 -0.346 180 126 106 0 0
0.8085 10.8973 -2.5232 -0.902 -0.214 -0.376 169 117 97 0 0
0.8190 10.8707 -2.5353 -0.835 -0.323 -0.445 146 96 79 0 0
0.8258 10.8595 -2.5418 -0.840 -0.338 -0.424 162 114 98 0 0
0.8908 10.8044 -2.5936 -0.975 -0.089 -0.205 155 104 87 0 0
0.8987 10.7743 -2.6048 -0.896 -0.263 -0.358 165 117 100 0 0
0.9390 10.7058 -2.6440 -0.915 -0.242 -0.322 165 117 102 0 0
0.9737 10.6300 -2.6813 -0.882 -0.273 -0.384 178 130 115 0 0
1.1313 10.4099 -2.8248 -0.797 -0.525 -0.300 172 120 104 0 0
1.1445 10.4064 -2.8338 -0.734 -0.515 -0.442 175 122 108 0 0
1.1886 10.3218 -2.8787 -0.987 -0.070 -0.144 152 105 89 0 0
1.1951 10.3100 -2.8852 -0.951 -0.250 -0.182 169 122 105 0 0
1.2043 10.3014 -2.8927 -0.907 -0.392 -0.157 172 125 108 0 0
1.2145 10.2939 -2.9006 -0.934 -0.357 0.001 171 124 108 0 0
1.2645 10.1967 -2.9519 -0.873 -0.334 -0.355 170 119 104 0 0
1.2562 10.1675 -2.9528 -0.810 -0.322 -0.490 182 131 116 0 0
1.3012 10.1034 -2.9940 -0.915 -0.254 -0.314 178 126 111 0 0
1.3182 10.1036 -3.0045 -0.828 -0.345 -0.442 181 127 112 0 0
1.3688 10.0068 -3.0560 -0.886 -0.236 -0.398 188 141 126 0 0
1.5380 9.7725 -3.2097 -0.925 -0.285 -0.252 174 133 123 0 0
1.5744 9.6977 -3.2479 -0.866 -0.380 -0.326 177 136 123 0 0
1.6278 9.5844 -3.3046 -0.857 -0.459 -0.236 184 141 131 0 0
1.6947 9.5031 -3.3629 -0.891 -0.388 -0.235 178 139 129 0 0
1.7005 9.4903 -3.3692 -0.994 -0.109 -0.014 185 147 136 0 0
1.6947 9.4292 -3.3784 -0.985 0.001 -0.175 172 134 123 0 0
1.7013 9.3989 -3.3888 -0.896 -0.214 -0.388 177 134 124 0 0
1.8249 9.2802 -3.4901 -0.791 -0.397 -0.465 165 125 112 0 0
1.8956 9.1643 -3.5580 -0.874 -0.374 -0.311 172 130 117 0 0
1.9029 9.1530 -3.5649 -0.874 -0.374 -0.311 177 136 124 0 0
1.9091 9.1406 -3.5714 -0.887 -0.365 -0.283 185 145 133 0 0
1.9223 9.1164 -3.5845 -0.826 -0.553 -0.111 181 143 131 0 0
1.9964 9.0932 -3.6353 -0.858 -0.467 -0.215 183 146 134 0 0
2.1621 8.9865 -3.7602 -0.449 -0.623 0.640 223 222 218 0 0
2.2261 8.9512 -3.8072 -0.848 -0.422 0.322 226 225 221 0 0
2.2274 8.9342 -3.8115 -0.607 -0.788 0.101 227 224 221 0 0
2.2083 8.8820 -3.8106 -0.900 -0.293 0.324 229 225 222 0 0
2.2307 8.8830 -3.8242 -0.760 -0.646 0.071 230 226 223 0 0
2.3153 8.8641 -3.8806 -0.393 -0.610 -0.688 229 228 224 0 0
3.1207 7.1539 -4.7361 -0.363 -0.923 0.130 224 223 220 0 0
3.1339 7.1450 -4.7461 -0.514 -0.858 0.007 225 224 221 0 0
3.0805 7.0364 -4.7357 -0.268 -0.895 -0.356 224 224 221 0 0
3.0072 6.9502 -4.7083 -0.463 -0.176 0.869 224 225 219 0 0
0.6831 11.3173 -2.3756 -0.967 0.152 -0.205 210 185 178 0 0
0.6707 11.2775 -2.3761 -0.956 0.250 -0.155 197 154 143 0 0
0.6838 11.2756 -2.3847 -0.958 0.251 -0.136 184 138 121 0 0
0.6941 11.0795 -2.4318 -0.932 -0.204 -0.298 140 84 66 0 0
0.7029 11.0713 -2.4390 -0.913 -0.387 0.128 159 102 83 0 0
0.7350 11.0337 -2.4667 -0.814 -0.539 -0.215 167 116 98 0 0
0.7438 11.0254 -2.4739 -1.000 -0.017 -0.005 172 119 99 0 0
0.7513 11.0152 -2.4807 -0.946 -0.307 -0.107 177 122 101 0 0
0.7916 10.9266 -2.5241 -0.790 -0.410 -0.456 153 96 75 0 0
0.8085 10.9088 -2.5383 -0.784 -0.380 -0.491 151 97 77 0 0
0.8232 10.8878 -2.5518 -0.790 -0.390 -0.473 161 110 93 0 0
0.8323 10.8798 -2.5591 -0.920 -0.168 -0.353 157 109 92 0 0
0.8426 10.8528 -2.5711 -0.853 -0.287 -0.436 193 150 137 0 0
0.8492 10.8412 -2.5776 -0.827 -0.329 -0.455 196 154 141 0 0
0.8641 10.8205 -2.5911 -0.840 -0.388 -0.379 163 116 102 0 0
0.8949 10.8417 -2.6059 -0.680 -0.724 -0.112 150 101 86 0 0
0.8988 10.8264 -2.6115 -0.981 -0.120 -0.151 140 90 74 0 0
0.9481 10.7086 -2.6666 -0.889 -0.222 -0.399 166 118 104 0 0
0.9756 10.6435 -2.6972 -0.865 -0.317 -0.389 179 133 118 0 0
1.0701 10.5435 -2.7766 -0.758 -0.518 -0.397 175 128 113 0 0
1.1432 10.3956 -2.8527 -0.839 -0.498 -0.218 173 125 114 0 0
1.1813 10.3630 -2.8832 -0.881 -0.400 -0.252 172 125 111 0 0
1.1902 10.3343 -2.8947 -0.995 -0.101 0.016 163 120 104 0 0
1.1990 10.3252 -2.9020 -0.931 -0.361 -0.047 165 119 104 0 0
1.2044 10.3120 -2.9081 -0.931 -0.361 -0.047 176 131 116 0 0
1.2100 10.2991 -2.9143 -0.955 -0.234 -0.182 185 139 125 0 0
1.2576 10.2380 -2.9565 -0.906 -0.319 -0.277 173 125 110 0 0
1.2643 10.2263 -2.9631 -0.870 -0.347 -0.350 183 135 121 0 0
1.2705 10.2141 -2.9695 -0.892 -0.312 -0.327 177 130 117 0 0
1.2770 10.2022 -2.9760 -0.892 -0.312 -0.327 165 119 106 0 0
1.2780 10.1644 -2.9845 -0.742 -0.476 -0.471 167 121 107 0 0
1.3477 10.0702 -3.0473 -0.955 -0.027 -0.296 180 132 117 0 0
1.3814 10.0119 -3.0804 -0.849 -0.295 -0.438 185 140 126 0 0
1.4052 9.9425 -3.1095 -0.802 -0.450 -0.391 176 132 119 0 0
1.4468 9.9120 -3.1417 -0.748 -0.498 -0.438 182 141 128 0 0
1.5621 9.7323 -3.2507 -0.824 -0.415 -0.385 179 140 130 0 0
1.5775 9.7108 -3.2647 -0.821 -0.431 -0.374 173 134 123 0 0
1.5861 9.7009 -3.2721 -0.821 -0.431 -0.374 165 125 114 0 0
1.6946 9.5127 -3.3786 -0.891 -0.388 -0.235 165 125 115 0 0
1.6997 9.4991 -3.3845 -0.964 -0.259 -0.050 182 142 129 0 0
1.6974 9.4413 -3.3951 -0.964 -0.059 -0.260 166 126 116 0 0
1.7056 9.4126 -3.4062 -0.896 -0.214 -0.388 173 130 121 0 0
1.7096 9.3981 -3.4117 -0.910 -0.155 -0.384 185 144 132 0 0
1.7165 9.3865 -3.4184 -0.891 -0.202 -0.406 168 126 112 0 0
2.0162 9.0841 -3.6674 -0.811 -0.403 -0.423 179 141 132 0 0
2.2875 8.8320 -3.8882 -0.151 -0.303 0.941 229 228 224 0 0
3.1119 7.1566 -4.7482 -0.278 -0.879 0.388 226 225 223 0 0
3.1254 7.1479 -4.7584 -0.278 -0.879 0.388 225 224 222 0 0
0.6806 11.3041 -2.3943 -0.956 0.250 -0.155 193 150 142 0 0
0.6932 11.3013 -2.4027 -0.960 0.232 -0.158 186 141 126 0 0
0.6752 11.2110 -2.4102 -0.944 0.128 -0.304 179 129 109 0 0
0.7363 11.0471 -2.4822 -0.919 -0.225 -0.325 161 111 92 0 0
0.7409 11.0328 -2.4880 -0.952 -0.170 -0.254 151 98 80 0 0
0.7539 11.0303 -2.4966 -0.945 -0.151 -0.291 144 91 71 0 0
0.7848 10.9491 -2.5326 -0.790 -0.410 -0.456 177 116 93 0 0
0.7934 10.9405 -2.5398 -0.790 -0.410 -0.456 165 105 84 0 0
0.8020 10.9318 -2.5469 -0.790 -0.410 -0.456 165 107 88 0 0
0.8182 10.9129 -2.5609 -0.962 -0.109 -0.252 164 111 93 0 0
0.8236 10.8997 -2.5670 -0.925 -0.210 -0.315 169 121 104 0 0
0.9179 10.7815 -2.6502 -0.861 -0.322 -0.394 187 132 113 0 0
0.9273 10.7736 -2.6577 -0.951 -0.151 -0.270 168 112 94 0 0
0.9441 10.6942 -2.6846 -0.888 -0.271 -0.372 173 125 111 0 0
0.9688 10.6658 -2.7058 -0.897 -0.313 -0.311 178 135 119 0 0
1.0200 10.6111 -2.7490 -0.922 -0.379 0.076 174 131 117 0 0
1.1091 10.4634 -2.8350 -0.900 -0.299 -0.316 175 128 114 0 0
1.1201 10.4573 -2.8432 -0.915 -0.289 -0.281 163 119 103 0 0
1.1265 10.4254 -2.8537 -0.941 -0.309 -0.142 176 134 119 0 0
1.1417 10.4045 -2.8676 -0.839 -0.498 -0.218 176 131 120 0 0
1.1810 10.3732 -2.8985 -0.881 -0.400 -0.252 178 133 119 0 0
1.1866 10.3603 -2.9046 -0.934 -0.322 -0.158 164 121 105 0 0
1.1921 10.3472 -2.9108 -0.934 -0.322 -0.158 134 91 76 0 0
1.1976 10.3342 -2.9169 -0.934 -0.322 -0.158 167 122 109 0 0
1.2032 10.3211 -2.9230 -0.934 -0.322 -0.158 184 140 128 0 0
1.2103 10.3100 -2.9298 -0.955 -0.234 -0.182 183 140 128 0 0
1.2586 10.2497 -2.9724 -0.870 -0.347 -0.350 171 127 112 0 0
1.2633 10.2356 -2.9782 -0.829 -0.381 -0.409 180 139 124 0 0
1.3187 10.1247 -3.0356 -0.844 -0.397 -0.361 173 126 113 0 0
1.3273 10.1152 -3.0429 -0.791 -0.396 -0.467 176 128 116 0 0
1.3526 10.0860 -3.0647 -0.948 -0.127 -0.292 188 140 126 0 0
1.3547 10.0498 -3.0736 -0.880 -0.238 -0.412 173 128 115 0 0
1.4705 9.9098 -3.1746 -0.890 -0.385 -0.244 173 134 123 0 0
1.4734 9.8939 -3.1797 -0.778 -0.498 -0.384 160 121 109 0 0
1.4957 9.8609 -3.2004 -0.884 -0.389 -0.258 176 139 130 0 0
1.5184 9.8283 -3.2213 -0.987 -0.156 -0.049 158 118 107 0 0
1.6982 9.5073 -3.3997 -0.964 -0.259 -0.050 184 144 130 0 0
1.7014 9.4919 -3.4048 -0.994 -0.085 0.063 169 128 114 0 0
2.8423 7.2524 -4.5785 -0.187 -0.722 0.666 226 223 220 0 0
0.6932 11.3347 -2.4134 -0.968 0.126 -0.218 192 158 153 0 0
0.6903 11.3090 -2.4169 -0.966 0.164 -0.202 190 144 134 0 0
0.6928 11.1219 -2.4570 -0.921 -0.124 -0.369 170 116 96 0 0
0.7330 11.0747 -2.4918 -0.919 -0.225 -0.325 170 119 99 0 0
0.7872 10.9847 -2.5442 -0.747 -0.561 -0.357 179 116 91 0 0
0.7965 10.9770 -2.5516 -0.747 -0.561 -0.357 172 111 87 0 0
0.8082 10.9517 -2.5641 -0.784 -0.476 -0.399 179 121 101 0 0
0.8162 10.9421 -2.5711 -0.840 -0.414 -0.350 172 117 98 0 0
0.8238 10.9320 -2.5779 -0.990 -0.136 0.037 165 114 95 0 0
0.8327 10.9235 -2.5852 -0.973 -0.229 -0.009 172 126 111 0 0
0.9060 10.8587 -2.6443 -0.885 -0.284 -0.369 170 121 103 0 0
0.9239 10.8006 -2.6675 -0.911 -0.298 -0.285 172 120 102 0 0
0.9296 10.7878 -2.6737 -0.951 -0.151 -0.270 174 119 103 0 0
0.9292 10.7669 -2.6778 -0.872 -0.275 -0.405 177 123 108 0 0
0.9359 10.7553 -2.6843 -0.872 -0.275 -0.405 168 118 103 0 0
0.9426 10.7438 -2.6908 -0.872 -0.275 -0.405 179 130 114 0 0
0.9434 10.7246 -2.6953 -0.940 -0.180 -0.290 173 124 109 0 0
0.9437 10.7046 -2.6996 -0.982 0.008 -0.189 180 131 116 0 0
0.9567 10.7015 -2.7084 -0.838 -0.509 -0.197 174 126 112 0 0
0.9645 10.6914 -2.7153 -0.838 -0.509 -0.197 158 112 97 0 0
1.0164 10.6173 -2.7630 -0.922 -0.379 0.076 178 136 123 0 0
1.0242 10.6073 -2.7699 -0.725 -0.562 -0.399 177 135 123 0 0
1.1502 10.4255 -2.8860 -0.899 -0.346 -0.268 179 137 125 0 0
1.1819 10.3849 -2.9142 -0.860 -0.377 -0.343 171 127 114 0 0
1.1926 10.3584 -2.9264 -0.909 -0.253 -0.330 150 108 94 0 0
1.2084 10.3380 -2.9404 -0.814 -0.431 -0.389 159 118 108 0 0
1.2309 10.2861 -2.9651 -0.804 -0.387 -0.451 168 129 119 0 0
1.2491 10.2686 -2.9802 -0.829 -0.381 -0.409 173 134 119 0 0
1.2573 10.2586 -2.9873 -0.829 -0.381 -0.409 166 125 110 0 0
1.2654 10.2486 -2.9944 -0.829 -0.381 -0.409 170 129 114 0 0
1.2745 10.2397 -3.0020 -0.870 -0.347 -0.350 169 130 117 0 0
1.2815 10.2284 -3.0087 -0.862 -0.372 -0.344 185 147 134 0 0
1.3094 10.1827 -3.0355 -0.894 -0.310 -0.322 157 117 105 0 0
1.3159 10.1708 -3.0420 -0.894 -0.310 -0.322 185 145 132 0 0
1.3229 10.1594 -3.0487 -0.900 -0.256 -0.354 174 133 118 0 0
1.3229 10.1399 -3.0527 -0.996 -0.084 0.004 175 132 118 0 0
1.3473 10.1292 -3.0702 -0.915 -0.324 -0.240 179 132 118 0 0
1.3550 10.1185 -3.0772 -0.968 -0.193 -0.162 173 126 112 0 0
1.3580 10.1026 -3.0824 -0.976 -0.088 -0.200 177 131 117 0 0
1.4381 9.9802 -3.1576 -0.863 -0.418 -0.284 180 137 123 0 0
1.4464 9.9701 -3.1648 -0.828 -0.477 -0.296 167 124 111 0 0
1.4729 9.9226 -3.1912 -0.903 -0.306 -0.300 181 143 132 0 0
1.5514 9.7408 -3.2776 -0.703 -0.708 -0.074 167 128 116 0 0
1.5613 9.7323 -3.2856 -0.714 -0.694 -0.098 184 145 132 0 0
1.5818 9.7161 -3.3017 -0.685 -0.713 -0.151 174 133 121 0 0
1.8853 9.2556 -3.5861 -0.915 -0.158 -0.371 184 145 132 0 0
2.0954 9.1007 -3.7492 -0.313 -0.950 0.011 212 207 204 0 0
2.0583 8.9236 -3.7625 -0.572 -0.560 0.599 229 225 222 0 0
2.2859 8.7236 -3.9458 -0.463 -0.206 0.862 231 230 226 0 0
2.8198 7.2469 -4.5833 -0.123 -0.861 0.494 226 225 221 0 0
0.7009 11.3581 -2.4311 -0.941 0.049 -0.334 198 172 166 0 0
0.6979 11.3322 -2.4345 -0.966 0.164 -0.202 185 144 132 0 0
0.6937 11.3045 -2.4375 -0.967 0.202 -0.156 184 138 123 0 0
0.6995 11.2917 -2.4438 -0.956 0.215 -0.198 168 119 103 0 0
0.6870 11.2307 -2.4485 -0.955 0.111 -0.274 179 131 111 0 0
0.6986 11.1419 -2.4739 -0.894 -0.337 -0.297 146 93 74 0 0
0.7068 11.1327 -2.4810 -0.916 -0.256 -0.309 153 98 78 0 0
0.7178 11.1276 -2.4889 -0.885 -0.395 -0.246 171 113 95 0 0
0.7259 11.1182 -2.4959 -0.897 -0.360 -0.256 172 114 97 0 0
0.7324 11.1066 -2.5024 -0.897 -0.360 -0.256 160 105 88 0 0
0.7441 11.0814 -2.5149 -0.977 -0.200 -0.074 170 119 100 0 0
0.7564 11.0570 -2.5276 -0.982 -0.185 -0.035 166 108 88 0 0
0.7589 11.0396 -2.5327 -0.767 -0.382 -0.515 162 102 82 0 0
0.7778 10.9829 -2.5561 -0.768 -0.460 -0.445 172 108 84 0 0
0.8486 10.8948 -2.6185 -0.914 -0.338 -0.224 166 135 121 0 0
0.9190 10.8464 -2.6726 -0.883 -0.230 -0.409 173 121 106 0 0
0.9247 10.8130 -2.6830 -0.911 -0.298 -0.285 181 129 112 0 0
0.9315 10.8016 -2.6896 -0.933 -0.208 -0.295 181 126 111 0 0
0.9370 10.7884 -2.6957 -0.771 -0.393 -0.501 173 118 103 0 0
0.9400 10.7719 -2.7010 -0.901 -0.224 -0.372 184 134 119 0 0
0.9457 10.7591 -2.7072 -0.901 -0.224 -0.372 186 137 120 0 0
0.9591 10.7565 -2.7161 -0.932 -0.205 -0.298 177 128 113 0 0
0.9642 10.7427 -2.7221 -0.844 -0.333 -0.420 180 131 117 0 0
1.0130 10.6847 -2.7646 -0.793 -0.594 -0.135 162 118 105 0 0
1.0173 10.6700 -2.7703 -0.996 0.009 0.087 168 125 113 0 0
1.0615 10.5854 -2.8154 -0.726 -0.517 -0.454 169 129 116 0 0
1.1770 10.4095 -2.9237 -0.987 -0.101 -0.123 153 109 97 0 0
1.1834 10.3975 -2.9302 -0.875 -0.339 -0.345 165 121 108 0 0
1.2216 10.3250 -2.9690 -0.936 -0.291 -0.195 171 136 126 0 0
1.2271 10.3118 -2.9751 -0.891 -0.265 -0.369 174 139 129 0 0
1.2989 10.2593 -3.0309 -0.969 -0.164 -0.186 156 118 105 0 0
1.3202 10.1862 -3.0592 -0.828 -0.404 -0.388 174 134 121 0 0
1.3513 10.1441 -3.0873 -0.923 -0.297 -0.244 162 117 104 0 0
1.3602 10.1154 -3.0988 -0.976 -0.088 -0.200 174 130 117 0 0
1.3833 10.0641 -3.1238 -0.638 -0.751 -0.168 178 141 131 0 0
1.4367 9.9889 -3.1726 -0.887 -0.338 -0.314 176 133 121 0 0
1.4744 9.9343 -3.2074 -0.903 -0.306 -0.300 170 131 121 0 0
1.5650 9.7461 -3.3028 -0.774 -0.546 -0.321 168 126 114 0 0
1.6201 9.6528 -3.3564 -0.903 -0.366 -0.224 169 126 112 0 0
2.0723 9.1074 -3.7514 -0.333 -0.938 -0.091 218 213 209 0 0
2.0785 9.0948 -3.7579 -0.356 -0.781 0.514 219 214 212 0 0
2.0641 8.9019 -3.7884 -0.584 -0.658 0.475 228 227 223 0 0
2.0754 8.8938 -3.7971 -0.854 -0.457 0.250 228 227 223 0 0
2.2490 8.7199 -3.9415 -0.809 -0.269 0.522 231 230 226 0 0
2.9295 7.3989 -4.6386 -0.966 -0.258 -0.010 226 225 221 0 0
2.9925 7.3871 -4.6805 -0.101 -0.827 0.553 227 226 222 0 0
2.9167 7.3105 -4.6487 -0.544 -0.820 -0.176 227 226 222 0 0
0.7056 11.3555 -2.4522 -0.966 0.164 -0.202 180 141 131 0 0
0.7014 11.3279 -2.4552 -0.967 0.202 -0.156 185 137 123 0 0
0.7162 11.1370 -2.5035 -0.862 -0.262 -0.433 156 101 84 0 0
0.7220 11.1243 -2.5097 -0.908 -0.189 -0.374 140 86 70 0 0
0.7397 11.1077 -2.5242 -0.869 -0.276 -0.411 159 110 93 0 0
0.7440 11.0928 -2.5299 -0.901 -0.175 -0.396 162 113 94 0 0
0.7497 11.0799 -2.5361 -0.930 -0.152 -0.333 166 114 94 0 0
0.7551 11.0667 -2.5423 -0.934 -0.240 -0.265 167 108 89 0 0
0.8172 10.9663 -2.6017 -0.823 -0.478 -0.307 146 97 78 0 0
0.8312 10.9443 -2.6150 -0.927 -0.212 -0.311 193 151 133 0 0
0.9301 10.8314 -2.7002 -0.992 -0.007 -0.123 176 127 111 0 0
1.0034 10.7036 -2.7723 -0.695 -0.610 -0.380 164 121 108 0 0
1.0101 10.6919 -2.7789 -0.793 -0.594 -0.135 170 128 117 0 0
1.0151 10.6782 -2.7849 -0.993 -0.045 0.110 167 126 116 0 0
1.0451 10.6359 -2.8123 -0.922 -0.193 -0.337 160 116 104 0 0
1.2343 10.3311 -2.9934 -0.876 -0.339 -0.343 178 140 130 0 0
1.3739 10.0830 -3.1317 -0.982 -0.137 -0.133 177 138 130 0 0
1.3927 10.0851 -3.1431 -0.913 -0.400 -0.076 170 130 121 0 0
1.3989 10.0726 -3.1495 -0.909 -0.392 -0.145 164 121 112 0 0
1.5861 9.7973 -3.3233 -0.814 -0.372 0.446 168 129 114 0 0
2.0030 9.2003 -3.7070 -0.858 -0.415 -0.302 199 190 186 0 0
2.0330 9.1727 -3.7315 -0.829 -0.456 -0.325 210 202 200 0 0
2.0510 9.1707 -3.7432 -0.615 -0.622 -0.484 212 205 205 0 0
2.0706 9.1517 -3.7593 -0.598 -0.628 -0.498 218 214 213 0 0
2.0383 8.9420 -3.7819 -0.209 -0.624 0.753 227 226 222 0 0
2.2689 8.7451 -3.9669 -0.890 -0.417 0.182 231 230 226 0 0
2.9277 7.3893 -4.6574 -0.793 -0.529 -0.302 229 228 224 0 0
2.8974 7.3230 -4.6520 -0.282 -0.917 0.283 227 226 222 0 0
2.9162 7.3178 -4.6648 -0.799 -0.418 -0.432 227 226 222 0 0
2.9338 7.3119 -4.6771 -0.454 -0.292 -0.842 227 226 222 0 0
0.7118 11.3768 -2.4694 -0.971 0.020 -0.238 187 153 146 0 0
0.7099 11.3524 -2.4732 -0.972 0.111 -0.206 188 141 129 0 0
0.7610 11.0867 -2.5594 -0.924 -0.168 -0.344 164 105 85 0 0
0.9182 10.8884 -2.6987 -0.931 -0.321 -0.174 185 138 123 0 0
0.9238 10.8754 -2.7049 -0.931 -0.321 -0.174 165 112 99 0 0
0.9341 10.8687 -2.7127 -0.956 -0.198 0.217 164 112 98 0 0
0.9322 10.8455 -2.7163 -0.999 -0.029 -0.032 176 128 112 0 0
0.9787 10.7230 -2.7704 -0.744 -0.482 -0.463 172 132 119 0 0
1.0169 10.6712 -2.8050 -0.971 -0.055 0.234 163 126 114 0 0
1.0170 10.6511 -2.8092 -0.971 -0.055 0.234 162 124 112 0 0
1.0962 10.5506 -2.8795 -0.952 -0.306 0.010 150 106 93 0 0
1.1020 10.5378 -2.8857 -0.924 -0.383 -0.023 154 108 95 0 0
1.1116 10.5297 -2.8934 -0.986 -0.164 -0.031 162 114 100 0 0
1.1172 10.5167 -2.8996 -0.934 -0.224 -0.280 175 128 113 0 0
1.3610 10.1175 -3.1342 -0.857 -0.266 -0.441 164 126 115 0 0
1.3810 10.1014 -3.1501 -0.935 -0.199 -0.294 165 126 118 0 0
1.3906 10.0929 -3.1579 -0.913 -0.400 -0.076 162 122 114 0 0
1.3987 10.0827 -3.1651 -0.839 -0.511 -0.188 168 127 119 0 0
1.5724 9.8500 -3.3218 -0.852 -0.492 0.180 175 139 128 0 0
2.0116 9.2542 -3.7194 -0.752 -0.141 -0.643 213 206 204 0 0
2.0037 9.2286 -3.7197 -0.935 0.060 -0.349 212 207 206 0 0
1.9970 9.2040 -3.7204 -0.924 -0.383 -0.015 213 209 208 0 0
2.0164 9.2034 -3.7328 -0.910 -0.278 -0.307 213 210 209 0 0
2.0250 9.1930 -3.7403 -0.846 -0.396 -0.358 215 211 208 0 0
2.0919 9.1619 -3.7888 -0.791 -0.532 0.304 220 218 216 0 0
2.0799 9.1328 -3.7871 -0.818 -0.166 0.550 219 218 216 0 0
2.0516 8.9627 -3.8039 -0.192 -0.688 0.700 229 228 224 0 0
2.9050 7.3674 -4.6656 -0.976 0.214 -0.033 228 227 223 0 0
2.9046 7.3348 -4.6720 -0.265 -0.962 0.069 228 227 223 0 0
0.7129 11.3904 -2.4851 -0.990 -0.006 -0.140 190 165 159 0 0
0.7116 11.3669 -2.4890 -0.989 0.138 -0.059 188 143 133 0 0
0.7055 11.3363 -2.4913 -0.975 0.220 -0.028 181 133 119 0 0
0.8317 10.9887 -2.6414 -0.916 -0.130 -0.380 166 119 100 0 0
0.9285 10.8930 -2.7219 -0.984 -0.142 -0.106 171 117 103 0 0
0.9314 10.8764 -2.7271 -0.984 -0.142 -0.106 168 116 102 0 0
0.9353 10.8610 -2.7327 -0.985 -0.159 -0.062 174 127 111 0 0
0.9962 10.7776 -2.7880 -0.830 -0.293 -0.474 173 134 122 0 0
1.0136 10.6982 -2.8150 -0.977 -0.179 0.115 181 141 131 0 0
1.0183 10.6637 -2.8250 -0.933 0.029 0.358 151 111 99 0 0
1.0957 10.5608 -2.8947 -0.941 -0.319 -0.116 162 118 106 0 0
1.1124 10.5416 -2.9092 -0.907 -0.297 -0.297 158 110 95 0 0
1.1206 10.5319 -2.9163 -0.831 -0.394 -0.392 172 125 109 0 0
1.1287 10.5219 -2.9234 -0.831 -0.394 -0.392 162 115 100 0 0
1.2212 10.3961 -3.0073 -0.883 -0.421 -0.209 159 118 106 0 0
1.2319 10.3494 -3.0235 -0.994 -0.044 -0.098 164 122 110 0 0
1.2977 10.2895 -3.0772 -0.956 -0.148 0.253 167 125 116 0 0
1.2992 10.2716 -3.0818 -0.956 -0.148 0.253 156 116 106 0 0
1.3037 10.2572 -3.0875 -0.884 -0.413 -0.218 165 125 114 0 0
1.3179 10.2148 -3.1051 -0.973 -0.223 0.061 164 125 111 0 0
1.3191 10.1966 -3.1095 -0.990 -0.140 -0.005 157 117 103 0 0
1.3215 10.1798 -3.1144 -0.990 -0.140 -0.005 170 130 117 0 0
1.3652 10.1327 -3.1516 -0.861 -0.264 -0.435 171 132 123 0 0
1.3819 10.1128 -3.1661 -0.948 -0.313 -0.060 165 134 125 0 0
1.3894 10.1019 -3.1731 -0.885 -0.371 0.281 165 136 128 0 0
1.3939 10.0875 -3.1788 -0.861 -0.407 0.306 159 133 124 0 0
1.3993 10.0742 -3.1849 -0.744 -0.661 0.099 159 132 124 0 0
1.5089 9.9257 -3.2842 -0.878 -0.384 -0.286 183 145 138 0 0
1.5670 9.8543 -3.3354 -0.852 -0.492 0.180 169 145 141 0 0
1.6393 9.6833 -3.4156 -0.647 -0.756 -0.099 195 181 175 0 0
1.6465 9.6719 -3.4225 -0.802 -0.592 -0.079 199 186 180 0 0
1.6518 9.6584 -3.4285 -0.825 -0.517 -0.228 204 191 185 0 0
1.7244 9.5632 -3.4936 -0.959 -0.282 -0.036 194 183 177 0 0
1.7288 9.5489 -3.4993 -0.959 -0.282 -0.036 194 183 175 0 0
1.7243 9.5257 -3.5012 -0.756 -0.584 0.294 188 174 165 0 0
1.7549 9.3890 -3.5482 -0.870 -0.345 0.351 175 151 143 0 0
1.8966 9.2854 -3.6586 -0.953 -0.073 0.294 216 209 206 0 0
2.0005 9.2350 -3.7344 -0.955 -0.074 -0.288 216 213 209 0 0
2.1129 9.3198 -3.7882 -0.567 -0.169 -0.806 218 213 210 0 0
2.2124 8.6634 -3.9839 -0.428 -0.373 0.823 233 232 228 0 0
2.2292 8.6419 -3.9989 -0.464 -0.172 0.869 232 231 227 0 0
0.7113 11.4000 -2.4998 -0.999 0.030 -0.022 224 213 207 0 0
0.7117 11.3792 -2.5043 -0.999 0.046 0.005 194 159 152 0 0
0.7081 11.3522 -2.5075 -0.991 0.122 0.062 179 133 123 0 0
0.7071 11.3078 -2.5158 -0.988 0.102 -0.114 173 125 105 0 0
0.8436 10.9749 -2.6693 -0.824 -0.504 -0.259 161 115 100 0 0
0.8517 10.9653 -2.6763 -0.824 -0.504 -0.259 182 139 125 0 0
0.8611 10.9576 -2.6839 -0.744 -0.556 -0.371 168 125 112 0 0
0.8670 10.9450 -2.6902 -0.655 -0.638 -0.404 192 149 136 0 0
0.9210 10.9149 -2.7304 -0.952 -0.307 -0.014 168 116 102 0 0
0.9257 10.9006 -2.7363 -0.952 -0.307 -0.014 172 118 105 0 0
0.9973 10.7903 -2.8039 -0.901 -0.330 -0.282 173 133 124 0 0
1.1943 10.4537 -2.9964 -0.919 -0.385 0.078 169 127 117 0 0
1.2011 10.4421 -3.0031 -0.897 -0.442 -0.019 170 130 121 0 0
1.2062 10.4283 -3.0090 -0.909 -0.413 0.051 155 118 108 0 0
1.2124 10.4159 -3.0155 -0.905 -0.424 -0.041 163 124 114 0 0
1.2191 10.4041 -3.0221 -0.731 -0.682 0.020 163 120 111 0 0
1.2292 10.3965 -3.0300 -0.608 -0.794 0.009 173 131 122 0 0
1.2265 10.3734 -3.0330 -0.991 -0.134 -0.007 153 113 103 0 0
1.2323 10.3606 -3.0393 -0.979 -0.199 -0.040 157 116 106 0 0
1.3033 10.2869 -3.0990 -0.969 -0.229 -0.094 170 130 122 0 0
1.3029 10.2667 -3.1028 -0.873 -0.437 -0.216 170 132 123 0 0
1.3270 10.1967 -3.1322 -0.937 -0.334 -0.097 174 132 122 0 0
1.3325 10.1835 -3.1384 -0.929 -0.368 -0.031 173 134 124 0 0
1.3844 10.1065 -3.1867 -0.898 -0.370 0.238 168 156 149 0 0
1.3943 10.0983 -3.1947 -0.870 -0.494 0.004 174 164 157 0 0
1.4010 10.0865 -3.2013 -0.870 -0.494 0.004 181 170 165 0 0
1.4730 10.0120 -3.2619 -0.971 -0.209 -0.115 199 186 181 0 0
1.4769 9.9970 -3.2674 -0.980 -0.191 -0.056 200 187 182 0 0
1.4847 9.9863 -3.2745 -0.952 -0.299 0.059 199 186 181 0 0
1.4890 9.9717 -3.2801 -0.952 -0.299 0.059 195 179 174 0 0
1.4902 9.9537 -3.2845 -0.854 -0.395 0.339 193 175 171 0 0
1.6191 9.7099 -3.4152 -0.947 0.117 0.301 215 208 205 0 0
1.6391 9.7118 -3.4275 -0.977 -0.044 0.209 214 208 204 0 0
1.7118 9.5603 -3.5041 -0.667 -0.468 0.580 213 209 204 0 0
1.7494 9.4858 -3.5430 -0.953 -0.116 -0.278 180 160 151 0 0
1.9701 9.2530 -3.7295 -0.433 -0.688 0.582 218 213 210 0 0
2.0005 9.0800 -3.7837 -0.611 -0.745 -0.269 222 219 217 0 0
2.0089 9.0694 -3.7912 -0.703 -0.673 -0.228 223 220 218 0 0
2.1005 9.0058 -3.8619 -0.252 -0.762 -0.596 229 228 224 0 0
2.1483 9.0296 -3.8875 -0.371 -0.386 -0.845 229 228 225 0 0
0.6871 11.3977 -2.5027 -0.767 -0.458 0.450 232 229 226 0 0
0.6941 11.3866 -2.5094 -0.632 -0.618 0.468 229 224 220 0 0
0.7007 11.3748 -2.5160 -0.632 -0.618 0.468 220 209 203 0 0
0.7087 11.3651 -2.5230 -0.991 0.122 0.062 193 171 163 0 0
0.7135 11.3292 -2.5332 -0.994 0.067 0.090 168 120 106 0 0
1.0008 10.8061 -2.8206 -0.895 -0.247 -0.371 168 132 125 0 0
1.0996 10.5876 -2.9272 -0.934 -0.259 -0.245 163 123 115 0 0
1.1853 10.4734 -3.0045 -0.919 -0.385 0.078 158 127 119 0 0
1.1905 10.4598 -3.0105 -0.919 -0.385 0.078 166 137 130 0 0
1.1969 10.4477 -3.0170 -0.909 -0.413 0.051 176 149 143 0 0
1.2025 10.4346 -3.0232 -0.909 -0.413 0.051 175 150 144 0 0
1.2067 10.4197 -3.0288 -0.826 -0.529 0.196 180 153 146 0 0
1.2138 10.4084 -3.0356 -0.861 -0.501 0.092 164 132 125 0 0
1.2202 10.3963 -3.0421 -0.861 -0.501 0.092 159 121 115 0 0
1.3264 10.1869 -3.1516 -0.861 -0.401 0.313 181 154 147 0 0
1.4727 10.0219 -3.2775 -0.971 -0.209 -0.115 215 208 204 0 0
1.4569 9.9657 -3.2788 -0.416 -0.645 0.641 216 207 205 0 0
1.4836 9.9567 -3.2976 -0.854 -0.395 0.339 217 207 204 0 0
1.4954 9.9504 -3.3063 -0.773 -0.406 0.486 219 207 204 0 0
1.5532 9.8595 -3.3612 -0.933 -0.265 0.244 215 210 209 0 0
1.7186 9.5021 -3.5380 -0.646 -0.613 0.455 214 207 203 0 0
1.7369 9.5017 -3.5497 -0.941 -0.266 0.207 214 205 200 0 0
1.7407 9.4868 -3.5551 -0.911 -0.409 0.053 214 206 201 0 0
1.8937 9.3015 -3.6894 -0.797 -0.593 -0.113 218 214 210 0 0
1.8029 9.1976 -3.6526 -0.136 -0.930 0.341 219 214 211 0 0
2.0146 8.9754 -3.8316 -0.574 -0.766 0.290 229 228 224 0 0
2.0238 8.9656 -3.8394 -0.574 -0.766 0.290 230 229 225 0 0
0.6823 11.3594 -2.5250 -0.312 -0.565 0.764 219 217 215 0 0
0.6885 11.3472 -2.5314 -0.312 -0.565 0.764 211 203 200 0 0
0.6953 11.3357 -2.5380 -0.546 -0.384 0.744 197 180 172 0 0
0.7101 11.3362 -2.5474 -0.945 -0.122 0.305 193 167 158 0 0
0.9247 10.9220 -2.7667 -0.991 -0.103 -0.081 168 129 120 0 0
1.0315 10.6733 -2.8844 -0.837 -0.496 -0.231 192 180 177 0 0
1.0795 10.6539 -2.9188 -0.861 -0.379 0.340 189 171 167 0 0
1.0843 10.6398 -2.9247 -0.821 -0.387 0.421 186 169 164 0 0
1.0934 10.6311 -2.9322 -0.765 -0.566 0.307 196 179 173 0 0
1.0890 10.6053 -2.9346 -0.846 -0.307 0.435 194 174 168 0 0
1.0914 10.5881 -2.9396 -0.903 -0.427 -0.055 191 167 161 0 0
1.1798 10.4774 -3.0179 -0.878 -0.452 0.161 201 189 185 0 0
1.3193 10.1890 -3.1644 -0.851 -0.404 0.335 217 207 201 0 0
1.4722 10.0510 -3.2893 -0.904 -0.246 -0.349 218 212 209 0 0
1.4728 10.0323 -3.2934 -0.990 -0.134 -0.052 218 212 209 0 0
1.5108 9.9388 -3.3362 -0.614 -0.784 -0.090 217 213 209 0 0
1.6515 10.0143 -3.4107 -0.769 0.090 -0.633 217 213 211 0 0
1.5510 9.8672 -3.3762 -0.968 -0.203 0.148 216 213 212 0 0
1.5862 9.6953 -3.4329 -0.985 0.075 0.154 217 211 211 0 0
1.5986 9.6894 -3.4420 -0.996 0.054 0.074 218 213 211 0 0
1.6948 9.5438 -3.5323 -0.666 -0.446 0.598 218 213 209 0 0
1.7457 9.4827 -3.5769 -0.697 -0.703 0.141 217 214 210 0 0
1.8236 9.2082 -3.6814 -0.304 -0.839 0.451 220 216 214 0 0
1.8569 9.1304 -3.7181 -0.918 -0.214 0.333 221 217 214 0 0
0.6831 11.3726 -2.5406 -0.277 -0.869 0.410 224 221 219 0 0
0.6928 11.3655 -2.5482 -0.190 -0.907 0.375 218 214 211 0 0
0.7117 11.3290 -2.5675 -0.967 -0.150 0.207 194 186 181 0 0
0.7120 11.3079 -2.5719 -0.993 -0.101 -0.067 188 179 174 0 0
0.7201 11.2984 -2.5789 -0.988 0.028 -0.151 188 172 164 0 0
0.7174 11.2731 -2.5823 -0.960 -0.244 -0.137 174 143 136 0 0
0.7423 11.2454 -2.6037 -0.795 -0.551 -0.256 158 106 90 0 0
0.8310 11.0547 -2.6982 -0.896 -0.443 0.042 162 128 120 0 0
0.8370 11.0421 -2.7046 -0.896 -0.443 0.042 174 141 131 0 0
0.8422 11.0284 -2.7106 -0.890 -0.414 0.192 178 148 138 0 0
1.1864 10.5165 -3.0321 -0.917 -0.223 0.330 213 208 205 0 0
1.1883 10.4987 -3.0369 -0.915 -0.024 0.403 214 209 206 0 0
1.2997 10.2157 -3.1643 -0.559 -0.779 0.282 218 212 208 0 0
1.3064 10.1844 -3.1748 -0.680 -0.452 0.578 218 212 208 0 0
1.3175 10.1777 -3.1832 -0.643 -0.656 0.395 217 213 208 0 0
1.4687 10.0186 -3.3114 -0.956 -0.288 0.056 218 213 210 0 0
1.5076 9.9455 -3.3508 -0.667 -0.593 0.451 219 213 212 0 0
1.5245 9.9447 -3.3617 -0.891 -0.237 0.387 219 213 213 0 0
1.6851 10.0217 -3.4488 -0.865 0.239 -0.441 218 213 213 0 0
1.5895 9.6146 -3.4688 -0.900 -0.253 -0.356 217 213 210 0 0
1.5640 9.5696 -3.4615 -0.154 -0.950 0.271 217 214 211 0 0
1.5908 9.5599 -3.4806 -0.073 -0.954 0.292 218 214 210 0 0
1.6941 9.5903 -3.5404 -0.715 -0.488 -0.500 218 214 211 0 0
1.6751 9.5523 -3.5358 -0.520 -0.846 0.122 218 214 211 0 0
1.7441 9.2331 -3.6434 -0.759 -0.160 0.631 219 215 213 0 0
1.7483 9.2008 -3.6525 -0.812 -0.582 0.051 220 216 213 0 0
1.7539 9.1880 -3.6587 -0.840 -0.534 0.096 220 216 213 0 0
1.7595 9.1753 -3.6648 -0.786 -0.605 0.127 220 216 213 0 0
0.6851 11.3662 -2.5609 -0.711 -0.622 0.328 222 221 216 0 0
0.7041 11.3728 -2.5717 -0.979 -0.203 -0.016 219 214 212 0 0
0.7118 11.3196 -2.5871 -0.993 -0.101 -0.067 199 195 193 0 0
0.7125 11.2777 -2.5959 -0.954 -0.262 0.147 195 183 177 0 0
0.7828 11.1667 -2.6629 -0.803 -0.594 0.051 186 176 172 0 0
0.7887 11.1540 -2.6692 -0.935 -0.347 -0.074 189 178 171 0 0
0.8131 11.1253 -2.6905 -0.901 -0.351 -0.254 190 178 172 0 0
0.8391 11.0776 -2.7165 -0.709 -0.628 -0.320 196 182 177 0 0
0.8325 11.0474 -2.7183 -0.935 -0.350 0.052 197 184 177 0 0
0.8375 11.0334 -2.7243 -0.949 -0.261 0.177 198 186 179 0 0
0.9304 10.9317 -2.8039 -0.834 -0.499 0.235 207 203 197 0 0
0.9290 10.9091 -2.8075 -0.399 -0.802 0.445 209 202 197 0 0
1.1703 10.5275 -3.0375 -0.946 -0.283 -0.156 216 211 208 0 0
1.1755 10.5138 -3.0435 -0.946 -0.283 -0.156 215 210 208 0 0
1.3902 10.1938 -3.2443 -0.681 -0.411 0.606 220 212 209 0 0
1.3956 10.1804 -3.2504 -0.550 -0.629 0.549 219 213 209 0 0
1.4826 9.8517 -3.3712 -0.772 -0.582 -0.255 219 214 214 0 0
1.5728 9.7010 -3.4587 -0.624 -0.671 0.400 219 214 210 0 0
1.5792 9.6888 -3.4653 -0.852 -0.515 -0.100 219 214 210 0 0
1.5972 9.6510 -3.4843 -0.709 -0.680 -0.188 220 215 212 0 0
1.6355 9.6530 -3.5084 -0.831 -0.550 -0.079 219 215 213 0 0
1.6796 9.5479 -3.5575 -0.780 -0.545 -0.307 219 215 212 0 0
1.7270 9.1899 -3.6587 -0.819 -0.117 0.562 222 218 216 0 0
0.6543 11.3969 -2.5527 -0.547 -0.836 0.048 231 230 226 0 0
0.6702 11.3991 -2.5625 -0.758 -0.627 -0.177 231 227 225 0 0
0.6974 11.3965 -2.5805 -0.995 -0.093 0.044 226 222 221 0 0
0.7124 11.3972 -2.5899 -0.989 0.091 -0.114 222 220 218 0 0
0.7106 11.3728 -2.5936 -0.989 0.091 -0.114 218 216 215 0 0
0.7149 11.3576 -2.5993 -0.987 -0.155 -0.043 216 212 211 0 0
0.7049 11.3214 -2.6001 -0.982 -0.140 -0.124 215 210 208 0 0
0.7116 11.3098 -2.6067 -0.995 -0.093 -0.038 211 206 203 0 0
0.7931 11.1508 -2.6903 -0.835 -0.541 0.096 209 200 198 0 0
0.7970 11.1352 -2.6959 -0.929 -0.343 0.139 211 203 200 0 0
0.8136 11.1376 -2.7060 -0.965 -0.234 0.120 210 202 200 0 0
0.8578 10.9894 -2.7636 -0.570 -0.632 0.524 212 207 204 0 0
0.9215 10.9311 -2.8160 -0.540 -0.652 0.533 214 208 205 0 0
0.9262 10.9167 -2.8219 -0.263 -0.901 0.344 214 207 203 0 0
1.2472 10.3126 -3.1470 -0.962 0.103 0.252 216 212 211 0 0
1.3016 10.0634 -3.2311 -0.531 -0.838 0.126 219 214 211 0 0
1.3140 10.0582 -3.2401 -0.482 -0.876 0.035 218 213 211 0 0
1.3250 9.9744 -3.2636 -0.879 -0.284 -0.383 219 215 211 0 0
1.4896 9.8693 -3.3900 -0.841 -0.536 -0.070 218 216 214 0 0
1.5942 9.6767 -3.4951 -0.791 -0.603 -0.104 220 215 212 0 0
1.6205 9.6662 -3.5140 -0.771 -0.563 -0.297 220 214 214 0 0
1.6269 9.6540 -3.5206 -0.669 -0.725 -0.164 219 214 213 0 0
1.7514 9.1862 -3.6927 -0.631 -0.617 0.470 221 217 214 0 0
1.7784 9.1032 -3.7264 -0.733 -0.604 0.314 224 220 217 0 0
1.8216 9.0354 -3.7674 -0.820 -0.535 -0.203 225 222 220 0 0
0.7101 11.4929 -2.5875 -0.483 -0.723 -0.494 232 231 229 0 0
0.7151 11.4567 -2.5978 -0.781 -0.539 -0.316 229 226 224 0 0
0.7134 11.3675 -2.6142 -0.980 -0.133 0.146 220 217 216 0 0
0.7151 11.3484 -2.6190 -0.989 -0.098 0.113 219 216 214 0 0
0.7176 11.3307 -2.6242 -0.987 -0.028 0.161 218 214 213 0 0
0.7823 11.1682 -2.6976 -0.669 -0.729 -0.145 214 208 205 0 0
0.8152 11.1516 -2.7221 -0.657 -0.731 0.186 216 210 207 0 0
0.8272 11.0420 -2.7513 -0.720 -0.549 0.424 216 211 206 0 0
0.8664 10.9712 -2.7905 -0.962 0.088 0.259 214 209 206 0 0
0.9812 10.9609 -2.8663 -0.697 -0.670 -0.256 215 211 208 0 0
1.0007 10.9664 -2.8778 -0.929 -0.231 -0.288 216 211 208 0 0
1.0246 10.7292 -2.9398 -0.600 -0.761 -0.249 217 209 210 0 0
1.0933 10.6344 -3.0026 -0.729 -0.454 -0.512 219 211 209 0 0
1.0636 10.5763 -2.9949 -0.979 0.054 -0.195 219 212 209 0 0
1.0846 10.4025 -3.0425 -0.774 -0.607 -0.180 218 212 212 0 0
1.0972 10.3983 -3.0514 -0.924 -0.381 0.042 218 212 212 0 0
1.1028 10.3854 -3.0575 -0.806 -0.590 -0.045 217 213 212 0 0
1.1129 10.3781 -3.0655 -0.894 -0.426 0.136 217 212 212 0 0
1.2799 10.0101 -3.2452 -0.777 -0.404 -0.482 218 215 214 0 0
1.3333 9.9747 -3.2865 -0.519 -0.781 -0.347 219 213 212 0 0
1.3473 9.9520 -3.2999 -0.210 -0.698 0.685 219 215 214 0 0
1.4780 9.9243 -3.3895 -0.965 0.166 -0.202 220 216 215 0 0
1.7249 9.2428 -3.6822 -0.997 0.077 0.002 222 218 217 0 0
1.7421 9.1866 -3.7043 -0.638 -0.569 0.518 223 220 216 0 0
1.8167 9.0939 -3.7704 -0.788 -0.543 -0.290 224 222 218 0 0
1.9537 9.0568 -3.8659 -0.765 -0.522 0.378 230 226 223 0 0
0.6578 11.3830 -2.5931 -0.785 -0.108 0.611 230 226 225 0 0
0.6864 11.4042 -2.6074 -0.563 -0.687 0.461 230 226 225 0 0
0.7081 11.3285 -2.6362 -0.925 -0.032 0.378 222 216 216 0 0
0.7533 11.1597 -2.6984 -0.994 -0.004 0.109 216 211 207 0 0
0.7894 11.1903 -2.7157 -0.889 -0.457 -0.022 216 211 208 0 0
1.0810 10.9389 -2.9529 -0.853 0.444 0.275 218 213 209 0 0
1.0530 10.8808 -2.9462 -0.853 0.444 0.275 218 213 209 0 0
0.9835 10.7069 -2.9353 -0.990 0.046 0.134 217 212 210 0 0
1.0099 10.7211 -2.9496 -0.818 -0.561 -0.127 220 212 212 0 0
0.9938 10.6797 -2.9473 -0.641 -0.685 0.346 217 213 211 0 0
1.0197 10.6727 -2.9654 -0.872 -0.476 -0.117 219 212 209 0 0
0.9813 10.5825 -2.9582 -0.877 -0.078 0.475 218 212 209 0 0
0.9725 10.4711 -2.9744 -0.918 -0.083 0.387 220 212 210 0 0
1.0476 10.5267 -3.0120 -0.670 -0.699 -0.249 218 213 210 0 0
1.0604 10.5228 -3.0210 -0.953 -0.262 0.152 217 212 211 0 0
1.1099 10.5047 -3.0564 -0.606 -0.744 -0.281 218 214 209 0 0
1.0818 10.4496 -3.0491 -0.982 -0.052 -0.182 218 213 210 0 0
1.3003 10.0824 -3.2618 -0.999 -0.044 0.010 219 215 212 0 0
1.2993 10.0619 -3.2652 -0.996 0.012 0.091 219 215 212 0 0
1.2959 10.0387 -3.2675 -0.999 -0.039 -0.009 220 215 215 0 0
1.2967 10.0203 -3.2716 -0.999 -0.039 -0.009 220 215 214 0 0
1.3112 10.0176 -3.2815 -0.818 -0.567 -0.097 221 214 214 0 0
1.3246 10.0135 -3.2909 -0.927 -0.334 -0.169 222 215 214 0 0
1.3305 10.0009 -3.2972 -0.594 -0.800 -0.080 221 215 213 0 0
1.3129 9.9427 -3.2972 -0.811 -0.578 -0.088 219 215 214 0 0
1.4428 9.9149 -3.3865 -0.499 -0.551 0.668 220 216 215 0 0
1.4201 9.7570 -3.4027 -0.615 -0.530 0.584 222 215 215 0 0
1.4656 9.7871 -3.4261 -0.270 -0.876 0.401 222 217 214 0 0
1.4867 9.7719 -3.4427 -0.608 -0.500 0.617 221 217 214 0 0
1.6359 9.3115 -3.6290 -0.296 -0.944 0.149 222 217 217 0 0
1.7992 9.1049 -3.7747 -0.489 -0.786 -0.378 226 222 219 0 0
1.8077 9.0948 -3.7821 -0.786 -0.372 -0.493 226 222 219 0 0
1.8199 9.0881 -3.7913 -0.978 -0.066 -0.200 224 223 221 0 0
1.8402 9.0888 -3.8043 -0.842 -0.447 -0.302 224 223 221 0 0
1.8898 9.0442 -3.8450 -0.685 -0.600 -0.413 226 224 220 0 0
1.9431 9.0564 -3.8770 -0.708 -0.701 0.080 230 226 223 0 0
0.6516 11.3858 -2.6062 -0.853 0.059 0.518 230 226 225 0 0
0.7548 11.0680 -2.7348 -0.790 -0.469 -0.395 218 213 210 0 0
0.7760 11.0561 -2.7508 -0.914 -0.146 -0.379 218 213 210 0 0
0.7688 11.0250 -2.7522 -0.908 -0.359 -0.217 218 213 210 0 0
0.8059 10.8897 -2.8026 -0.980 0.095 0.175 220 212 210 0 0
0.7988 10.8593 -2.8039 -0.983 0.065 0.170 219 213 210 0 0
0.8256 10.8549 -2.8221 -0.845 -0.478 0.240 218 213 210 0 0
0.8133 10.8176 -2.8214 -0.748 -0.651 -0.130 219 213 210 0 0
0.8353 10.8271 -2.8338 -0.801 -0.402 0.443 218 213 210 0 0
0.8363 10.8079 -2.8382 -0.649 -0.665 0.369 217 213 210 0 0
1.1134 11.0144 -2.9772 -0.905 0.421 0.063 218 213 210 0 0
1.0869 10.9581 -2.9710 -0.904 0.427 0.015 218 213 209 0 0
1.0620 10.9041 -2.9654 -0.886 0.430 0.173 218 213 210 0 0
0.9819 10.7159 -2.9502 -0.990 0.046 0.134 218 213 210 0 0
0.9956 10.6932 -2.9635 -0.845 -0.266 0.464 218 213 212 0 0
1.0241 10.7099 -2.9787 -0.904 -0.427 0.036 218 214 211 0 0
1.0316 10.6788 -2.9896 -0.566 -0.806 0.172 219 214 211 0 0
1.0538 10.6871 -3.0023 -0.393 -0.794 -0.464 218 213 211 0 0
1.0631 10.6788 -3.0100 -0.707 -0.707 0.033 218 214 213 0 0
0.9599 10.4857 -2.9808 -0.654 -0.647 0.392 221 214 211 0 0
0.9734 10.4831 -2.9901 -0.690 -0.719 0.085 221 214 211 0 0
1.0695 10.4849 -3.0518 -0.560 -0.650 -0.514 218 215 211 0 0
1.0913 10.4723 -3.0684 -0.998 0.053 0.025 218 214 211 0 0
1.0876 10.4477 -3.0708 -0.983 0.126 -0.132 219 214 213 0 0
1.0852 10.4048 -3.0776 -0.986 0.090 -0.141 220 214 214 0 0
1.2908 10.0817 -3.2734 -0.967 -0.231 0.111 220 216 213 0 0
1.3020 10.0366 -3.2895 -0.619 -0.771 -0.151 221 215 213 0 0
1.3201 10.0379 -3.3009 -0.915 -0.282 -0.289 223 215 214 0 0
1.3196 10.0180 -3.3045 -0.718 -0.605 -0.343 224 215 216 0 0
1.3299 10.0104 -3.3126 -0.718 -0.605 -0.343 223 215 216 0 0
1.3369 9.9991 -3.3193 -0.738 -0.625 0.256 222 216 216 0 0
1.3134 9.8580 -3.3316 -0.735 0.038 0.676 221 217 216 0 0
1.4292 9.9292 -3.3926 -0.725 -0.255 0.640 220 216 215 0 0
1.4486 9.8739 -3.4159 -0.693 0.222 0.686 220 216 215 0 0
1.4061 9.7517 -3.4123 -0.913 -0.184 0.364 225 217 215 0 0
1.4547 9.7854 -3.4372 -0.270 -0.876 0.401 223 217 215 0 0
1.3836 9.6338 -3.4206 -0.666 -0.585 0.462 221 217 214 0 0
1.4095 9.6428 -3.4356 -0.446 -0.565 0.694 222 217 214 0 0
1.4661 9.6095 -3.4787 -0.543 -0.377 0.750 221 216 213 0 0
1.5509 9.5673 -3.5418 -0.776 -0.366 0.514 221 217 213 0 0
1.5529 9.5508 -3.5463 -0.743 -0.267 0.614 222 218 214 0 0
1.5963 9.4283 -3.5982 -0.524 -0.447 0.725 222 218 215 0 0
1.6002 9.3954 -3.6071 -0.684 -0.722 -0.101 222 218 217 0 0
1.5958 9.3726 -3.6087 -0.380 -0.924 -0.037 221 217 216 0 0
1.6417 9.3632 -3.6402 -0.538 -0.333 0.774 223 217 217 0 0
1.6132 9.2986 -3.6344 -0.397 -0.804 0.443 222 218 217 0 0
1.6463 9.2764 -3.6601 -0.444 -0.892 -0.083 223 220 216 0 0
1.6785 9.2895 -3.6784 -0.519 -0.846 0.121 224 220 217 0 0
1.8167 9.1124 -3.8022 -0.625 -0.630 -0.461 226 222 219 0 0
1.8216 9.0989 -3.8081 -0.983 -0.180 -0.023 226 224 222 0 0
1.8564 9.0768 -3.8348 -0.897 -0.238 -0.372 226 225 223 0 0
0.8072 11.3685 -2.7282 -0.572 -0.594 -0.566 220 216 214 0 0
0.7497 11.1145 -2.7401 -0.724 -0.449 0.524 218 214 211 0 0
0.7595 11.0864 -2.7519 -0.832 -0.164 0.530 219 214 211 0 0
0.7696 11.0797 -2.7598 -0.955 -0.124 -0.268 219 214 211 0 0
0.7764 11.0683 -2.7664 -0.915 -0.310 -0.259 219 213 211 0 0
0.8318 10.8748 -2.8398 -0.807 -0.586 -0.070 219 214 211 0 0
0.8067 10.8198 -2.8342 -0.662 -0.719 0.211 218 214 211 0 0
1.0403 10.8659 -2.9767 -0.810 -0.158 -0.564 220 214 214 0 0
1.0068 10.7394 -2.9795 -0.877 -0.376 -0.297 220 214 214 0 0
1.0012 10.6911 -2.9852 -0.988 0.092 0.127 218 215 213 0 0
1.0293 10.7073 -3.0003 -0.726 -0.587 -0.359 222 215 213 0 0
1.0036 10.5727 -3.0097 -0.819 -0.532 -0.213 218 214 211 0 0
0.9558 10.4913 -2.9945 -0.713 -0.325 0.621 220 215 212 0 0
0.9638 10.4816 -3.0016 -0.963 0.023 0.268 219 215 211 0 0
0.9718 10.4718 -3.0086 -0.565 -0.438 0.699 220 215 212 0 0
0.9654 10.4439 -3.0099 -0.951 -0.261 -0.164 218 214 211 0 0
1.1621 10.2332 -3.1783 -0.404 -0.328 0.854 221 215 215 0 0
1.3461 10.4136 -3.2627 -0.892 -0.361 -0.272 220 216 213 0 0
1.3520 10.4006 -3.2690 -0.955 -0.199 -0.221 219 215 212 0 0
1.2961 10.0983 -3.2914 -0.870 -0.383 0.312 221 217 214 0 0
1.2964 10.0405 -3.3027 -0.568 -0.822 -0.049 222 217 214 0 0
1.3137 10.0216 -3.3176 -0.377 -0.901 -0.216 223 216 214 0 0
1.3277 10.0182 -3.3273 -0.832 -0.496 -0.250 222 217 214 0 0
1.3313 10.0030 -3.3326 -0.783 -0.479 -0.397 222 217 214 0 0
1.3447 9.9989 -3.3421 -0.904 -0.426 -0.039 221 217 214 0 0
1.2896 9.9176 -3.3222 -0.270 -0.794 -0.544 221 217 214 0 0
1.3524 9.9498 -3.3566 -0.330 -0.937 -0.115 221 217 214 0 0
1.4161 9.9249 -3.4028 -0.613 -0.428 0.664 221 217 216 0 0
1.4853 9.7713 -3.4774 -0.935 -0.247 -0.255 222 218 215 0 0
1.4905 9.7579 -3.4833 -0.935 -0.247 -0.255 222 218 216 0 0
1.3974 9.6397 -3.4459 -0.446 -0.565 0.694 223 218 215 0 0
1.4818 9.6357 -3.5014 -0.930 -0.345 -0.124 221 217 214 0 0
1.4918 9.6276 -3.5095 -0.503 -0.859 -0.090 220 216 213 0 0
1.5014 9.6189 -3.5173 -0.553 -0.691 0.466 222 218 215 0 0
1.5461 9.5721 -3.5554 -0.746 0.001 0.666 224 220 216 0 0
1.5145 9.5209 -3.5448 -0.647 -0.505 -0.571 224 219 216 0 0
1.5899 9.3946 -3.6182 -0.754 -0.638 0.156 223 219 218 0 0
1.5983 9.3297 -3.6362 -0.788 -0.606 -0.109 223 219 218 0 0
1.6086 9.3217 -3.6444 -0.748 -0.577 -0.329 223 219 218 0 0
1.6206 9.3152 -3.6534 -0.485 -0.871 0.081 224 220 218 0 0
1.6186 9.2951 -3.6561 -0.691 -0.707 0.152 222 218 215 0 0
1.6338 9.2918 -3.6666 -0.765 -0.602 -0.229 224 221 216 0 0
1.6864 9.2701 -3.7049 -0.547 -0.725 0.418 224 220 217 0 0
1.6896 9.2368 -3.7134 -0.354 -0.791 0.499 224 220 217 0 0
1.7314 9.2224 -3.7433 -0.753 -0.626 -0.204 226 222 221 0 0
1.7523 9.1517 -3.7706 -0.907 -0.362 0.216 225 224 222 0 0
1.7752 9.1010 -3.7952 -0.397 -0.622 0.675 229 225 224 0 0
1.8938 9.0661 -3.8789 -0.348 -0.797 -0.494 227 226 224 0 0
1.9129 9.0655 -3.8915 -0.348 -0.797 -0.494 229 228 224 0 0
0.7459 11.1207 -2.7541 -0.615 -0.629 0.476 220 216 213 0 0
0.7710 11.0933 -2.7757 -0.879 -0.321 -0.354 221 216 213 0 0
0.7932 10.8536 -2.8363 -0.749 -0.219 0.625 218 215 213 0 0
1.0532 10.8944 -2.9976 -0.803 -0.019 -0.595 221 215 217 0 0
1.0397 10.8557 -2.9962 -0.277 -0.500 -0.820 220 214 215 0 0
1.0198 10.7469 -3.0042 -0.884 0.407 0.231 219 215 215 0 0
0.9951 10.5928 -3.0179 -0.992 0.115 0.059 220 216 215 0 0
1.0018 10.5813 -3.0245 -0.819 -0.532 -0.213 219 215 212 0 0
0.9559 10.4823 -3.0138 -0.781 -0.536 0.320 219 216 212 0 0
0.9676 10.4773 -3.0223 -0.910 -0.261 0.322 220 217 213 0 0
0.9699 10.4603 -3.0271 -0.888 -0.185 0.420 220 216 213 0 0
0.9840 10.4385 -3.0405 -0.874 -0.347 0.341 220 215 214 0 0
1.0735 10.4317 -3.1000 -0.930 -0.356 0.097 220 216 216 0 0
1.2868 10.3934 -3.2461 -0.345 -0.595 -0.726 222 216 216 0 0
1.3547 10.4346 -3.2823 -0.823 -0.127 -0.554 220 216 213 0 0
1.3735 10.4369 -3.2940 -0.756 -0.606 -0.245 220 216 213 0 0
1.3239 10.0048 -3.3451 -0.277 -0.903 0.329 222 218 215 0 0
1.3397 10.0034 -3.3557 -0.940 0.080 -0.330 222 218 215 0 0
1.3502 9.9961 -3.3639 -0.763 -0.400 0.507 222 218 215 0 0
1.3528 9.9797 -3.3688 -0.674 -0.715 -0.186 222 218 215 0 0
1.3633 9.9723 -3.3770 -0.598 -0.793 -0.117 221 217 214 0 0
1.3734 9.9643 -3.3851 -0.823 -0.253 0.508 221 218 215 0 0
1.3599 9.9300 -3.3829 -0.649 -0.459 0.607 221 218 217 0 0
1.4084 9.7740 -3.4446 -0.474 -0.671 0.571 222 218 215 0 0
1.4751 9.7514 -3.4923 -0.912 0.097 0.399 222 218 217 0 0
1.4833 9.6285 -3.5214 -0.673 -0.692 0.260 222 218 215 0 0
1.4888 9.6154 -3.5274 -0.460 -0.855 0.237 223 219 217 0 0
1.5182 9.5344 -3.5622 -0.757 -0.553 -0.347 224 219 216 0 0
1.5265 9.5243 -3.5695 -0.784 -0.604 -0.143 225 219 217 0 0
1.5802 9.3213 -3.6436 -0.695 -0.703 0.152 224 220 219 0 0
1.5884 9.3111 -3.6509 -0.647 -0.689 0.327 225 221 220 0 0
1.5961 9.3005 -3.6579 -0.647 -0.689 0.327 224 221 219 0 0
1.6038 9.2899 -3.6650 -0.647 -0.689 0.327 224 220 217 0 0
1.6297 9.2971 -3.6804 -0.788 -0.577 -0.214 224 221 216 0 0
1.6520 9.2826 -3.6978 -0.477 -0.809 0.343 224 220 218 0 0
1.6782 9.2352 -3.7239 -0.354 -0.791 0.499 226 222 219 0 0
1.6919 9.2302 -3.7338 -0.208 -0.910 0.359 226 222 219 0 0
1.7824 9.1350 -3.8110 -0.609 -0.742 0.282 228 224 223 0 0
1.7872 9.0495 -3.8306 -0.418 -0.603 0.680 227 226 224 0 0
0.8628 11.4303 -2.7885 -0.141 -0.973 0.181 222 218 216 0 0
0.7761 11.1546 -2.7849 -0.897 -0.374 0.234 220 216 214 0 0
0.7670 11.0571 -2.7977 -0.172 -0.968 0.185 220 216 213 0 0
1.0362 10.7797 -3.0265 -0.867 0.457 0.198 220 216 215 0 0
0.9872 10.6138 -3.0264 -0.641 -0.666 -0.382 220 216 215 0 0
0.9871 10.5935 -3.0302 -0.803 -0.467 -0.370 220 216 215 0 0
1.0034 10.5943 -3.0407 -0.801 -0.432 -0.414 221 216 215 0 0
0.9649 10.5047 -3.0328 -0.999 0.027 0.026 221 217 214 0 0
0.9620 10.4810 -3.0355 -0.988 -0.090 0.124 221 216 213 0 0
0.9642 10.4639 -3.0402 -0.834 -0.475 -0.280 221 217 214 0 0
0.9634 10.4429 -3.0436 -0.821 0.034 0.570 221 217 214 0 0
0.9733 10.4356 -3.0515 -0.889 -0.254 0.380 221 216 216 0 0
1.2936 10.4124 -3.2648 -0.345 -0.595 -0.726 222 216 216 0 0
1.3637 10.4562 -3.3021 -0.819 -0.155 -0.552 221 217 216 0 0
1.3125 10.0021 -3.3559 -0.202 -0.864 0.461 223 218 215 0 0
1.3403 10.0144 -3.3717 -0.900 0.169 -0.402 223 219 216 0 0
1.3429 9.9980 -3.3765 -0.960 -0.266 -0.089 223 219 217 0 0
1.3441 9.9608 -3.3844 -0.992 -0.027 0.122 221 217 216 0 0
1.3654 9.9656 -3.3974 -0.823 -0.253 0.508 222 218 217 0 0
1.3594 9.9396 -3.3985 -0.837 -0.128 0.533 222 218 215 0 0
1.3948 9.7693 -3.4543 -0.740 -0.650 0.175 223 218 215 0 0
1.4829 9.8076 -3.5043 -0.945 -0.259 -0.201 224 219 218 0 0
1.4689 9.6417 -3.5270 -0.600 -0.782 0.169 223 219 216 0 0
1.4728 9.6271 -3.5324 -0.518 -0.731 0.444 222 218 216 0 0
1.4788 9.6147 -3.5387 -0.683 -0.517 0.516 224 220 219 0 0
1.4807 9.5981 -3.5431 -0.970 -0.152 0.191 223 219 218 0 0
1.4925 9.5917 -3.5520 -0.751 -0.594 0.286 222 218 217 0 0
1.5134 9.5576 -3.5722 -0.933 -0.084 -0.349 223 219 218 0 0
1.5279 9.5354 -3.5859 -0.887 -0.407 -0.217 224 220 218 0 0
1.5977 9.2751 -3.6814 -0.816 -0.568 -0.101 225 221 218 0 0
1.6053 9.2644 -3.6884 -0.764 -0.580 -0.282 224 220 217 0 0
1.6922 9.2399 -3.7498 -0.633 -0.145 0.761 227 223 220 0 0
1.6397 9.1533 -3.7322 -0.784 -0.332 0.525 227 223 221 0 0
1.7242 9.1436 -3.7891 -0.926 -0.242 0.289 227 225 223 0 0
1.7516 9.1334 -3.8089 -0.704 -0.710 0.001 228 224 223 0 0
0.8750 11.4602 -2.8089 -0.222 -0.935 -0.275 223 219 216 0 0
0.7622 10.8541 -2.8510 -0.662 -0.748 0.055 220 216 213 0 0
1.1013 10.9391 -3.0564 -0.780 0.417 0.466 221 217 214 0 0
1.0717 10.8583 -3.0525 -0.867 0.457 0.198 220 216 215 0 0
1.0420 10.7986 -3.0445 -0.867 0.457 0.198 220 216 215 0 0
1.0127 10.7395 -3.0366 -0.867 0.457 0.198 221 217 216 0 0
0.9763 10.6106 -3.0375 -0.755 -0.625 -0.199 221 217 216 0 0
