ply
format ascii 1.0
element vertex 833
property float x
property float y
property float z
property float nx
property float ny
property float nz
property uchar diffuse_red
property uchar diffuse_green
property uchar diffuse_blue
property uchar class
property uchar detection
end_header
3.5164 7.4209 -2.0759 0.259 -0.892 -0.370 226 206 179 0 0
3.7200 7.4586 -1.9905 -0.135 -0.780 0.611 221 201 172 0 0
4.1349 7.5036 -1.8133 0.097 -0.790 0.605 225 205 177 0 0
4.1504 7.4978 -1.8059 0.071 -0.720 0.690 227 207 180 0 0
4.1649 7.4966 -1.7995 -0.067 -0.757 0.650 226 206 179 0 0
4.3347 7.5581 -1.7311 0.038 -0.866 0.499 232 211 184 0 0
4.4901 7.5557 -1.6629 -0.003 -0.755 0.655 231 208 181 0 0
4.5192 7.5504 -1.6496 0.071 -0.749 0.659 229 210 182 0 0
4.5883 7.5555 -1.6199 -0.564 -0.821 -0.090 224 206 176 0 0
4.6506 7.5206 -1.5894 -0.103 -0.650 0.753 225 204 174 0 0
4.8912 7.5776 -1.4895 -0.244 -0.417 0.876 228 208 177 0 0
4.9167 7.5926 -1.4798 -0.148 -0.498 0.854 227 202 171 0 0
4.9313 9.6126 -1.6646 0.270 -0.851 -0.450 122 69 52 0 0
4.9469 9.6218 -1.6587 -0.042 -0.879 -0.475 121 69 52 0 0
4.9643 9.6166 -1.6506 -0.042 -0.879 -0.475 124 71 55 0 0
5.1447 9.6472 -1.5746 0.533 -0.780 -0.327 122 72 55 0 0
5.5854 9.7563 -1.3922 0.569 -0.746 -0.345 118 69 54 0 0
6.5599 7.4977 -0.7522 -0.465 -0.625 0.627 221 202 176 0 0
6.6480 7.4275 -0.7070 -0.634 -0.735 0.239 224 207 178 0 0
6.6610 7.4333 -0.7019 -0.474 -0.842 0.258 225 208 182 0 0
6.6979 7.3945 -0.6821 -0.394 -0.774 0.495 222 205 178 0 0
6.7107 7.3961 -0.6766 -0.394 -0.816 0.422 220 203 175 0 0
6.8835 7.3142 -0.5933 0.412 -0.839 0.357 224 206 179 0 0
6.9221 7.3286 -0.5778 -0.177 -0.570 0.802 222 204 176 0 0
7.2467 7.3300 -0.4360 0.114 -0.703 0.702 220 201 170 0 0
7.5317 7.4324 -0.3210 0.584 -0.583 0.565 225 207 181 0 0
7.6943 7.5275 -0.2589 0.447 -0.575 0.685 231 214 188 0 0
7.7598 7.6293 -0.2399 -0.431 -0.844 0.319 233 216 190 0 0
7.7717 7.6246 -0.2343 -0.464 -0.878 0.114 230 214 187 0 0
7.7833 7.6188 -0.2286 -0.487 -0.855 0.179 232 214 188 0 0
7.7966 7.6231 -0.2232 -0.257 -0.955 0.146 231 212 183 0 0
7.8073 7.6114 -0.2175 0.016 -0.825 0.565 232 213 184 0 0
7.8210 7.6189 -0.2122 0.483 -0.427 0.764 231 212 184 0 0
7.8355 7.6311 -0.2070 0.439 -0.345 0.829 224 203 177 0 0
7.8533 7.6634 -0.2022 0.411 -0.351 0.842 212 192 164 0 0
7.9049 7.7461 -0.1875 0.423 -0.497 0.758 228 210 192 0 0
7.9673 7.8143 -0.1667 0.414 -0.420 0.808 244 245 243 0 0
2.7377 7.2717 -2.4188 -0.251 -0.925 0.285 224 204 177 0 0
3.0664 7.3209 -2.2796 0.393 -0.911 0.124 225 205 178 0 0
3.4460 7.3890 -2.1201 0.048 -0.645 0.763 227 207 180 0 0
3.4844 7.4036 -2.1047 -0.232 -0.742 0.629 229 208 181 0 0
4.1703 7.4978 -1.8136 -0.364 -0.763 0.534 226 206 179 0 0
4.2301 7.4828 -1.7860 -0.376 -0.759 0.532 224 204 175 0 0
4.3446 7.5385 -1.7412 -0.302 -0.782 0.546 225 205 178 0 0
4.3728 7.5387 -1.7289 -0.090 -0.876 0.474 223 204 174 0 0
4.3877 7.5345 -1.7220 -0.359 -0.846 0.395 227 206 175 0 0
4.6111 7.5393 -1.6247 -0.269 -0.778 0.568 226 205 175 0 0
4.9380 7.5819 -1.4858 -0.309 -0.692 0.652 223 198 168 0 0
5.1173 9.6570 -1.6072 0.309 -0.794 -0.524 122 71 55 0 0
5.1989 9.6764 -1.5734 0.491 -0.808 -0.327 121 69 52 0 0
5.3586 9.7594 -1.5115 0.623 -0.765 -0.163 117 64 52 0 0
5.3751 9.7621 -1.5045 0.559 -0.820 -0.124 110 59 46 0 0
5.5063 9.7975 -1.4505 0.437 -0.878 -0.195 112 62 45 0 0
5.7712 9.8345 -1.3382 0.186 -0.955 -0.231 111 64 49 0 0
5.8844 9.9191 -1.2968 0.087 -0.894 -0.438 111 60 46 0 0
5.9012 9.9170 -1.2892 0.303 -0.883 -0.359 105 53 39 0 0
5.9345 9.9202 -1.2750 0.206 -0.852 -0.482 118 65 49 0 0
6.7034 7.3918 -0.6949 -0.235 -0.852 0.467 221 204 177 0 0
6.7158 7.3842 -0.6887 -0.498 -0.788 0.362 221 204 176 0 0
7.2381 7.3127 -0.4533 0.236 -0.777 0.584 217 198 166 0 0
7.7619 7.6056 -0.2523 -0.176 -0.906 0.386 233 216 190 0 0
7.7743 7.6046 -0.2467 -0.113 -0.856 0.504 230 213 187 0 0
7.7883 7.6140 -0.2415 -0.247 -0.928 0.279 230 213 187 0 0
7.8006 7.6124 -0.2360 -0.247 -0.928 0.279 232 215 187 0 0
7.8128 7.6106 -0.2304 0.044 -0.934 0.354 230 212 184 0 0
7.8270 7.6209 -0.2252 0.491 -0.645 0.585 233 213 185 0 0
7.8413 7.6312 -0.2200 0.533 -0.433 0.727 235 214 186 0 0
7.8544 7.6350 -0.2146 0.411 -0.351 0.842 232 212 184 0 0
7.8713 7.6614 -0.2097 0.476 -0.330 0.815 220 201 174 0 0
7.8904 7.7003 -0.2051 0.476 -0.330 0.815 213 196 170 0 0
7.9077 7.7283 -0.2003 0.608 -0.452 0.653 225 207 184 0 0
7.9255 7.7585 -0.1954 0.522 -0.661 0.539 223 208 190 0 0
1.6112 8.9402 -3.0920 -0.581 -0.592 -0.558 234 232 230 0 0
2.8070 7.2572 -2.4034 0.369 -0.910 0.187 225 206 177 0 0
3.0814 7.2947 -2.2868 0.761 -0.636 0.129 225 204 177 0 0
3.0922 7.3049 -2.2831 0.145 -0.986 -0.080 225 205 175 0 0
3.1070 7.3037 -2.2765 -0.060 -0.998 0.001 224 205 175 0 0
3.1226 7.3003 -2.2694 0.243 -0.927 0.287 225 205 176 0 0
4.3690 7.5171 -1.7448 0.162 -0.697 0.698 227 208 179 0 0
4.3953 7.5256 -1.7341 -0.359 -0.846 0.395 225 205 175 0 0
4.4103 7.5211 -1.7271 -0.138 -0.896 0.421 226 205 174 0 0
4.4737 7.4850 -1.6959 -0.168 -0.893 0.417 228 208 179 0 0
4.9340 7.5540 -1.5010 0.005 -0.572 0.821 225 201 170 0 0
4.9457 7.5685 -1.4973 -0.293 -0.671 0.681 221 195 165 0 0
4.9604 7.5625 -1.4903 -0.490 -0.716 0.497 217 191 163 0 0
4.9600 9.6292 -1.6931 0.560 -0.816 -0.142 99 50 36 0 0
4.9765 9.6317 -1.6862 0.291 -0.855 -0.430 114 66 49 0 0
5.1228 9.6716 -1.6260 0.309 -0.794 -0.524 120 69 52 0 0
5.2056 9.6793 -1.5905 0.286 -0.957 -0.052 118 64 47 0 0
5.5453 9.8207 -1.4556 0.407 -0.910 -0.078 118 65 48 0 0
5.7607 9.8550 -1.3647 0.388 -0.901 0.193 111 62 48 0 0
5.7781 9.8392 -1.3555 0.198 -0.956 -0.215 113 64 49 0 0
6.4557 7.5999 -0.8392 -0.417 -0.541 0.730 230 210 183 0 0
6.4816 7.5720 -0.8251 -0.835 -0.475 0.279 223 207 181 0 0
6.5323 7.4956 -0.7954 -0.045 -0.821 0.569 219 202 176 0 0
6.5447 7.4741 -0.7879 -0.367 -0.647 0.669 220 202 176 0 0
6.5576 7.4728 -0.7821 -0.274 -0.677 0.683 221 201 176 0 0
6.7335 7.3708 -0.6950 -0.590 -0.688 0.423 220 203 178 0 0
6.8946 7.3137 -0.6189 -0.176 -0.745 0.643 219 201 173 0 0
6.9068 7.3073 -0.6130 -0.413 -0.859 0.302 220 201 173 0 0
6.9317 7.3062 -0.6019 -0.298 -0.603 0.739 216 199 171 0 0
7.5086 7.3601 -0.3546 0.455 -0.886 -0.094 228 209 181 0 0
7.6292 7.4293 -0.3086 -0.369 -0.867 -0.334 227 207 180 0 0
7.6890 7.4990 -0.2892 0.592 -0.486 0.643 231 214 188 0 0
7.7043 7.5186 -0.2844 0.498 -0.627 0.600 230 213 187 0 0
7.7454 7.5426 -0.2688 0.092 -0.475 0.875 228 211 185 0 0
7.7743 7.5680 -0.2586 0.803 -0.595 0.047 232 215 189 0 0
7.7897 7.5869 -0.2537 0.527 -0.769 0.362 231 214 188 0 0
7.8042 7.5992 -0.2486 0.331 -0.829 0.450 233 216 190 0 0
7.8176 7.6048 -0.2433 0.203 -0.867 0.455 233 215 188 0 0
7.8308 7.6088 -0.2379 0.493 -0.681 0.541 234 214 187 0 0
7.8455 7.6222 -0.2328 0.564 -0.511 0.649 229 210 184 0 0
7.8559 7.6088 -0.2269 0.374 -0.354 0.858 231 212 185 0 0
7.8723 7.6323 -0.2220 0.476 -0.330 0.815 235 218 190 0 0
7.8936 7.6848 -0.2179 0.670 -0.421 0.611 221 202 176 0 0
7.9117 7.7176 -0.2131 0.617 -0.439 0.653 212 192 167 0 0
7.9302 7.7521 -0.2084 0.585 -0.599 0.547 218 198 176 0 0
2.7290 7.1769 -2.4458 -0.110 -0.650 0.752 227 206 181 0 0
2.7764 7.2024 -2.4276 0.077 -0.723 0.686 225 205 178 0 0
2.7890 7.2070 -2.4226 0.454 -0.646 0.614 227 207 180 0 0
2.8253 7.2246 -2.4084 0.384 -0.872 0.303 225 205 177 0 0
2.8884 7.2104 -2.3794 -0.096 -0.610 0.787 226 207 181 0 0
3.1006 7.2571 -2.2910 0.214 -0.830 0.515 225 204 176 0 0
3.1127 7.2632 -2.2863 0.214 -0.830 0.515 225 204 175 0 0
3.1295 7.2564 -2.2783 0.164 -0.674 0.720 224 203 174 0 0
3.1384 7.2715 -2.2759 -0.128 -0.969 0.209 224 203 174 0 0
3.1536 7.2689 -2.2689 -0.360 -0.866 0.347 224 203 175 0 0
3.2684 7.3096 -2.2227 0.060 -0.684 0.727 223 204 174 0 0
3.4478 7.3290 -2.1461 0.179 -0.682 0.709 229 209 182 0 0
3.5583 7.3864 -2.1033 -0.088 -0.867 0.490 227 207 179 0 0
3.5889 7.3796 -2.0893 -0.438 -0.724 0.533 227 207 180 0 0
3.7845 7.3912 -2.0047 -0.441 -0.765 0.470 228 207 179 0 0
3.8197 7.4178 -1.9920 -0.006 -0.783 0.622 225 205 178 0 0
3.8337 7.4184 -1.9859 -0.286 -0.729 0.622 225 205 178 0 0
3.8633 7.4140 -1.9725 -0.118 -0.636 0.763 225 205 178 0 0
4.2623 7.4529 -1.8015 -0.180 -0.870 0.459 226 207 177 0 0
4.2766 7.4518 -1.7951 -0.250 -0.915 0.317 223 202 173 0 0
4.4808 7.4777 -1.7082 -0.328 -0.876 0.354 225 204 175 0 0
4.4935 7.4842 -1.7033 -0.063 -0.996 -0.055 227 206 177 0 0
4.6815 7.4439 -1.6169 0.364 -0.717 0.595 225 204 174 0 0
4.6936 7.4536 -1.6126 0.364 -0.717 0.595 229 206 175 0 0
4.7086 7.4466 -1.6053 0.602 -0.794 -0.089 222 201 170 0 0
4.9305 7.5238 -1.5158 0.165 -0.503 0.848 229 208 179 0 0
4.9424 7.5366 -1.5119 0.076 -0.588 0.805 225 202 171 0 0
4.9550 7.5447 -1.5072 -0.118 -0.627 0.770 223 199 168 0 0
4.9681 7.5493 -1.5018 -0.490 -0.716 0.497 214 191 159 0 0
4.9830 7.5417 -1.4946 -0.381 -0.636 0.671 216 190 161 0 0
4.9963 7.5450 -1.4891 -0.667 -0.466 -0.581 160 125 101 0 0
5.0316 9.6503 -1.6836 0.519 -0.785 -0.337 119 70 56 0 0
5.0637 9.6630 -1.6708 0.543 -0.771 -0.332 122 73 56 0 0
5.0795 9.6723 -1.6648 0.488 -0.777 -0.398 120 71 54 0 0
5.4728 9.7634 -1.5016 0.510 -0.808 -0.293 113 64 49 0 0
5.5521 9.8252 -1.4730 0.407 -0.910 -0.078 107 54 38 0 0
5.6176 9.8494 -1.4467 0.249 -0.965 -0.077 102 53 38 0 0
5.6989 9.8944 -1.4156 0.471 -0.791 0.391 107 59 43 0 0
5.8016 9.8464 -1.3658 0.198 -0.956 -0.215 109 59 45 0 0
5.8174 9.8656 -1.3608 0.351 -0.929 -0.120 102 53 38 0 0
5.8507 9.8680 -1.3465 0.031 -0.999 0.009 108 59 44 0 0
5.9815 9.9451 -1.2968 0.407 -0.872 -0.274 98 50 35 0 0
5.9981 9.9517 -1.2902 0.233 -0.964 -0.126 117 68 53 0 0
6.1590 8.2873 -1.0536 -0.941 -0.171 0.291 113 64 47 0 0
6.4611 7.5744 -0.8501 -0.535 -0.612 0.582 224 206 178 0 0
6.5248 7.4883 -0.8136 -0.463 -0.886 0.022 227 210 184 0 0
6.5376 7.4817 -0.8074 -0.463 -0.886 0.022 223 206 180 0 0
6.5503 7.4716 -0.8008 -0.613 -0.790 0.016 223 206 180 0 0
6.5631 7.4665 -0.7947 -0.233 -0.912 0.337 221 204 178 0 0
6.8987 7.2900 -0.6300 -0.299 -0.619 0.727 222 205 177 0 0
7.1948 7.2633 -0.4976 0.131 -0.958 0.256 219 200 171 0 0
7.2077 7.2695 -0.4926 0.372 -0.837 0.401 215 198 166 0 0
7.3605 7.3134 -0.4300 -0.242 -0.476 0.846 221 201 174 0 0
7.4072 7.2921 -0.4074 0.146 -0.936 0.321 219 198 171 0 0
7.5116 7.3400 -0.3665 0.263 -0.815 0.516 225 206 178 0 0
7.6251 7.4479 -0.3275 -0.699 -0.711 0.081 229 210 182 0 0
7.6325 7.4134 -0.3208 0.151 -0.869 -0.472 223 206 178 0 0
7.7074 7.5015 -0.2967 0.348 -0.523 0.778 230 213 187 0 0
7.7232 7.5235 -0.2920 0.217 -0.552 0.805 232 215 189 0 0
7.7364 7.5284 -0.2867 0.167 -0.530 0.831 233 216 190 0 0
7.7508 7.5408 -0.2817 0.167 -0.530 0.831 234 217 191 0 0
7.7870 7.5337 -0.2651 -0.233 -0.541 0.808 232 215 189 0 0
7.8027 7.5536 -0.2602 0.579 -0.673 0.461 232 215 189 0 0
7.8166 7.5627 -0.2550 0.496 -0.674 0.548 233 216 190 0 0
7.8318 7.5799 -0.2501 0.565 -0.657 0.499 229 210 185 0 0
7.8474 7.5988 -0.2451 0.321 -0.758 0.568 230 213 187 0 0
7.8618 7.6104 -0.2400 0.581 -0.507 0.637 231 214 188 0 0
7.8805 7.6475 -0.2355 0.778 -0.418 0.469 233 216 189 0 0
7.8973 7.6726 -0.2306 0.578 -0.443 0.685 233 214 187 0 0
7.9152 7.7042 -0.2259 0.638 -0.456 0.620 233 213 186 0 0
7.9328 7.7336 -0.2211 0.650 -0.466 0.600 214 193 166 0 0
7.9507 7.7638 -0.2163 0.745 -0.650 0.150 220 200 177 0 0
2.5705 7.1207 -2.5258 -0.247 -0.740 0.626 223 203 173 0 0
3.2425 7.2761 -2.2470 0.093 -0.846 0.525 226 205 179 0 0
3.2554 7.2803 -2.2417 0.067 -0.845 0.530 226 205 178 0 0
3.2792 7.2944 -2.2328 -0.087 -0.651 0.754 224 204 177 0 0
3.2919 7.2991 -2.2277 -0.134 -0.727 0.674 225 205 178 0 0
3.5239 7.3771 -2.1338 0.259 -0.705 0.661 224 204 177 0 0
3.5670 7.3762 -2.1148 -0.445 -0.740 0.504 232 211 182 0 0
3.8309 7.3977 -2.0013 0.084 -0.617 0.782 224 204 177 0 0
4.7013 7.4422 -1.6242 0.298 -0.667 0.682 225 204 173 0 0
4.8305 7.4938 -1.5728 -0.200 -0.718 0.666 229 211 183 0 0
4.9515 7.5135 -1.5217 0.155 -0.495 0.855 223 202 174 0 0
4.9657 7.5106 -1.5152 -0.097 -0.404 0.910 222 200 169 0 0
4.9780 7.5208 -1.5108 -0.338 -0.601 0.724 211 189 158 0 0
4.9918 7.5206 -1.5048 -0.185 -0.538 0.822 219 195 165 0 0
5.0056 7.5204 -1.4987 -0.515 -0.642 0.568 212 183 156 0 0
5.0203 9.6646 -1.7098 0.708 -0.696 0.120 113 64 49 0 0
5.0353 9.6803 -1.7049 0.581 -0.814 -0.014 109 60 44 0 0
5.0508 9.6913 -1.6991 0.581 -0.814 -0.014 128 79 63 0 0
5.0670 9.6970 -1.6926 0.431 -0.900 -0.069 123 74 57 0 0
5.0846 9.6903 -1.6843 0.493 -0.790 -0.365 125 76 59 0 0
5.1001 9.7019 -1.6786 0.321 -0.912 -0.255 126 77 60 0 0
5.2990 9.7261 -1.5939 0.273 -0.849 -0.453 98 48 34 0 0
5.3599 9.7981 -1.5745 0.113 -0.990 -0.079 116 65 47 0 0
5.3765 9.7999 -1.5674 0.052 -0.984 0.171 123 72 55 0 0
5.3930 9.8043 -1.5606 0.287 -0.956 0.055 105 56 40 0 0
5.4477 9.7478 -1.5309 0.470 -0.863 0.183 100 52 37 0 0
5.4950 9.7857 -1.5140 0.355 -0.874 0.332 105 59 42 0 0
5.5590 9.8293 -1.4903 0.291 -0.953 -0.081 101 51 34 0 0
5.7057 9.9012 -1.4333 0.452 -0.870 0.200 115 65 50 0 0
5.7222 9.9070 -1.4267 0.458 -0.888 0.037 110 60 46 0 0
5.7382 9.9212 -1.4211 0.501 -0.857 0.117 110 60 45 0 0
5.7587 9.8458 -1.4044 0.308 -0.941 0.137 125 76 59 0 0
5.7750 9.8543 -1.3982 0.502 -0.865 0.003 129 78 61 0 0
5.7913 9.8638 -1.3920 0.502 -0.865 0.003 105 54 39 0 0
5.8244 9.8696 -1.3781 0.423 -0.904 -0.057 104 56 41 0 0
5.8412 9.8659 -1.3703 -0.175 -0.978 -0.111 97 49 35 0 0
5.9551 9.9508 -1.3290 0.404 -0.875 -0.267 112 61 45 0 0
5.9882 9.9621 -1.3156 0.404 -0.875 -0.267 106 54 40 0 0
6.0370 10.0216 -1.3003 0.020 -0.928 -0.372 104 55 38 0 0
6.3220 7.6849 -0.9382 -0.498 -0.616 0.611 215 198 170 0 0
6.4667 7.5650 -0.8626 -0.425 -0.618 0.661 223 206 178 0 0
6.5299 7.4636 -0.8246 -0.201 -0.897 0.393 223 207 181 0 0
6.5426 7.4542 -0.8180 -0.217 -0.892 0.395 224 207 181 0 0
6.5554 7.4502 -0.8120 -0.287 -0.916 0.280 225 208 182 0 0
6.5682 7.4464 -0.8060 -0.009 -0.931 0.365 224 207 181 0 0
7.1738 7.2442 -0.5200 0.374 -0.861 0.344 217 200 172 0 0
7.1871 7.2542 -0.5152 0.216 -0.902 0.374 219 201 173 0 0
7.2001 7.2607 -0.5101 0.131 -0.958 0.256 222 202 173 0 0
7.2127 7.2638 -0.5049 0.131 -0.958 0.256 217 200 171 0 0
7.2392 7.2820 -0.4951 0.365 -0.728 0.581 213 194 163 0 0
7.2601 7.2458 -0.4823 0.191 -0.788 0.585 215 196 163 0 0
7.2728 7.2493 -0.4771 0.011 -0.898 0.439 219 199 167 0 0
7.2852 7.2511 -0.4718 -0.160 -0.861 0.482 223 204 173 0 0
7.6648 7.4267 -0.3232 0.364 -0.799 -0.479 228 211 183 0 0
7.6818 7.4587 -0.3190 0.736 -0.588 0.335 230 213 187 0 0
7.6976 7.4810 -0.3143 0.736 -0.588 0.335 232 215 190 0 0
7.7120 7.4944 -0.3094 0.412 -0.657 0.631 232 214 190 0 0
7.7261 7.5052 -0.3043 0.207 -0.528 0.823 233 216 190 0 0
7.7392 7.5100 -0.2990 0.167 -0.530 0.831 232 215 189 0 0
7.7546 7.5289 -0.2942 -0.096 -0.541 0.835 233 216 190 0 0
7.8830 7.6278 -0.2479 -0.071 -0.337 0.939 232 214 189 0 0
7.8983 7.6443 -0.2429 0.179 -0.353 0.918 231 214 188 0 0
7.9143 7.6648 -0.2380 0.483 -0.366 0.795 234 215 188 0 0
7.9367 7.7225 -0.2340 0.650 -0.466 0.600 236 216 189 0 0
7.9574 7.7694 -0.2297 0.784 -0.586 0.203 222 201 175 0 0
7.9738 7.7905 -0.2246 0.726 -0.630 -0.275 218 200 176 0 0
2.9260 7.1787 -2.3921 -0.278 -0.704 0.654 225 204 175 0 0
2.9676 7.1820 -2.3741 -0.255 -0.631 0.733 226 202 174 0 0
2.9814 7.1833 -2.3682 -0.278 -0.674 0.685 222 201 172 0 0
2.9957 7.1833 -2.3619 -0.279 -0.666 0.692 225 204 175 0 0
3.2024 7.2431 -2.2774 -0.228 -0.776 0.588 225 205 177 0 0
3.3193 7.2765 -2.2296 -0.216 -0.688 0.693 229 209 181 0 0
3.3654 7.3096 -2.2128 0.065 -0.574 0.816 227 205 177 0 0
3.5663 7.3502 -2.1288 -0.169 -0.629 0.759 225 206 177 0 0
3.7024 7.3705 -2.0712 -0.184 -0.857 0.482 221 200 171 0 0
3.7169 7.3694 -2.0647 -0.130 -0.832 0.540 227 206 179 0 0
4.3069 7.4297 -1.8121 -0.369 -0.737 0.566 225 205 176 0 0
4.7338 7.4463 -1.6265 -0.230 -0.809 0.540 229 209 180 0 0
4.7716 7.4674 -1.6121 -0.197 -0.668 0.717 225 206 178 0 0
4.7850 7.4695 -1.6064 -0.148 -0.669 0.728 228 208 181 0 0
4.7968 7.4814 -1.6024 -0.417 -0.815 0.403 229 209 182 0 0
4.8119 7.4739 -1.5951 -0.353 -0.764 0.540 228 208 181 0 0
4.8257 7.4733 -1.5889 -0.417 -0.815 0.403 228 209 181 0 0
4.8388 7.4777 -1.5836 -0.222 -0.779 0.587 226 208 180 0 0
4.8525 7.4783 -1.5777 -0.222 -0.779 0.587 226 206 179 0 0
4.8650 7.4863 -1.5730 -0.032 -0.758 0.651 227 207 181 0 0
4.9478 7.4843 -1.5365 -0.469 -0.566 0.678 226 206 179 0 0
5.0005 7.4999 -1.5150 -0.178 -0.455 0.873 217 195 164 0 0
5.0134 7.5057 -1.5099 -0.401 -0.577 0.712 223 200 171 0 0
5.0265 9.6716 -1.7277 0.612 -0.763 0.208 99 49 32 0 0
5.0418 9.6852 -1.7224 0.581 -0.814 -0.014 127 78 61 0 0
5.1233 9.7085 -1.6890 0.178 -0.934 -0.310 129 78 61 0 0
5.1402 9.7071 -1.6814 -0.046 -0.954 -0.295 128 77 60 0 0
5.2553 9.7319 -1.6335 0.280 -0.937 -0.211 118 71 55 0 0
5.2719 9.7333 -1.6263 0.379 -0.908 -0.177 117 69 54 0 0
5.2879 9.7416 -1.6202 0.459 -0.865 -0.203 112 62 48 0 0
5.5993 9.8344 -1.4931 0.257 -0.800 0.543 116 67 48 0 0
5.7292 9.9099 -1.4439 0.458 -0.888 0.037 120 68 55 0 0
5.7456 9.9174 -1.4375 0.594 -0.802 -0.068 122 71 56 0 0
5.7821 9.8558 -1.4151 0.436 -0.887 0.153 105 54 37 0 0
5.7984 9.8634 -1.4088 0.476 -0.860 0.183 106 54 39 0 0
5.8150 9.8667 -1.4018 0.423 -0.904 -0.057 100 51 36 0 0
5.8314 9.8739 -1.3954 0.423 -0.904 -0.057 107 59 44 0 0
6.0441 10.0289 -1.3181 0.020 -0.928 -0.372 104 53 36 0 0
6.3278 7.6685 -0.9500 -0.498 -0.616 0.611 221 204 175 0 0
6.4720 7.5386 -0.8734 0.228 -0.923 0.309 226 209 181 0 0
6.5481 7.4466 -0.8305 -0.410 -0.878 0.249 220 203 176 0 0
6.5609 7.4446 -0.8246 -0.287 -0.916 0.280 223 206 180 0 0
6.5737 7.4410 -0.8186 0.124 -0.947 0.297 223 205 180 0 0
6.6369 7.4050 -0.7872 -0.671 -0.715 0.198 216 198 168 0 0
7.1662 7.2357 -0.5375 0.216 -0.827 0.519 219 202 174 0 0
7.1780 7.2307 -0.5318 0.193 -0.760 0.620 219 202 174 0 0
7.1921 7.2492 -0.5275 -0.324 -0.946 0.031 219 201 174 0 0
7.2050 7.2547 -0.5224 -0.131 -0.984 0.117 222 203 174 0 0
7.2171 7.2529 -0.5169 0.002 -0.982 0.191 218 201 173 0 0
7.2293 7.2513 -0.5114 -0.256 -0.965 0.049 218 201 173 0 0
7.4160 7.2732 -0.4318 0.092 -0.952 0.293 225 206 176 0 0
7.4653 7.2762 -0.4104 -0.085 -0.917 0.390 225 205 179 0 0
7.6435 7.4120 -0.3463 -0.141 -0.824 0.549 228 211 182 0 0
7.6715 7.4344 -0.3363 0.377 -0.787 0.489 222 205 177 0 0
7.7145 7.4737 -0.3215 0.731 -0.641 -0.233 232 214 189 0 0
7.7439 7.5036 -0.3117 0.378 -0.874 -0.305 229 212 186 0 0
7.7593 7.5229 -0.3069 -0.733 -0.625 0.269 229 212 186 0 0
7.9168 7.6456 -0.2505 0.378 -0.347 0.859 233 216 190 0 0
7.9353 7.6805 -0.2459 0.507 -0.344 0.790 231 214 188 0 0
7.9547 7.7201 -0.2415 0.551 -0.361 0.752 235 216 191 0 0
7.9809 7.7981 -0.2381 0.783 -0.588 0.204 230 209 185 0 0
7.9986 7.8264 -0.2332 0.826 -0.561 -0.045 223 205 183 0 0
8.0136 7.8389 -0.2279 0.759 -0.594 -0.266 227 213 198 0 0
3.0271 7.1905 -2.3651 -0.322 -0.827 0.460 224 204 177 0 0
3.0424 7.1878 -2.3581 -0.386 -0.866 0.318 225 205 178 0 0
3.7251 7.3605 -2.0765 -0.130 -0.832 0.540 223 204 174 0 0
4.3841 7.4213 -1.7935 -0.421 -0.756 0.501 226 205 176 0 0
4.7415 7.4345 -1.6380 -0.351 -0.794 0.497 226 207 177 0 0
4.7558 7.4314 -1.6314 -0.366 -0.796 0.482 229 209 180 0 0
4.7797 7.4532 -1.6232 -0.197 -0.668 0.717 229 208 183 0 0
4.7931 7.4553 -1.6175 -0.197 -0.668 0.717 226 206 181 0 0
5.0243 7.4690 -1.5174 -0.012 -0.676 0.737 224 200 169 0 0
5.0375 7.4719 -1.5119 -0.374 -0.819 0.435 221 193 165 0 0
5.0183 9.6579 -1.7496 0.712 -0.660 -0.240 134 85 70 0 0
5.0483 9.6902 -1.7399 0.581 -0.814 -0.014 123 74 58 0 0
5.2120 9.7322 -1.6724 0.453 -0.781 -0.430 113 63 46 0 0
5.2617 9.7386 -1.6513 0.398 -0.874 -0.279 120 71 56 0 0
5.2780 9.7443 -1.6447 0.390 -0.920 -0.033 119 70 56 0 0
5.2925 9.7695 -1.6410 0.134 -0.990 -0.046 115 64 50 0 0
5.3089 9.7746 -1.6343 0.173 -0.969 -0.178 120 70 56 0 0
5.4061 9.8182 -1.5962 0.560 -0.782 -0.273 120 69 52 0 0
5.5895 9.8377 -1.5177 0.441 -0.894 -0.081 102 54 37 0 0
5.6399 9.8355 -1.4954 0.067 -0.862 0.503 114 64 46 0 0
5.6687 9.9182 -1.4914 -0.171 -0.953 -0.252 106 59 43 0 0
5.7024 9.9170 -1.4765 0.380 -0.879 -0.289 103 55 39 0 0
5.7557 9.8586 -1.4470 -0.061 -0.939 0.338 93 45 31 0 0
5.9854 9.9814 -1.3590 0.290 -0.866 -0.407 112 63 48 0 0
6.0177 10.0283 -1.3497 0.354 -0.876 -0.328 121 69 53 0 0
6.3867 7.6393 -0.9371 -0.578 -0.539 0.612 220 203 176 0 0
6.4647 7.5453 -0.8930 0.558 -0.829 -0.030 221 204 175 0 0
6.6296 7.4021 -0.8056 -0.653 -0.719 0.236 215 198 168 0 0
7.1228 7.2400 -0.5721 -0.337 -0.890 0.307 216 199 171 0 0
7.1717 7.2359 -0.5502 -0.025 -0.775 0.631 215 198 168 0 0
7.4209 7.2680 -0.4441 -0.069 -0.934 0.351 225 207 177 0 0
7.6487 7.4089 -0.3589 0.291 -0.838 0.461 227 208 183 0 0
7.7608 7.4963 -0.3188 0.007 -0.789 -0.615 230 213 185 0 0
7.7655 7.4470 -0.3116 -0.280 -0.675 0.683 230 213 185 0 0
7.8868 7.5825 -0.2726 0.184 -0.304 0.935 237 219 194 0 0
7.9031 7.6051 -0.2678 0.143 -0.310 0.940 234 217 191 0 0
7.9737 7.7233 -0.2492 0.365 -0.299 0.882 233 216 190 0 0
8.0068 7.8395 -0.2468 0.861 -0.502 0.077 230 212 189 0 0
8.0241 7.8648 -0.2419 0.731 -0.595 -0.333 222 205 186 0 0
8.0398 7.8812 -0.2367 0.282 -0.499 -0.819 228 214 200 0 0
3.4772 7.2619 -2.1911 -0.141 -0.803 0.579 225 204 174 0 0
3.4942 7.2530 -2.1827 -0.118 -0.923 0.366 228 209 179 0 0
4.3520 7.4024 -1.8218 -0.005 -0.703 0.712 225 204 175 0 0
4.3636 7.4134 -1.8179 0.462 -0.697 0.548 229 208 179 0 0
4.3784 7.4094 -1.8109 -0.250 -0.903 0.349 226 205 176 0 0
4.7003 7.3883 -1.6673 0.069 -0.653 0.755 226 204 176 0 0
4.8355 7.3989 -1.6090 0.194 -0.724 0.662 227 207 180 0 0
4.9110 7.4407 -1.5803 -0.050 -0.714 0.698 226 206 179 0 0
4.9241 7.4442 -1.5749 -0.106 -0.722 0.684 225 204 177 0 0
4.9383 7.4408 -1.5683 -0.306 -0.738 0.602 227 206 177 0 0
4.9796 7.4388 -1.5499 -0.521 -0.730 0.441 222 201 172 0 0
5.0318 7.4562 -1.5289 -0.003 -0.662 0.749 226 202 169 0 0
5.0447 7.4615 -1.5238 -0.070 -0.764 0.641 227 201 171 0 0
5.0239 9.6707 -1.7684 0.712 -0.660 -0.240 127 76 61 0 0
5.0402 9.6756 -1.7618 0.233 -0.813 -0.534 113 63 46 0 0
5.0548 9.6951 -1.7574 0.581 -0.814 -0.014 127 77 60 0 0
5.1189 9.7250 -1.7324 0.308 -0.947 -0.093 113 66 49 0 0
5.1352 9.7295 -1.7257 0.315 -0.944 0.099 131 82 66 0 0
5.1510 9.7401 -1.7200 0.537 -0.765 0.355 128 79 63 0 0
5.1832 9.7547 -1.7074 0.468 -0.883 0.028 116 67 53 0 0
5.2164 9.7593 -1.6932 0.228 -0.965 -0.130 119 70 54 0 0
5.2496 9.7647 -1.6793 -0.007 -0.997 -0.081 118 69 52 0 0
5.2828 9.7693 -1.6652 0.134 -0.990 -0.046 123 74 59 0 0
5.2994 9.7713 -1.6581 0.134 -0.990 -0.046 111 61 46 0 0
5.3158 9.7765 -1.6514 0.250 -0.937 -0.243 130 80 65 0 0
5.3326 9.7770 -1.6441 0.427 -0.871 -0.242 118 71 55 0 0
5.6757 9.9208 -1.5087 0.152 -0.950 -0.273 110 62 46 0 0
5.6925 9.9214 -1.5014 0.152 -0.950 -0.273 113 64 49 0 0
5.7092 9.9235 -1.4943 0.485 -0.824 -0.291 122 72 57 0 0
6.3923 7.6200 -0.9486 -0.677 -0.473 0.564 221 204 178 0 0
6.8074 7.2794 -0.7299 -0.400 -0.810 0.430 218 201 173 0 0
7.0272 7.2139 -0.6264 -0.227 -0.873 0.432 214 196 164 0 0
7.1635 7.2212 -0.5673 -0.227 -0.970 0.087 217 200 170 0 0
7.1894 7.2344 -0.5573 0.558 -0.692 0.458 215 198 168 0 0
7.3536 7.2754 -0.4895 0.374 -0.797 0.473 217 196 167 0 0
7.6266 7.3882 -0.3816 -0.572 -0.464 0.676 227 210 184 0 0
7.7112 7.4591 -0.3520 0.740 -0.418 0.528 225 209 183 0 0
7.7699 7.4389 -0.3241 -0.291 -0.768 0.571 224 207 179 0 0
7.8889 7.5611 -0.2848 0.149 -0.393 0.907 234 217 191 0 0
7.9026 7.5687 -0.2796 0.132 -0.401 0.906 233 216 190 0 0
7.9727 7.6846 -0.2612 0.591 -0.309 0.745 234 215 190 0 0
7.9993 7.7640 -0.2579 0.755 -0.365 0.544 233 216 190 0 0
8.0309 7.8706 -0.2554 0.831 -0.556 -0.009 231 213 191 0 0
8.0471 7.8890 -0.2503 0.735 -0.653 -0.180 229 213 195 0 0
8.1018 7.9075 -0.2282 -0.510 -0.505 -0.696 244 244 243 0 0
2.5857 7.0690 -2.5783 0.038 -0.726 0.687 225 205 180 0 0
3.5016 7.2472 -2.1950 -0.118 -0.923 0.366 227 206 177 0 0
4.1062 7.3446 -1.9398 0.190 -0.651 0.735 226 207 177 0 0
4.3746 7.3883 -1.8265 0.511 -0.690 0.512 230 208 180 0 0
4.3889 7.3866 -1.8200 -0.273 -0.792 0.546 229 206 177 0 0
4.3990 7.4042 -1.8175 -0.303 -0.837 0.456 230 207 177 0 0
4.6807 7.3761 -1.6906 -0.118 -0.777 0.618 225 206 176 0 0
4.7092 7.3701 -1.6774 -0.082 -0.863 0.498 227 203 175 0 0
4.9330 7.4230 -1.5847 -0.052 -0.707 0.705 224 204 177 0 0
4.9459 7.4283 -1.5797 -0.306 -0.738 0.602 223 202 173 0 0
4.9597 7.4275 -1.5735 -0.251 -0.839 0.483 225 204 175 0 0
4.9737 7.4247 -1.5670 0.011 -0.861 0.509 227 206 178 0 0
5.0518 7.4510 -1.5356 -0.050 -0.894 0.445 228 204 171 0 0
5.0654 7.4519 -1.5297 -0.204 -0.884 0.421 224 198 169 0 0
5.0290 9.6878 -1.7878 0.637 -0.732 -0.241 125 73 59 0 0
5.1256 9.7288 -1.7499 0.308 -0.947 -0.093 121 75 59 0 0
5.1419 9.7335 -1.7432 0.286 -0.956 -0.061 131 83 67 0 0
5.1583 9.7377 -1.7364 0.537 -0.765 0.355 115 68 53 0 0
5.1900 9.7578 -1.7247 0.468 -0.883 0.028 125 78 63 0 0
5.2068 9.7583 -1.7173 0.408 -0.912 -0.035 116 68 54 0 0
5.2229 9.7657 -1.7110 0.267 -0.949 -0.167 121 72 57 0 0
5.2387 9.7773 -1.7054 0.086 -0.996 -0.029 122 73 58 0 0
5.2547 9.7859 -1.6993 -0.138 -0.980 0.141 107 58 43 0 0
5.2733 9.7674 -1.6891 -0.186 -0.960 -0.209 105 56 41 0 0
5.2899 9.7690 -1.6819 -0.131 -0.987 0.098 119 70 55 0 0
5.3064 9.7726 -1.6751 -0.203 -0.964 0.170 112 61 46 0 0
5.3238 9.7660 -1.6667 0.168 -0.889 0.426 123 72 57 0 0
5.3397 9.7770 -1.6609 0.493 -0.797 0.350 92 46 30 0 0
5.3550 9.7949 -1.6561 0.552 -0.743 0.378 90 42 27 0 0
5.6528 9.8586 -1.5321 -0.312 -0.916 -0.252 106 60 44 0 0
5.6694 9.8615 -1.5251 0.214 -0.971 -0.110 102 58 40 0 0
7.3445 7.2545 -0.5064 -0.164 -0.689 0.706 221 200 171 0 0
7.4104 7.2927 -0.4815 -0.123 -0.683 0.720 218 198 168 0 0
7.4248 7.3102 -0.4771 0.071 -0.715 0.695 214 193 162 0 0
7.4293 7.2474 -0.4683 -0.168 -0.829 0.534 214 194 161 0 0
7.4415 7.2472 -0.4629 -0.350 -0.837 0.421 214 193 162 0 0
7.6560 7.3822 -0.3833 0.183 -0.594 0.783 229 212 185 0 0
7.6847 7.4098 -0.3736 0.443 -0.568 0.693 227 210 185 0 0
7.7006 7.4340 -0.3692 0.410 -0.524 0.746 227 211 185 0 0
7.7619 7.4309 -0.3420 0.140 -0.961 0.239 222 205 179 0 0
7.9162 7.5419 -0.2862 0.130 -0.479 0.868 231 215 189 0 0
8.0212 7.7829 -0.2661 0.796 -0.327 0.508 234 216 191 0 0
8.0491 7.8676 -0.2630 0.790 -0.460 0.406 233 215 193 0 0
8.0684 7.9036 -0.2584 0.701 -0.590 0.401 229 214 198 0 0
8.0831 7.9133 -0.2530 -0.094 -0.596 -0.798 239 233 222 0 0
8.1080 7.9092 -0.2416 -0.627 -0.435 -0.647 244 245 242 0 0
3.2103 7.1622 -2.3300 -0.430 -0.850 0.302 225 203 172 0 0
3.2231 7.1661 -2.3247 -0.418 -0.881 0.224 226 203 173 0 0
3.2397 7.1588 -2.3166 -0.443 -0.883 0.152 223 202 173 0 0
3.2518 7.1648 -2.3120 -0.176 -0.922 0.345 226 205 176 0 0
3.4814 7.2395 -2.2192 -0.050 -0.882 0.468 224 204 174 0 0
3.4951 7.2407 -2.2133 -0.118 -0.923 0.366 226 204 176 0 0
3.5090 7.2414 -2.2072 -0.118 -0.923 0.366 226 204 176 0 0
3.5532 7.2354 -2.1872 -0.367 -0.747 0.554 226 206 178 0 0
4.0606 7.2705 -1.9678 0.609 -0.669 0.426 225 204 174 0 0
4.1158 7.3283 -1.9499 -0.253 -0.826 0.504 224 205 175 0 0
4.1283 7.3343 -1.9451 -0.172 -0.706 0.687 228 207 178 0 0
4.2513 7.3434 -1.8919 -0.300 -0.655 0.694 212 191 162 0 0
4.2658 7.3408 -1.8853 -0.345 -0.718 0.604 220 199 171 0 0
4.3052 7.3507 -1.8690 -0.263 -0.737 0.623 225 204 174 0 0
4.7932 7.3920 -1.6589 -0.136 -0.947 0.292 226 205 178 0 0
4.8074 7.3887 -1.6523 -0.440 -0.875 0.200 228 207 180 0 0
4.8339 7.3942 -1.6412 -0.278 -0.925 0.260 231 211 184 0 0
4.9532 7.4171 -1.5912 0.068 -0.709 0.702 228 207 178 0 0
4.9663 7.4207 -1.5859 -0.163 -0.944 0.286 228 207 179 0 0
4.9801 7.4201 -1.5798 0.057 -0.935 0.350 230 209 182 0 0
5.0602 7.4317 -1.5458 0.029 -0.696 0.717 226 203 169 0 0
5.0721 7.4442 -1.5419 0.008 -0.891 0.455 226 201 171 0 0
5.0862 7.4404 -1.5353 -0.359 -0.930 -0.075 218 189 163 0 0
5.0843 9.7080 -1.7856 0.348 -0.804 -0.482 99 52 34 0 0
5.1163 9.7244 -1.7734 0.376 -0.821 -0.429 125 79 62 0 0
5.1320 9.7352 -1.7677 0.296 -0.938 -0.179 115 69 53 0 0
5.1967 9.7620 -1.7421 0.347 -0.937 0.035 122 76 61 0 0
5.2292 9.7739 -1.7291 0.126 -0.983 0.131 124 75 60 0 0
5.3452 9.7957 -1.6805 0.506 -0.814 -0.285 90 44 28 0 0
5.3612 9.8051 -1.6745 0.626 -0.780 0.015 111 63 48 0 0
5.3745 9.8491 -1.6735 0.325 -0.906 -0.271 137 84 69 0 0
5.4077 9.8560 -1.6597 0.365 -0.907 -0.211 112 60 45 0 0
5.4244 9.8589 -1.6526 0.301 -0.905 -0.301 126 73 57 0 0
6.4425 7.5421 -0.9499 -0.662 -0.695 0.281 222 205 181 0 0
6.9358 7.1642 -0.6913 -0.229 -0.893 0.386 205 186 156 0 0
6.9480 7.1628 -0.6858 -0.186 -0.894 0.407 209 191 161 0 0
6.9745 7.1886 -0.6769 0.104 -0.875 0.472 209 193 164 0 0
6.9872 7.1929 -0.6718 0.104 -0.875 0.472 210 193 165 0 0
6.9997 7.1955 -0.6666 -0.042 -0.874 0.485 212 195 167 0 0
7.0124 7.1994 -0.6615 -0.127 -0.867 0.481 212 195 165 0 0
7.3614 7.2471 -0.5132 0.332 -0.796 0.506 220 203 174 0 0
7.4208 7.2326 -0.4854 -0.050 -0.706 0.707 219 198 167 0 0
7.4336 7.2369 -0.4803 -0.050 -0.706 0.707 219 199 166 0 0
7.5754 7.2942 -0.4242 0.099 -0.791 0.603 226 209 183 0 0
7.6449 7.3524 -0.4000 -0.132 -0.713 0.688 223 205 181 0 0
7.6717 7.3676 -0.3899 0.504 -0.575 0.644 227 209 185 0 0
7.6890 7.4016 -0.3860 0.395 -0.654 0.645 228 211 188 0 0
7.8987 7.4792 -0.3023 -0.638 -0.663 -0.392 226 208 181 0 0
8.0168 7.7259 -0.2775 0.732 -0.271 0.625 233 216 190 0 0
8.0413 7.7921 -0.2740 0.683 -0.260 0.683 232 215 190 0 0
8.0686 7.8722 -0.2708 0.656 -0.338 0.675 230 213 194 0 0
8.0906 7.9222 -0.2667 -0.329 -0.862 -0.386 232 221 208 0 0
2.6538 7.0353 -2.5768 -0.137 -0.687 0.714 227 207 180 0 0
2.7298 7.0235 -2.5420 -0.229 -0.586 0.777 226 206 177 0 0
3.2604 7.1559 -2.3233 -0.381 -0.890 0.251 226 205 176 0 0
3.2857 7.1645 -2.3131 -0.286 -0.850 0.442 226 203 173 0 0
3.5747 7.2293 -2.1931 -0.077 -0.699 0.711 225 205 176 0 0
3.8622 7.2522 -2.0691 -0.093 -0.838 0.537 229 208 180 0 0
4.0698 7.3114 -1.9843 -0.434 -0.791 0.432 226 203 172 0 0
4.1113 7.3126 -1.9662 -0.431 -0.760 0.486 227 206 176 0 0
4.2757 7.3218 -1.8949 -0.444 -0.795 0.414 216 196 170 0 0
4.3134 7.3390 -1.8802 -0.248 -0.837 0.487 222 201 170 0 0
4.3830 7.3371 -1.8494 -0.258 -0.706 0.659 230 209 182 0 0
4.6232 7.3767 -1.7481 -0.285 -0.879 0.383 231 211 183 0 0
4.6663 7.3663 -1.7279 0.170 -0.733 0.658 225 204 176 0 0
4.6794 7.3701 -1.7226 0.131 -0.732 0.669 227 206 177 0 0
4.7644 7.3532 -1.6833 -0.240 -0.703 0.669 232 208 180 0 0
4.8411 7.3849 -1.6531 -0.494 -0.767 0.409 223 203 176 0 0
4.9484 7.3963 -1.6071 0.114 -0.743 0.659 228 208 181 0 0
5.0674 7.4202 -1.5574 0.029 -0.696 0.717 228 205 171 0 0
5.0787 7.4370 -1.5543 0.124 -0.932 0.341 228 204 172 0 0
5.0920 7.4397 -1.5487 -0.363 -0.919 -0.151 229 203 174 0 0
5.2698 9.7764 -1.7315 0.087 -0.971 -0.221 124 74 59 0 0
5.3353 9.7981 -1.7051 0.506 -0.814 -0.285 111 63 48 0 0
5.3647 9.8497 -1.6980 0.269 -0.936 -0.226 119 68 55 0 0
5.3810 9.8569 -1.6916 0.325 -0.906 -0.271 121 69 55 0 0
5.3976 9.8611 -1.6848 0.362 -0.909 -0.206 110 59 45 0 0
5.4143 9.8628 -1.6776 0.365 -0.907 -0.211 106 57 44 0 0
5.9444 10.0632 -1.4666 0.229 -0.928 -0.295 106 59 43 0 0
6.9530 7.1562 -0.6979 -0.186 -0.894 0.407 209 192 164 0 0
7.0948 7.2331 -0.6440 -0.214 -0.759 0.615 215 198 168 0 0
7.3061 7.2515 -0.5531 -0.142 -0.735 0.663 213 196 164 0 0
7.3309 7.2541 -0.5424 -0.683 -0.589 0.432 215 197 169 0 0
7.3428 7.2504 -0.5368 -0.655 -0.653 0.380 212 194 167 0 0
7.3674 7.2511 -0.5260 -0.090 -0.697 0.712 215 198 170 0 0
7.4374 7.2233 -0.4921 -0.164 -0.736 0.656 218 198 167 0 0
7.5799 7.2867 -0.4365 0.117 -0.792 0.599 226 206 181 0 0
7.5983 7.3307 -0.4333 -0.524 -0.734 0.432 224 204 179 0 0
7.6507 7.3537 -0.4128 0.024 -1.000 -0.011 224 206 178 0 0
7.6635 7.3578 -0.4076 0.398 -0.559 0.727 224 206 180 0 0
7.6760 7.3589 -0.4022 0.388 -0.567 0.726 225 208 182 0 0
7.6853 7.3396 -0.3960 0.167 -0.650 0.741 229 211 186 0 0
7.8314 7.4114 -0.3397 0.622 -0.514 0.591 226 209 183 0 0
7.8478 7.4363 -0.3352 0.622 -0.514 0.591 216 199 173 0 0
8.0900 7.8866 -0.2790 0.539 -0.266 0.799 231 214 200 0 0
8.1122 7.9377 -0.2749 -0.234 -0.966 0.113 239 232 223 0 0
8.1274 7.8814 -0.2619 -0.577 -0.420 -0.700 244 244 241 0 0
8.1421 7.8916 -0.2566 -0.809 -0.452 -0.376 245 245 243 0 0
2.7420 7.0072 -2.5508 -0.323 -0.607 0.726 226 205 177 0 0
2.9862 7.0698 -2.4504 -0.220 -0.686 0.693 224 204 175 0 0
3.2954 7.1523 -2.3235 -0.400 -0.728 0.556 226 203 172 0 0
3.5664 7.2287 -2.2128 -0.019 -0.996 0.086 225 204 175 0 0
3.5804 7.2287 -2.2066 0.181 -0.977 0.116 226 203 174 0 0
3.5969 7.2208 -2.1985 0.418 -0.839 0.348 225 202 172 0 0
3.7461 7.2376 -2.1347 -0.072 -0.677 0.733 228 209 180 0 0
3.9224 7.2567 -2.0592 -0.001 -0.894 0.449 226 205 178 0 0
3.9356 7.2594 -2.0537 -0.001 -0.894 0.449 230 209 182 0 0
3.9483 7.2640 -2.0486 0.031 -0.914 0.405 228 207 180 0 0
3.9612 7.2680 -2.0434 -0.086 -0.878 0.472 230 210 182 0 0
3.9754 7.2670 -2.0370 0.437 -0.691 0.576 227 208 178 0 0
4.0931 7.2965 -1.9885 -0.411 -0.784 0.466 229 206 177 0 0
4.1066 7.2979 -1.9827 -0.250 -0.948 0.198 226 204 173 0 0
4.1211 7.2955 -1.9761 -0.250 -0.948 0.198 225 204 175 0 0
4.1623 7.2975 -1.9582 -0.264 -0.797 0.543 227 204 175 0 0
4.3929 7.3171 -1.8588 -0.068 -0.601 0.796 227 206 178 0 0
4.5397 7.3397 -1.7967 -0.070 -0.687 0.724 229 208 179 0 0
4.6874 7.3565 -1.7335 -0.213 -0.744 0.633 229 208 181 0 0
4.9697 7.3825 -1.6121 -0.370 -0.696 0.616 220 200 171 0 0
4.9969 7.3824 -1.6002 -0.146 -0.758 0.636 224 204 178 0 0
5.0115 7.3751 -1.5929 -0.239 -0.728 0.643 228 208 181 0 0
5.0871 7.4173 -1.5644 0.621 -0.758 0.199 226 201 168 0 0
5.1002 7.4210 -1.5590 0.030 -0.975 0.222 230 205 174 0 0
5.1113 9.7456 -1.8178 0.539 -0.814 -0.217 116 69 51 0 0
5.1271 9.7565 -1.8121 0.229 -0.867 -0.443 119 74 57 0 0
5.1441 9.7555 -1.8045 0.240 -0.920 -0.311 120 74 59 0 0
5.3384 9.8452 -1.7291 0.157 -0.951 -0.266 117 70 54 0 0
5.3547 9.8528 -1.7228 0.269 -0.936 -0.226 128 79 65 0 0
5.4041 9.8684 -1.7028 0.407 -0.879 -0.248 120 71 58 0 0
5.4206 9.8742 -1.6962 0.407 -0.879 -0.248 110 63 49 0 0
5.5041 9.8877 -1.6609 0.553 -0.820 0.151 106 56 41 0 0
5.5207 9.8919 -1.6541 0.490 -0.871 0.034 121 70 56 0 0
5.8217 9.9322 -1.5261 -0.051 -0.949 -0.310 118 66 54 0 0
5.9685 10.0670 -1.4767 0.277 -0.904 -0.326 115 66 50 0 0
5.9856 10.0622 -1.4687 0.416 -0.856 -0.306 122 74 56 0 0
6.9219 7.1622 -0.7273 0.240 -0.942 0.235 209 191 163 0 0
6.9341 7.1599 -0.7216 -0.169 -0.947 0.273 210 192 164 0 0
6.9463 7.1589 -0.7161 -0.310 -0.900 0.307 211 193 165 0 0
7.1339 7.1955 -0.6376 -0.498 -0.689 0.526 213 195 165 0 0
7.3346 7.2377 -0.5540 -0.295 -0.803 0.517 213 195 167 0 0
7.3826 7.2295 -0.5320 -0.228 -0.883 0.410 218 201 173 0 0
7.4663 7.2160 -0.4936 0.102 -0.827 0.553 218 200 171 0 0
7.6014 7.3131 -0.4451 -0.348 -0.786 0.512 222 204 179 0 0
7.6128 7.3074 -0.4394 -0.114 -0.723 0.682 224 206 181 0 0
7.6254 7.3101 -0.4341 -0.134 -0.769 0.626 226 208 182 0 0
7.6396 7.3234 -0.4294 0.291 -0.784 0.548 225 207 181 0 0
7.6542 7.3395 -0.4248 0.078 -0.873 0.482 223 205 177 0 0
7.6683 7.3524 -0.4200 0.537 -0.710 0.456 221 203 175 0 0
7.7977 7.3961 -0.3680 -0.173 -0.779 0.603 231 214 188 0 0
7.8078 7.3829 -0.3620 0.125 -0.930 0.347 229 212 186 0 0
7.8507 7.4199 -0.3474 0.456 -0.420 0.785 229 212 186 0 0
8.0345 7.6904 -0.2971 0.630 -0.260 0.732 233 215 191 0 0
8.1132 7.9113 -0.2875 0.558 -0.280 0.781 235 221 209 0 0
8.1308 7.9364 -0.2826 0.280 -0.620 0.733 247 241 234 0 0
8.1454 7.8778 -0.2695 -0.493 -0.536 -0.685 245 245 243 0 0
2.9897 7.0381 -2.4612 0.133 -0.665 0.735 226 206 180 0 0
3.1665 7.0932 -2.3896 -0.191 -0.786 0.588 230 210 183 0 0
3.1833 7.0856 -2.3813 -0.254 -0.748 0.613 229 209 182 0 0
3.2063 7.1002 -2.3729 0.045 -0.848 0.528 228 205 177 0 0
3.2626 7.1407 -2.3527 -0.329 -0.870 0.366 227 207 180 0 0
3.5897 7.2167 -2.2173 0.129 -0.808 0.575 223 200 169 0 0
3.6221 7.2025 -2.2014 -0.163 -0.738 0.655 225 204 173 0 0
3.7387 7.2344 -2.1537 0.210 -0.698 0.685 226 207 177 0 0
3.8140 7.2149 -2.1182 0.382 -0.924 0.026 230 209 182 0 0
3.8234 7.2313 -2.1160 0.587 -0.799 -0.133 229 207 180 0 0
3.8755 7.2443 -2.0945 0.161 -0.972 0.174 227 206 177 0 0
3.9331 7.2373 -2.0683 -0.168 -0.985 0.042 224 204 177 0 0
3.9555 7.2578 -2.0608 0.220 -0.811 0.542 228 207 180 0 0
3.9689 7.2600 -2.0552 -0.105 -0.928 0.359 228 207 179 0 0
4.1200 7.2663 -1.9893 -0.217 -0.716 0.663 220 199 168 0 0
4.1350 7.2615 -1.9821 -0.182 -0.765 0.618 227 206 176 0 0
4.2911 7.3032 -1.9181 -0.334 -0.821 0.464 224 205 179 0 0
4.3054 7.3011 -1.9115 -0.334 -0.821 0.464 227 207 179 0 0
4.8372 7.3110 -1.6783 -0.439 -0.742 0.507 224 203 176 0 0
4.9142 7.3381 -1.6475 -0.002 -0.661 0.750 224 204 176 0 0
4.9388 7.3543 -1.6385 0.020 -0.654 0.756 227 208 178 0 0
5.0932 7.4141 -1.5773 0.647 -0.755 0.104 224 200 166 0 0
5.1037 7.4369 -1.5753 -0.754 -0.650 -0.094 226 202 170 0 0
5.0640 9.7795 -1.8626 0.467 -0.729 -0.501 122 75 60 0 0
5.6592 9.9537 -1.6203 0.278 -0.898 0.340 119 70 53 0 0
5.9586 10.0747 -1.5022 0.269 -0.920 -0.284 111 60 44 0 0
5.9755 10.0757 -1.4949 0.277 -0.904 -0.326 122 72 55 0 0
5.9926 10.0730 -1.4871 0.455 -0.855 -0.250 119 71 51 0 0
6.4067 7.4919 -1.0073 -0.422 -0.725 0.544 222 205 179 0 0
6.8781 7.1645 -0.7619 0.194 -0.928 0.318 205 185 154 0 0
6.9269 7.1555 -0.7393 -0.022 -0.938 0.347 210 193 165 0 0
6.9390 7.1523 -0.7336 0.123 -0.917 0.379 210 193 165 0 0
6.9514 7.1527 -0.7282 -0.064 -0.935 0.350 210 193 164 0 0
6.9888 7.1602 -0.7126 -0.093 -0.951 0.296 210 193 164 0 0
7.0012 7.1611 -0.7072 -0.069 -0.951 0.300 209 191 161 0 0
7.2340 7.1610 -0.6046 -0.100 -0.927 0.361 210 191 161 0 0
7.2578 7.1557 -0.5935 0.147 -0.929 0.340 213 196 166 0 0
7.3389 7.2275 -0.5660 -0.326 -0.757 0.566 216 199 170 0 0
7.3763 7.2328 -0.5502 0.089 -0.701 0.707 218 201 173 0 0
7.3893 7.2395 -0.5452 0.089 -0.701 0.707 217 200 172 0 0
7.4253 7.2343 -0.5287 -0.636 -0.647 0.421 219 201 173 0 0
7.4832 7.2105 -0.5004 -0.012 -0.810 0.586 218 201 171 0 0
7.6535 7.2972 -0.4354 0.240 -0.848 0.473 224 207 179 0 0
7.7998 7.3745 -0.3798 0.158 -0.959 0.237 229 212 186 0 0
7.8128 7.3789 -0.3746 0.125 -0.930 0.347 227 210 184 0 0
7.8955 7.4336 -0.3444 0.157 -0.786 0.598 227 208 183 0 0
8.0566 7.7109 -0.3053 0.576 -0.238 0.782 232 214 190 0 0
8.0819 7.7795 -0.3021 0.565 -0.204 0.800 230 214 192 0 0
8.1383 7.9449 -0.2963 0.526 -0.247 0.814 240 231 223 0 0
8.1512 7.9451 -0.2906 0.282 -0.472 0.835 246 245 241 0 0
8.1547 7.8955 -0.2834 -0.643 -0.586 -0.494 245 244 241 0 0
8.1626 7.8702 -0.2769 -0.930 -0.365 0.047 245 245 242 0 0
2.9221 7.0080 -2.5034 -0.337 -0.907 0.254 222 203 173 0 0
2.9385 7.0020 -2.4955 -0.416 -0.903 0.111 221 202 170 0 0
3.0638 7.0426 -2.4450 -0.233 -0.672 0.703 225 206 178 0 0
3.3748 7.1163 -2.3165 0.087 -0.770 0.632 227 207 180 0 0
3.3849 7.1280 -2.3134 -0.258 -0.719 0.646 227 206 179 0 0
3.8230 7.2025 -2.1288 0.462 -0.727 0.507 228 207 180 0 0
3.8329 7.2169 -2.1261 0.151 -0.894 0.421 229 209 181 0 0
3.8466 7.2177 -2.1202 0.225 -0.812 0.538 228 208 179 0 0
3.8737 7.2203 -2.1085 -0.018 -0.881 0.473 229 208 181 0 0
3.8869 7.2230 -2.1030 -0.018 -0.881 0.473 231 210 183 0 0
3.8904 7.2617 -2.1060 -0.437 -0.692 0.575 232 211 184 0 0
3.9389 7.2366 -2.0817 -0.227 -0.974 0.014 228 207 180 0 0
3.9540 7.2321 -2.0745 -0.296 -0.938 0.178 227 206 179 0 0
3.9800 7.2388 -2.0638 -0.275 -0.767 0.580 228 206 178 0 0
4.7628 7.3024 -1.7260 0.072 -0.726 0.684 228 205 177 0 0
4.8947 7.3253 -1.6705 -0.476 -0.770 0.425 226 207 178 0 0
5.0996 7.4082 -1.5898 0.656 -0.754 0.028 224 199 167 0 0
5.1375 9.7937 -1.8519 0.552 -0.798 0.242 103 57 40 0 0
5.2365 9.8197 -1.8113 0.187 -0.851 -0.490 121 73 59 0 0
5.3026 9.8375 -1.7842 0.367 -0.872 -0.323 117 71 55 0 0
5.3343 9.8626 -1.7731 0.303 -0.921 -0.245 114 65 51 0 0
5.3505 9.8716 -1.7671 0.397 -0.916 -0.057 115 67 53 0 0
5.3669 9.8783 -1.7606 0.397 -0.916 -0.057 107 60 45 0 0
5.4835 9.9036 -1.7121 -0.200 -0.970 -0.140 121 72 57 0 0
5.5175 9.9009 -1.6968 0.412 -0.906 -0.097 111 58 43 0 0
5.7816 10.0196 -1.5942 0.322 -0.852 -0.414 129 78 63 0 0
5.7984 10.0230 -1.5872 0.476 -0.805 -0.354 114 63 48 0 0
5.9013 9.9848 -1.5373 0.326 -0.897 -0.299 123 75 61 0 0
5.9515 9.9952 -1.5164 0.091 -0.995 0.050 117 66 53 0 0
6.1350 8.2857 -1.2357 -0.971 -0.233 0.056 110 64 48 0 0
6.8582 7.1541 -0.7845 0.172 -0.942 0.287 202 183 151 0 0
6.8708 7.1588 -0.7795 0.030 -0.973 0.228 204 184 152 0 0
6.8833 7.1613 -0.7742 0.222 -0.906 0.359 205 184 153 0 0
6.8954 7.1562 -0.7683 -0.062 -0.955 0.290 210 190 160 0 0
6.9079 7.1589 -0.7631 -0.122 -0.992 -0.030 215 196 167 0 0
6.9197 7.1506 -0.7570 -0.207 -0.964 0.169 211 193 164 0 0
6.9318 7.1480 -0.7513 -0.052 -0.993 0.104 208 191 162 0 0
6.9442 7.1479 -0.7458 -0.052 -0.993 0.104 212 195 165 0 0
6.9809 7.1460 -0.7294 -0.168 -0.871 0.462 211 192 162 0 0
7.1306 7.1735 -0.6666 0.317 -0.882 0.350 212 195 167 0 0
7.1427 7.1721 -0.6611 0.104 -0.963 0.248 216 199 170 0 0
7.1792 7.1693 -0.6447 -0.280 -0.925 0.256 214 194 165 0 0
7.3060 7.2123 -0.5938 -0.326 -0.795 0.512 214 195 165 0 0
7.3556 7.2185 -0.5726 0.010 -0.837 0.546 216 199 171 0 0
7.3670 7.2111 -0.5667 -0.303 -0.747 0.592 218 201 173 0 0
7.3805 7.2218 -0.5621 -0.247 -0.639 0.729 216 199 171 0 0
7.6582 7.2917 -0.4477 0.240 -0.848 0.473 223 206 178 0 0
7.6706 7.2931 -0.4424 0.370 -0.845 0.385 224 207 179 0 0
7.6828 7.2931 -0.4370 0.181 -0.647 0.740 223 206 179 0 0
7.8035 7.3627 -0.3919 0.463 -0.809 0.363 228 211 185 0 0
7.8176 7.3742 -0.3871 0.111 -0.942 0.316 228 211 185 0 0
7.8350 7.4057 -0.3831 0.494 -0.850 0.183 228 211 185 0 0
7.8512 7.4292 -0.3787 0.634 -0.764 0.123 230 213 187 0 0
7.8656 7.4419 -0.3738 0.634 -0.764 0.123 230 213 187 0 0
7.8817 7.3918 -0.3609 -0.147 -0.550 0.822 233 216 190 0 0
7.9021 7.4395 -0.3574 0.331 -0.733 0.595 233 215 191 0 0
8.0102 7.5622 -0.3241 0.199 -0.248 0.948 230 213 188 0 0
8.0544 7.6676 -0.3169 0.576 -0.238 0.782 232 214 189 0 0
8.0778 7.7261 -0.3134 0.666 -0.227 0.710 231 215 191 0 0
8.1052 7.8052 -0.3106 0.563 -0.215 0.798 230 214 195 0 0
8.1339 7.8901 -0.3078 0.523 -0.220 0.823 235 223 212 0 0
8.1581 7.9500 -0.3042 0.393 -0.240 0.888 245 241 233 0 0
8.1666 7.9274 -0.2978 -0.084 -0.426 0.901 246 245 240 0 0
8.1789 7.9246 -0.2920 -0.249 -0.402 0.881 245 245 241 0 0
8.1851 7.8902 -0.2853 -0.652 -0.166 0.740 245 245 242 0 0
8.2099 7.9515 -0.2815 -0.283 -0.335 0.899 245 245 243 0 0
2.6567 6.9786 -2.6330 -0.292 -0.637 0.714 224 204 177 0 0
2.7580 6.9733 -2.5877 -0.356 -0.730 0.583 224 204 175 0 0
2.9218 6.9866 -2.5170 0.400 -0.622 0.673 225 205 175 0 0
2.9289 7.0046 -2.5160 -0.520 -0.846 0.118 224 205 175 0 0
2.9459 6.9971 -2.5076 -0.416 -0.903 0.111 223 204 173 0 0
3.1554 7.0375 -2.4199 -0.182 -0.702 0.689 227 207 178 0 0
3.4093 7.1134 -2.3169 -0.239 -0.848 0.474 221 201 174 0 0
3.5805 7.1461 -2.2452 -0.057 -0.728 0.684 225 205 176 0 0
3.6824 7.1781 -2.2040 -0.394 -0.687 0.610 227 206 178 0 0
3.9606 7.2280 -2.0871 -0.271 -0.771 0.577 230 209 180 0 0
3.9752 7.2255 -2.0804 -0.205 -0.807 0.554 229 208 179 0 0
3.9887 7.2270 -2.0746 -0.157 -0.782 0.603 224 201 171 0 0
4.4115 7.2443 -1.8901 0.237 -0.725 0.646 228 205 176 0 0
4.4229 7.2552 -1.8864 -0.148 -0.869 0.472 226 204 177 0 0
4.4742 7.2713 -1.8656 0.412 -0.868 0.276 230 210 183 0 0
4.4870 7.2757 -1.8605 0.309 -0.899 0.311 229 208 181 0 0
4.4992 7.2833 -1.8560 0.504 -0.755 0.419 230 209 182 0 0
4.8314 7.2502 -1.7055 -0.489 -0.839 -0.240 227 206 179 0 0
5.1132 7.3488 -1.5928 0.669 -0.529 0.522 225 202 170 0 0
5.1450 9.7900 -1.8682 -0.268 -0.934 -0.236 102 55 40 0 0
5.1768 9.8104 -1.8566 0.427 -0.807 -0.408 110 64 50 0 0
5.1927 9.8211 -1.8509 0.329 -0.853 -0.406 94 49 34 0 0
5.2083 9.8353 -1.8457 0.118 -0.924 -0.363 115 67 53 0 0
5.2253 9.8344 -1.8380 0.118 -0.924 -0.363 118 68 54 0 0
5.2424 9.8331 -1.8303 0.077 -0.879 -0.470 114 67 53 0 0
5.2591 9.8364 -1.8234 0.325 -0.836 -0.442 100 55 40 0 0
5.5384 9.9496 -1.7135 0.286 -0.861 -0.420 125 72 56 0 0
5.7214 10.0109 -1.6400 0.388 -0.886 -0.253 128 74 57 0 0
5.7544 10.0298 -1.6277 0.211 -0.850 -0.482 125 72 56 0 0
5.7715 10.0290 -1.6201 0.316 -0.831 -0.458 117 64 49 0 0
5.8076 9.9793 -1.5982 0.432 -0.824 -0.367 125 70 56 0 0
5.8738 10.0130 -1.5730 0.299 -0.886 -0.354 126 75 61 0 0
5.9417 10.0017 -1.5417 0.063 -0.966 -0.250 118 69 55 0 0
5.9587 9.9950 -1.5334 0.091 -0.995 0.050 110 60 46 0 0
6.0232 10.1056 -1.5181 0.327 -0.839 -0.435 111 62 45 0 0
6.5213 7.4441 -0.9826 -0.741 -0.662 0.108 221 202 174 0 0
6.5339 7.4306 -0.9754 -0.686 -0.726 -0.054 219 202 174 0 0
6.8761 7.1551 -0.7918 0.172 -0.942 0.287 210 191 160 0 0
6.9735 7.1384 -0.7468 -0.254 -0.912 0.323 211 193 163 0 0
7.1459 7.1479 -0.6718 -0.060 -0.872 0.486 211 194 164 0 0
7.1584 7.1499 -0.6666 -0.060 -0.872 0.486 210 193 163 0 0
7.1723 7.1683 -0.6626 0.041 -0.979 0.202 211 194 164 0 0
7.2083 7.1610 -0.6458 -0.192 -0.981 0.010 210 192 162 0 0
7.2202 7.1584 -0.6403 -0.209 -0.966 0.152 211 194 164 0 0
7.2325 7.1586 -0.6349 -0.162 -0.969 0.184 211 194 164 0 0
7.3104 7.2027 -0.6057 -0.418 -0.602 0.680 210 191 161 0 0
7.3474 7.2054 -0.5897 -0.272 -0.685 0.676 213 195 165 0 0
7.3596 7.2054 -0.5843 0.016 -0.689 0.725 213 196 168 0 0
7.3971 7.2133 -0.5687 -0.568 -0.671 0.477 215 198 168 0 0
7.4788 7.1858 -0.5294 0.126 -0.839 0.529 216 199 169 0 0
7.6932 7.3253 -0.4513 0.588 -0.592 0.552 223 206 180 0 0
7.7956 7.3551 -0.4097 0.435 -0.671 0.600 225 209 184 0 0
7.8094 7.3647 -0.4047 0.534 -0.718 0.446 228 211 185 0 0
7.8641 7.3995 -0.3847 -0.277 -0.886 0.372 230 213 187 0 0
7.8868 7.3894 -0.3735 -0.533 -0.827 -0.180 230 213 188 0 0
7.9767 7.4820 -0.3448 0.570 -0.802 -0.179 214 197 169 0 0
7.9888 7.4811 -0.3393 0.017 -0.969 -0.248 210 192 166 0 0
8.0085 7.5216 -0.3354 0.393 -0.340 0.854 225 205 181 0 0
8.0290 7.5657 -0.3316 0.585 -0.271 0.764 231 211 187 0 0
8.0522 7.6244 -0.3283 0.673 -0.268 0.689 233 215 189 0 0
8.0760 7.6855 -0.3251 0.706 -0.250 0.663 232 216 190 0 0
8.1282 7.8285 -0.3190 0.379 -0.198 0.904 231 216 202 0 0
8.1551 7.9032 -0.3160 0.334 -0.205 0.920 241 233 222 0 0
2.9829 6.9880 -2.5061 -0.387 -0.753 0.532 224 204 176 0 0
3.0349 6.9989 -2.4844 -0.102 -0.751 0.653 226 206 182 0 0
3.0609 7.0043 -2.4736 -0.177 -0.648 0.741 222 202 173 0 0
3.0712 7.0142 -2.4702 -0.092 -0.694 0.715 224 203 175 0 0
3.0849 7.0152 -2.4643 -0.251 -0.784 0.567 224 203 175 0 0
3.0960 7.0230 -2.4603 -0.007 -0.751 0.661 228 207 179 0 0
3.3116 7.0871 -2.3729 -0.396 -0.841 0.369 226 204 173 0 0
3.3367 7.0955 -2.3628 -0.344 -0.814 0.469 223 201 170 0 0
3.3802 7.0912 -2.3431 0.175 -0.700 0.693 225 203 174 0 0
3.4185 7.1021 -2.3274 -0.165 -0.685 0.710 226 205 178 0 0
3.5371 7.1238 -2.2777 -0.509 -0.752 0.419 229 209 181 0 0
3.6651 7.1612 -2.2256 -0.059 -0.649 0.758 229 206 177 0 0
3.6947 7.1554 -2.2119 -0.301 -0.659 0.689 226 206 179 0 0
3.7056 7.1655 -2.2083 -0.163 -0.643 0.748 226 206 179 0 0
4.2397 7.2396 -1.9813 0.021 -0.997 0.076 224 203 175 0 0
4.2946 7.2403 -1.9572 -0.288 -0.958 0.007 225 204 175 0 0
4.4188 7.2363 -1.9018 0.237 -0.725 0.646 224 205 175 0 0
4.4708 7.2489 -1.8804 -0.263 -0.673 0.691 228 208 182 0 0
4.4843 7.2493 -1.8744 -0.240 -0.732 0.637 227 207 182 0 0
4.4965 7.2566 -1.8699 -0.334 -0.780 0.529 230 209 183 0 0
4.5194 7.2786 -1.8625 0.481 -0.737 0.475 229 209 182 0 0
4.5640 7.2604 -1.8406 0.266 -0.581 0.770 227 207 178 0 0
4.8990 7.2834 -1.6954 -0.100 -0.847 0.521 223 204 174 0 0
4.9113 7.2914 -1.6910 -0.379 -0.813 0.442 228 209 181 0 0
4.9252 7.2884 -1.6844 -0.379 -0.813 0.442 225 205 177 0 0
5.0980 9.8206 -1.9127 -0.000 -1.000 -0.002 117 72 57 0 0
5.1661 9.8191 -1.8825 0.434 -0.788 -0.438 120 72 58 0 0
5.1826 9.8244 -1.8758 0.276 -0.815 -0.510 111 66 53 0 0
5.2317 9.8424 -1.8563 0.118 -0.924 -0.363 133 84 70 0 0
5.2488 9.8416 -1.8487 0.118 -0.924 -0.363 95 52 36 0 0
5.2649 9.8511 -1.8427 0.548 -0.803 -0.233 69 31 14 0 0
5.4295 9.9120 -1.7773 0.016 -0.935 -0.354 129 77 60 0 0
5.5614 9.9681 -1.7258 0.390 -0.878 -0.276 115 60 47 0 0
5.7780 10.0446 -1.6394 0.230 -0.856 -0.463 123 70 53 0 0
6.0303 10.1130 -1.5362 0.212 -0.898 -0.386 124 76 60 0 0
6.5268 7.4348 -0.9948 -0.706 -0.706 0.061 220 201 173 0 0
6.5514 7.3854 -0.9779 -0.428 -0.527 0.734 219 202 172 0 0
6.8429 7.1296 -0.8184 0.289 -0.881 0.373 206 189 159 0 0
6.9689 7.1686 -0.7675 -0.222 -0.913 0.342 207 190 160 0 0
6.9803 7.1564 -0.7610 -0.093 -0.995 0.019 208 189 159 0 0
7.2608 7.1438 -0.6356 -0.100 -0.930 0.354 214 196 166 0 0
7.3147 7.1912 -0.6175 -0.446 -0.581 0.681 211 192 162 0 0
7.3648 7.2026 -0.5967 0.102 -0.486 0.868 215 198 170 0 0
7.3706 7.1487 -0.5877 0.003 -0.891 0.453 212 195 167 0 0
7.4759 7.2146 -0.5491 0.053 -0.844 0.533 215 198 168 0 0
7.4838 7.1817 -0.5417 0.152 -0.866 0.476 215 198 168 0 0
7.5343 7.1972 -0.5212 0.109 -0.817 0.566 219 200 168 0 0
7.6297 7.2714 -0.4880 0.368 -0.731 0.575 225 206 179 0 0
7.7585 7.3173 -0.4366 0.076 -0.907 0.415 224 207 183 0 0
