ply
format ascii 1.0
element vertex 819
property float x
property float y
property float z
property float nx
property float ny
property float nz
property uchar diffuse_red
property uchar diffuse_green
property uchar diffuse_blue
property uchar class
property uchar detection
end_header
7.0562 7.1487 -0.5779 -0.362 -0.880 0.309 215 199 173 0 0
7.0717 7.1423 -0.5781 -0.362 -0.880 0.309 216 200 174 0 0
7.2275 7.1007 -0.5783 -0.376 -0.887 0.269 219 203 177 0 0
7.2675 7.0970 -0.5777 -0.361 -0.879 0.311 220 204 178 0 0
7.3166 7.0798 -0.5781 -0.205 -0.853 0.479 220 203 178 0 0
7.4025 7.0778 -0.5763 -0.581 -0.572 0.580 222 206 181 0 0
7.4386 7.0696 -0.5762 -0.187 -0.792 0.581 223 207 182 0 0
2.6321 11.9536 -0.2545 -0.759 -0.043 0.650 245 244 240 0 0
3.6769 10.8399 -0.3328 -0.403 -0.507 0.762 182 131 112 0 0
3.7003 10.8482 -0.3315 -0.061 -0.703 0.708 178 129 111 0 0
3.7204 10.8468 -0.3312 -0.061 -0.703 0.708 188 139 121 0 0
4.4001 10.5043 -0.3470 -0.353 -0.542 0.763 198 147 128 0 0
4.4162 10.4924 -0.3477 -0.529 -0.470 0.706 198 147 128 0 0
4.4307 10.4769 -0.3488 -0.493 -0.506 0.707 194 143 124 0 0
4.4856 10.4569 -0.3493 -0.422 -0.490 0.763 183 130 110 0 0
4.5133 10.4719 -0.3473 -0.279 -0.576 0.768 195 143 122 0 0
4.5225 10.4441 -0.3497 0.187 -0.866 0.464 187 135 114 0 0
5.4205 10.0199 -0.3679 -0.392 -0.550 0.738 190 138 117 0 0
5.7989 9.8990 -0.3702 -0.126 -0.705 0.698 207 160 141 0 0
5.8242 9.9037 -0.3692 -0.279 -0.759 0.588 197 147 129 0 0
6.0766 9.8316 -0.3700 -0.326 -0.941 0.087 156 102 80 0 0
6.0883 9.8132 -0.3714 -0.568 -0.823 0.021 161 108 86 0 0
6.1042 9.8016 -0.3721 -0.508 -0.857 0.085 176 124 100 0 0
6.1730 9.8393 -0.3670 -0.084 -0.986 0.145 168 116 94 0 0
6.7888 9.0013 -0.4299 -0.613 0.066 0.787 249 249 247 0 0
6.7559 8.8613 -0.4436 -0.594 0.100 0.798 250 251 248 0 0
6.4600 7.8834 -0.5406 -0.584 -0.584 0.564 222 201 173 0 0
6.4959 7.7136 -0.5554 -0.579 -0.806 0.119 225 204 175 0 0
6.5092 7.7037 -0.5560 -0.388 -0.920 0.054 225 204 175 0 0
6.6145 7.4960 -0.5727 -0.377 -0.624 0.684 221 204 176 0 0
6.6778 7.3956 -0.5805 -0.832 -0.545 0.100 220 201 174 0 0
6.7326 7.3607 -0.5824 0.037 -0.991 -0.125 220 203 176 0 0
7.0671 7.1377 -0.5952 -0.435 -0.893 0.115 215 199 173 0 0
7.2705 7.0777 -0.5960 -0.240 -0.915 0.325 218 201 175 0 0
7.3085 7.0718 -0.5957 -0.205 -0.853 0.479 220 203 178 0 0
7.4060 7.0818 -0.5925 -0.663 -0.717 0.214 220 204 181 0 0
7.4435 7.0750 -0.5923 -0.183 -0.959 0.218 226 210 185 0 0
7.4541 7.0632 -0.5931 -0.061 -0.894 0.444 224 208 183 0 0
7.4680 7.0549 -0.5935 -0.303 -0.936 0.178 223 207 183 0 0
7.4875 7.0521 -0.5933 -0.289 -0.830 0.477 225 209 186 0 0
8.2487 7.4655 -0.5375 0.435 -0.692 0.576 253 254 250 0 0
2.4213 11.3126 -0.3377 -0.616 -0.346 -0.708 245 244 240 0 0
2.6911 11.4556 -0.3187 -0.351 -0.288 0.891 191 161 147 0 0
3.1043 11.0725 -0.3441 -0.248 -0.617 0.747 178 126 105 0 0
3.3459 10.9446 -0.3503 -0.209 -0.694 0.689 181 131 110 0 0
3.3634 10.9363 -0.3506 -0.341 -0.642 0.687 199 151 128 0 0
3.3828 10.9340 -0.3504 -0.363 -0.595 0.717 176 127 102 0 0
3.7267 10.7501 -0.3593 -0.289 -0.740 0.608 194 142 122 0 0
3.7446 10.7429 -0.3596 -0.289 -0.740 0.608 186 135 114 0 0
3.7626 10.7359 -0.3598 -0.290 -0.753 0.590 187 135 114 0 0
3.7808 10.7296 -0.3600 -0.503 -0.564 0.655 190 138 117 0 0
3.7976 10.7193 -0.3605 -0.348 -0.629 0.695 187 136 115 0 0
3.8164 10.7146 -0.3605 -0.297 -0.634 0.714 177 125 104 0 0
3.9890 10.6798 -0.3598 -0.502 -0.568 0.652 184 131 109 0 0
4.0737 10.6301 -0.3624 -0.323 -0.651 0.687 177 126 105 0 0
5.4090 9.9990 -0.3895 -0.392 -0.550 0.738 184 132 111 0 0
5.4474 9.9885 -0.3896 -0.258 -0.581 0.772 196 144 123 0 0
5.7281 9.8541 -0.3955 -0.039 -0.636 0.771 199 153 134 0 0
6.1742 9.8420 -0.3865 -0.388 -0.874 0.293 165 113 92 0 0
6.5073 9.8907 -0.3746 0.216 -0.954 -0.209 149 101 87 0 0
7.4101 10.5492 -0.2944 0.708 -0.687 -0.166 249 249 247 0 0
6.7472 8.9761 -0.4522 -0.433 -0.057 0.900 250 250 248 0 0
6.7204 8.8133 -0.4675 -0.620 0.143 0.771 250 251 246 0 0
6.5121 7.6814 -0.5749 -0.068 -0.880 0.469 224 204 177 0 0
6.5096 7.6259 -0.5800 -0.618 -0.632 0.467 228 209 182 0 0
6.6789 7.3973 -0.5970 -0.645 -0.750 0.148 221 204 176 0 0
7.0478 7.1405 -0.6119 -0.209 -0.927 0.312 212 196 170 0 0
7.4457 7.0551 -0.6107 -0.061 -0.894 0.444 219 203 178 0 0
7.4635 7.0507 -0.6107 -0.391 -0.817 0.423 221 205 180 0 0
7.4811 7.0460 -0.6107 0.011 -0.998 0.059 222 206 183 0 0
7.5093 7.0522 -0.6095 -0.145 -0.850 0.506 224 208 185 0 0
8.2730 7.4662 -0.5547 0.433 -0.689 0.581 253 253 251 0 0
8.4560 7.5967 -0.5388 0.431 -0.678 0.596 253 254 253 0 0
2.4965 11.7228 -0.3187 -0.125 -0.333 0.935 246 243 240 0 0
2.5342 11.7988 -0.3111 -0.123 -0.259 0.958 246 244 240 0 0
3.0249 11.0744 -0.3651 -0.320 -0.635 0.703 165 117 98 0 0
3.1667 11.0149 -0.3673 -0.293 -0.648 0.703 185 136 115 0 0
3.5532 10.8381 -0.3746 -0.272 -0.592 0.759 168 110 87 0 0
3.5691 10.8252 -0.3754 -0.261 -0.756 0.601 187 130 106 0 0
3.7894 10.6978 -0.3820 -0.195 -0.598 0.778 182 132 113 0 0
3.8082 10.6932 -0.3820 -0.300 -0.563 0.770 193 143 123 0 0
3.9816 10.6612 -0.3811 -0.605 -0.487 0.630 185 129 109 0 0
4.0662 10.6119 -0.3836 -0.318 -0.812 0.489 184 132 112 0 0
4.0842 10.6047 -0.3839 -0.318 -0.812 0.489 186 135 114 0 0
4.1021 10.5975 -0.3841 -0.318 -0.812 0.489 183 129 108 0 0
4.3632 10.4684 -0.3899 -0.518 -0.603 0.607 188 136 115 0 0
4.3783 10.4544 -0.3909 -0.518 -0.603 0.607 181 131 110 0 0
4.5448 10.3516 -0.3964 -0.366 -0.875 0.317 192 141 123 0 0
4.5643 10.3479 -0.3963 -0.176 -0.919 0.353 187 137 120 0 0
4.6582 10.3207 -0.3967 -0.390 -0.725 0.568 177 127 107 0 0
5.0439 10.1386 -0.4045 -0.044 -0.810 0.585 153 97 75 0 0
5.1095 10.1397 -0.4030 0.063 -0.735 0.675 202 148 126 0 0
5.1213 10.1200 -0.4045 -0.195 -0.752 0.630 193 140 119 0 0
5.1322 10.0984 -0.4062 -0.359 -0.586 0.726 186 134 115 0 0
5.9407 9.7956 -0.4155 -0.137 -0.906 0.401 172 121 100 0 0
6.0834 9.8065 -0.4114 -0.321 -0.915 0.244 152 101 79 0 0
6.4580 9.8879 -0.3959 0.244 -0.929 -0.280 139 93 77 0 0
6.9204 10.1200 -0.3651 0.347 -0.862 -0.370 155 108 93 0 0
6.7318 8.9553 -0.4732 -0.571 0.056 0.819 249 249 247 0 0
6.6931 7.3649 -0.6162 -0.326 -0.903 0.279 221 204 178 0 0
6.7102 7.3602 -0.6162 -0.093 -0.980 0.178 217 201 176 0 0
3.0336 11.0370 -0.3876 -0.533 -0.572 0.624 178 129 108 0 0
3.1605 10.9955 -0.3885 -0.343 -0.731 0.591 191 140 119 0 0
4.3414 10.4673 -0.4099 -0.272 -0.742 0.613 178 127 107 0 0
4.3564 10.4533 -0.4108 -0.520 -0.664 0.537 183 132 110 0 0
4.6178 10.3262 -0.4164 -0.321 -0.818 0.477 182 134 116 0 0
4.6382 10.3243 -0.4162 -0.412 -0.693 0.592 193 143 124 0 0
4.6548 10.3140 -0.4167 -0.412 -0.693 0.592 192 138 120 0 0
4.7757 10.2065 -0.4236 -0.203 -0.682 0.702 168 116 96 0 0
4.7958 10.2040 -0.4234 -0.379 -0.581 0.720 185 133 114 0 0
5.0357 10.1227 -0.4255 0.086 -0.855 0.511 192 137 116 0 0
5.0579 10.1239 -0.4249 0.192 -0.862 0.469 196 141 120 0 0
5.0754 10.1157 -0.4252 0.010 -0.717 0.697 168 114 92 0 0
5.1075 10.0932 -0.4265 -0.194 -0.617 0.762 181 129 108 0 0
5.1173 10.0695 -0.4284 -0.392 -0.532 0.750 179 127 107 0 0
5.1984 10.0157 -0.4314 0.026 -0.826 0.562 193 142 120 0 0
5.2214 10.0183 -0.4307 -0.021 -0.774 0.633 191 139 118 0 0
6.0585 9.8037 -0.4318 -0.071 -0.871 0.486 172 121 99 0 0
6.7183 8.9689 -0.4912 -0.677 0.149 0.721 248 249 245 0 0
6.6894 7.3610 -0.6332 -0.326 -0.903 0.279 220 203 176 0 0
6.6977 7.3461 -0.6343 -0.373 -0.906 0.201 221 204 177 0 0
6.7133 7.3396 -0.6346 -0.373 -0.906 0.201 218 201 173 0 0
6.7308 7.3110 -0.6367 -0.678 -0.681 -0.277 218 201 172 0 0
6.7593 7.2708 -0.6397 -0.526 -0.797 0.296 217 201 175 0 0
6.7726 7.2619 -0.6402 -0.526 -0.797 0.296 218 201 175 0 0
6.7816 7.2480 -0.6412 -0.597 -0.698 0.395 219 200 174 0 0
6.8011 7.2222 -0.6430 -0.644 -0.739 0.196 216 197 167 0 0
6.8127 7.2113 -0.6438 -0.760 -0.609 0.228 213 194 163 0 0
6.8257 7.2021 -0.6443 -0.716 -0.682 0.151 216 197 166 0 0
6.8366 7.1906 -0.6451 -0.670 -0.728 0.143 220 202 172 0 0
6.8480 7.1796 -0.6458 -0.284 -0.882 0.376 222 204 175 0 0
6.8598 7.1691 -0.6465 -0.389 -0.799 0.458 215 199 171 0 0
7.5266 7.0257 -0.6449 0.129 -0.916 0.380 222 206 181 0 0
8.5482 7.6155 -0.5714 0.543 -0.781 0.308 253 253 253 0 0
2.7470 11.1412 -0.4037 -0.226 -0.617 0.754 188 141 123 0 0
3.2717 10.9036 -0.4135 -0.480 -0.578 0.660 180 129 107 0 0
3.3868 10.8250 -0.4179 -0.496 -0.464 0.734 183 131 108 0 0
3.5658 10.7582 -0.4200 -0.150 -0.673 0.724 168 116 92 0 0
4.0556 10.5334 -0.4294 -0.215 -0.595 0.774 184 133 111 0 0
4.3116 10.4471 -0.4316 -0.183 -0.752 0.633 182 133 115 0 0
4.3509 10.4410 -0.4314 -0.520 -0.664 0.537 178 127 105 0 0
4.5439 10.3034 -0.4393 0.086 -0.806 0.586 183 132 113 0 0
4.5900 10.3123 -0.4376 -0.107 -0.851 0.514 187 139 119 0 0
4.6070 10.3030 -0.4380 -0.308 -0.853 0.421 186 138 119 0 0
4.6247 10.2952 -0.4384 -0.332 -0.814 0.477 195 144 127 0 0
4.7627 10.1795 -0.4455 -0.074 -0.755 0.652 185 134 115 0 0
5.0956 10.0702 -0.4481 -0.206 -0.642 0.738 184 131 110 0 0
5.1188 9.9877 -0.4548 0.186 -0.905 0.383 183 131 110 0 0
5.1431 9.9931 -0.4538 0.186 -0.905 0.383 168 116 95 0 0
5.1672 9.9980 -0.4529 0.072 -0.859 0.506 170 118 97 0 0
5.1901 10.0005 -0.4522 -0.008 -0.847 0.532 193 139 117 0 0
5.2131 10.0029 -0.4515 -0.102 -0.788 0.607 170 115 93 0 0
5.2434 9.9776 -0.4531 -0.223 -0.706 0.672 182 125 104 0 0
5.2596 9.9669 -0.4537 -0.480 -0.542 0.690 185 129 106 0 0
5.2763 9.9572 -0.4542 -0.468 -0.591 0.657 165 108 85 0 0
6.0511 9.7921 -0.4526 -0.142 -0.815 0.562 175 123 101 0 0
6.4670 9.9034 -0.4344 0.279 -0.907 -0.316 138 91 75 0 0
6.5375 9.9401 -0.4298 0.138 -0.961 -0.241 136 89 73 0 0
7.3676 10.5266 -0.3620 0.706 -0.680 -0.199 249 248 246 0 0
6.5068 7.5459 -0.6376 -0.615 -0.776 0.139 223 203 176 0 0
6.5370 7.5060 -0.6404 -0.834 -0.452 0.318 221 202 173 0 0
6.7774 7.2436 -0.6582 -0.598 -0.799 0.062 212 192 162 0 0
6.8235 7.2002 -0.6610 -0.704 -0.709 0.044 213 192 161 0 0
6.8396 7.1706 -0.6632 -0.570 -0.623 0.535 218 198 167 0 0
6.8717 7.1829 -0.6615 -0.603 -0.747 0.279 217 197 167 0 0
2.6618 11.1143 -0.4270 0.186 -0.855 0.485 191 145 125 0 0
2.8881 11.0129 -0.4311 -0.189 -0.638 0.746 186 137 115 0 0
4.1155 10.4768 -0.4524 -0.404 -0.626 0.667 179 129 109 0 0
4.3046 10.4313 -0.4525 -0.183 -0.752 0.633 183 134 114 0 0
4.3248 10.4295 -0.4522 -0.257 -0.705 0.661 205 154 133 0 0
4.3386 10.4125 -0.4534 -0.432 -0.548 0.716 188 136 115 0 0
4.7716 10.1540 -0.4668 -0.208 -0.719 0.663 181 132 113 0 0
4.9428 10.1103 -0.4671 -0.091 -0.705 0.703 192 142 121 0 0
5.0749 10.0297 -0.4713 -0.107 -0.721 0.685 186 131 110 0 0
5.1617 9.9880 -0.4732 -0.072 -0.764 0.641 174 120 99 0 0
5.1784 9.9784 -0.4736 -0.210 -0.674 0.709 155 101 77 0 0
5.2012 9.9806 -0.4730 -0.286 -0.657 0.698 157 102 79 0 0
5.2207 9.9763 -0.4730 -0.222 -0.620 0.753 149 92 70 0 0
5.2326 9.9575 -0.4744 -0.197 -0.654 0.730 156 100 77 0 0
5.2668 9.9397 -0.4752 -0.337 -0.614 0.714 182 124 102 0 0
5.3001 9.9203 -0.4762 -0.337 -0.614 0.714 159 102 80 0 0
5.3145 9.9065 -0.4771 -0.427 -0.554 0.715 170 114 93 0 0
5.5819 9.7944 -0.4813 -0.028 -0.644 0.765 200 156 136 0 0
5.7933 9.7376 -0.4819 -0.173 -0.966 0.194 187 135 113 0 0
5.8442 9.7483 -0.4800 -0.114 -0.944 0.310 172 121 99 0 0
5.9955 9.7757 -0.4747 0.087 -0.996 0.022 169 114 93 0 0
6.0207 9.7800 -0.4738 0.182 -0.962 0.202 159 107 85 0 0
6.5392 9.9434 -0.4496 0.167 -0.974 -0.154 129 81 67 0 0
7.3792 10.5445 -0.3817 0.706 -0.680 -0.199 249 248 246 0 0
6.5752 8.6472 -0.5592 -0.703 0.188 0.686 227 216 200 0 0
6.5460 8.5766 -0.5658 -0.682 0.184 0.707 222 204 182 0 0
6.4862 7.5470 -0.6546 -0.607 -0.731 -0.311 225 205 178 0 0
6.5000 7.5382 -0.6551 -0.705 -0.705 -0.081 223 204 175 0 0
6.5329 7.5015 -0.6576 -0.834 -0.452 0.318 222 203 174 0 0
6.7379 7.2957 -0.6710 -0.721 -0.642 0.260 215 196 166 0 0
6.8145 7.1904 -0.6784 -0.635 -0.772 0.003 211 190 159 0 0
6.9485 7.1038 -0.6831 -0.639 -0.690 0.339 213 196 167 0 0
7.6465 7.0349 -0.6751 0.030 -0.958 0.287 223 207 182 0 0
2.6585 11.1029 -0.4472 0.120 -0.858 0.499 181 134 115 0 0
2.6754 11.0933 -0.4476 -0.043 -0.900 0.433 192 145 126 0 0
2.7175 11.1058 -0.4458 -0.347 -0.647 0.679 199 152 132 0 0
2.8019 11.0564 -0.4483 -0.468 -0.516 0.717 173 122 101 0 0
5.2345 9.9201 -0.4967 -0.415 -0.566 0.712 181 125 103 0 0
5.2582 9.9240 -0.4959 -0.393 -0.702 0.594 193 137 114 0 0
5.2758 9.9162 -0.4962 -0.165 -0.889 0.428 186 131 108 0 0
5.2956 9.9126 -0.4962 -0.165 -0.889 0.428 188 132 111 0 0
5.3121 9.9027 -0.4967 -0.521 -0.818 0.246 187 131 111 0 0
5.4350 9.8070 -0.5023 -0.204 -0.664 0.719 191 139 117 0 0
5.4934 9.7938 -0.5023 -0.359 -0.733 0.577 184 132 111 0 0
5.7350 9.7530 -0.5011 -0.365 -0.877 0.311 170 117 99 0 0
5.7535 9.7466 -0.5013 -0.248 -0.968 -0.031 164 112 91 0 0
5.7684 9.7337 -0.5021 -0.283 -0.937 0.203 171 119 98 0 0
6.5055 9.9283 -0.4716 0.302 -0.948 -0.103 132 84 69 0 0
6.6126 8.8550 -0.5594 -0.947 0.308 0.088 248 250 247 0 0
6.4986 8.6034 -0.5827 0.415 -0.898 0.149 249 249 241 0 0
6.5707 8.6723 -0.5755 -0.777 0.220 0.590 234 225 212 0 0
6.5498 8.6129 -0.5809 -0.777 0.220 0.590 225 208 189 0 0
6.5147 8.5343 -0.5881 -0.714 0.189 0.675 222 202 177 0 0
6.4749 7.5593 -0.6705 -0.617 -0.737 -0.276 221 202 172 0 0
6.4984 7.5367 -0.6720 -0.716 -0.685 0.136 223 202 173 0 0
6.5077 7.5223 -0.6730 -0.050 -0.927 0.371 224 204 173 0 0
6.6714 7.3166 -0.6871 -0.128 -0.899 0.419 215 197 167 0 0
6.7977 7.2196 -0.6928 -0.490 -0.803 -0.338 211 189 158 0 0
6.8616 7.1488 -0.6975 -0.188 -0.912 0.364 219 200 167 0 0
6.8770 7.1424 -0.6977 -0.437 -0.869 0.233 212 193 160 0 0
6.8920 7.1355 -0.6980 -0.476 -0.854 0.209 210 190 158 0 0
6.9058 7.1274 -0.6984 -0.362 -0.930 0.069 203 183 152 0 0
2.3765 11.4646 -0.4418 -0.407 -0.312 0.858 244 243 238 0 0
2.6723 11.0828 -0.4677 -0.131 -0.943 0.307 196 148 130 0 0
2.6925 11.0859 -0.4671 -0.338 -0.728 0.596 189 141 123 0 0
2.7774 11.0393 -0.4693 -0.690 -0.562 0.456 180 131 110 0 0
2.7924 11.0227 -0.4704 -0.627 -0.597 0.501 182 133 111 0 0
2.8087 11.0109 -0.4711 -0.628 -0.516 0.583 174 124 102 0 0
2.8386 10.9775 -0.4733 -0.607 -0.488 0.627 190 140 116 0 0
2.8539 10.9624 -0.4742 -0.398 -0.562 0.725 180 129 107 0 0
2.8897 10.9509 -0.4745 -0.006 -0.653 0.758 188 138 115 0 0
2.9435 10.9340 -0.4749 -0.396 -0.511 0.763 175 125 101 0 0
4.3089 10.2942 -0.5023 -0.195 -0.616 0.763 188 137 117 0 0
4.3486 10.2899 -0.5019 -0.267 -0.602 0.752 186 134 115 0 0
4.7323 10.1168 -0.5090 -0.249 -0.624 0.741 178 127 108 0 0
5.3463 9.8452 -0.5200 -0.210 -0.724 0.658 184 130 107 0 0
6.0043 9.7541 -0.5153 -0.286 -0.958 -0.002 174 123 102 0 0
6.4756 8.6026 -0.6014 0.339 -0.940 -0.052 249 249 244 0 0
6.3448 8.0422 -0.6499 -0.791 -0.256 0.556 220 199 168 0 0
6.3686 7.7963 -0.6697 -0.808 -0.462 0.367 225 205 177 0 0
6.4460 7.5758 -0.6864 -0.754 -0.559 0.345 217 198 168 0 0
6.4650 7.5734 -0.6863 -0.617 -0.737 -0.276 222 203 173 0 0
6.4776 7.5631 -0.6869 -0.617 -0.737 -0.276 219 199 170 0 0
6.4859 7.5475 -0.6880 -0.733 -0.680 -0.040 222 201 170 0 0
6.5046 7.5189 -0.6900 -0.520 -0.837 0.170 224 203 172 0 0
6.5863 7.3651 -0.7012 -0.341 -0.703 0.625 204 181 149 0 0
6.7335 7.2189 -0.7105 -0.359 -0.816 0.452 211 194 162 0 0
6.8211 7.1513 -0.7144 -0.645 -0.621 0.445 212 193 161 0 0
8.4217 7.4728 -0.6583 0.442 -0.737 0.510 253 253 253 0 0
8.3597 7.3906 -0.6662 0.330 -0.824 0.461 253 253 253 0 0
8.3990 7.4049 -0.6643 0.241 -0.743 0.624 253 253 253 0 0
2.3088 11.6902 -0.4442 -0.855 -0.207 0.476 246 243 240 0 0
2.3774 11.3848 -0.4677 -0.130 -0.493 0.860 200 174 160 0 0
2.5723 11.0705 -0.4896 -0.429 -0.565 0.705 191 143 126 0 0
2.7890 11.0113 -0.4905 -0.617 -0.533 0.579 192 144 123 0 0
2.8035 10.9932 -0.4917 -0.617 -0.533 0.579 186 136 114 0 0
2.8165 10.9693 -0.4934 -0.367 -0.629 0.686 188 138 115 0 0
2.8483 10.9434 -0.4950 -0.486 -0.562 0.669 189 139 116 0 0
2.8818 10.9242 -0.4959 -0.413 -0.501 0.760 197 146 125 0 0
2.9164 10.9086 -0.4966 -0.414 -0.559 0.719 179 129 107 0 0
2.9326 10.8968 -0.4972 -0.407 -0.573 0.711 159 109 86 0 0
3.9726 10.4294 -0.5165 -0.113 -0.654 0.748 184 134 112 0 0
4.2985 10.2704 -0.5235 -0.364 -0.633 0.683 182 130 109 0 0
4.3727 10.2501 -0.5238 -0.401 -0.573 0.715 170 114 94 0 0
4.5238 10.2142 -0.5240 -0.012 -0.756 0.655 187 136 115 0 0
4.6860 10.1086 -0.5297 -0.274 -0.621 0.734 178 126 105 0 0
4.7033 10.1006 -0.5300 -0.274 -0.621 0.734 191 140 121 0 0
4.7228 10.0972 -0.5300 -0.545 -0.532 0.648 192 141 122 0 0
5.2408 9.8924 -0.5373 -0.471 -0.667 0.577 192 138 114 0 0
5.4536 9.7626 -0.5440 -0.036 -0.772 0.635 184 136 113 0 0
5.4723 9.7570 -0.5441 0.108 -0.904 0.414 187 139 116 0 0
5.5116 9.7490 -0.5440 -0.559 -0.610 0.561 171 119 97 0 0
6.3638 7.7907 -0.6872 -0.808 -0.462 0.367 226 206 180 0 0
6.4816 7.5686 -0.7031 -0.745 -0.646 -0.170 220 201 169 0 0
6.4943 7.5326 -0.7058 -0.709 -0.602 0.367 219 200 170 0 0
6.5042 7.5190 -0.7067 -0.595 -0.758 0.266 219 200 169 0 0
6.5644 7.3643 -0.7181 -0.453 -0.729 0.513 215 195 162 0 0
6.5780 7.3556 -0.7186 -0.453 -0.729 0.513 214 193 160 0 0
8.3391 7.3713 -0.6859 0.330 -0.824 0.461 252 253 253 0 0
8.3773 7.3847 -0.6841 0.300 -0.818 0.490 252 254 253 0 0
2.3526 11.3624 -0.4892 -0.341 -0.328 0.881 206 174 162 0 0
2.3686 11.3479 -0.4901 -0.130 -0.493 0.860 183 138 120 0 0
2.5646 11.0410 -0.5111 -0.280 -0.647 0.709 193 145 127 0 0
2.7971 10.9709 -0.5127 -0.505 -0.555 0.662 187 138 117 0 0
2.8106 10.9491 -0.5142 -0.323 -0.644 0.693 185 135 113 0 0
2.8425 10.9240 -0.5157 -0.472 -0.580 0.664 208 157 135 0 0
2.8584 10.9110 -0.5164 -0.415 -0.565 0.713 200 149 128 0 0
2.8742 10.8982 -0.5172 -0.413 -0.501 0.760 193 142 121 0 0
3.2376 10.7371 -0.5237 -0.336 -0.620 0.709 196 145 123 0 0
3.3041 10.6980 -0.5257 -0.347 -0.574 0.741 187 133 109 0 0
3.8947 10.4394 -0.5361 -0.520 -0.424 0.741 183 136 118 0 0
3.9811 10.3997 -0.5378 -0.181 -0.586 0.790 186 138 117 0 0
4.3434 10.2308 -0.5450 -0.084 -0.733 0.675 176 120 99 0 0
4.3639 10.2303 -0.5447 -0.401 -0.573 0.715 170 113 93 0 0
4.6375 10.0956 -0.5507 -0.021 -0.730 0.683 183 131 110 0 0
4.6566 10.0915 -0.5507 -0.077 -0.739 0.670 182 130 109 0 0
4.6747 10.0852 -0.5509 -0.172 -0.758 0.629 177 126 105 0 0
4.6929 10.0789 -0.5510 -0.362 -0.644 0.674 189 138 119 0 0
4.7119 10.0746 -0.5511 -0.603 -0.611 0.513 191 140 121 0 0
4.8618 9.9903 -0.5552 -0.583 -0.407 0.703 175 118 98 0 0
4.8737 9.9712 -0.5565 -0.561 -0.397 0.726 184 126 106 0 0
5.2312 9.8334 -0.5613 -0.616 -0.578 0.535 174 119 96 0 0
5.2464 9.8214 -0.5620 -0.596 -0.606 0.527 184 129 108 0 0
5.4591 9.7338 -0.5653 0.083 -0.859 0.505 201 151 128 0 0
7.3515 10.5444 -0.4684 0.681 -0.691 -0.242 248 248 244 0 0
7.4305 10.6231 -0.4608 0.719 -0.691 -0.075 248 247 247 0 0
6.6014 8.8412 -0.6166 -0.937 0.220 0.271 248 248 245 0 0
6.5582 8.7185 -0.6271 -0.881 0.326 0.342 247 243 235 0 0
6.6455 7.2878 -0.7394 -0.794 -0.600 0.097 215 195 164 0 0
6.6988 7.2282 -0.7432 -0.531 -0.828 0.181 214 197 167 0 0
6.9115 7.1116 -0.7488 -0.575 -0.764 0.294 211 192 162 0 0
7.0256 7.0504 -0.7517 -0.384 -0.912 0.141 205 186 154 0 0
7.0393 7.0422 -0.7521 -0.344 -0.934 0.097 203 185 155 0 0
7.0552 7.0363 -0.7523 -0.344 -0.934 0.097 210 192 162 0 0
7.0711 7.0305 -0.7525 -0.344 -0.934 0.097 210 192 162 0 0
7.0863 7.0238 -0.7528 -0.512 -0.831 0.218 209 192 162 0 0
7.1033 7.0191 -0.7528 -0.439 -0.897 -0.050 210 195 165 0 0
7.1180 7.0120 -0.7532 -0.439 -0.897 -0.050 209 194 165 0 0
7.3029 6.9794 -0.7526 -0.187 -0.884 0.428 207 191 159 0 0
8.3209 7.3543 -0.7053 0.346 -0.843 0.412 251 253 252 0 0
8.3574 7.3662 -0.7037 0.307 -0.821 0.481 251 253 252 0 0
8.3991 7.3830 -0.7017 0.307 -0.821 0.481 251 253 252 0 0
2.1600 11.5424 -0.4976 -0.652 -0.234 0.721 244 243 240 0 0
2.8186 10.9088 -0.5363 -0.537 -0.534 0.653 182 132 109 0 0
2.8343 10.8954 -0.5370 -0.286 -0.584 0.760 192 142 121 0 0
2.8519 10.8890 -0.5372 -0.411 -0.576 0.706 192 143 122 0 0
2.9518 10.8302 -0.5402 -0.151 -0.770 0.620 163 113 92 0 0
3.1275 10.7641 -0.5424 -0.228 -0.632 0.741 183 129 105 0 0
3.4325 10.6071 -0.5497 -0.046 -0.636 0.770 186 134 113 0 0
3.5700 10.5436 -0.5524 -0.348 -0.607 0.715 191 139 120 0 0
3.5864 10.5334 -0.5529 -0.397 -0.576 0.715 194 143 123 0 0
3.6016 10.5199 -0.5537 -0.434 -0.586 0.684 184 133 113 0 0
3.6139 10.4980 -0.5552 -0.486 -0.519 0.703 177 125 105 0 0
3.6721 10.4930 -0.5546 -0.488 -0.532 0.692 179 127 105 0 0
3.6886 10.4831 -0.5551 -0.471 -0.451 0.758 180 128 106 0 0
3.8189 10.4543 -0.5552 -0.439 -0.568 0.696 177 125 104 0 0
3.9521 10.3783 -0.5590 -0.326 -0.532 0.782 185 135 114 0 0
3.9708 10.3743 -0.5590 -0.181 -0.586 0.790 170 122 101 0 0
4.3176 10.2197 -0.5653 -0.145 -0.723 0.675 184 127 106 0 0
4.3352 10.2126 -0.5656 -0.128 -0.708 0.694 172 114 94 0 0
4.3525 10.2047 -0.5659 -0.326 -0.593 0.736 175 119 98 0 0
4.5847 10.0721 -0.5724 -0.017 -0.783 0.622 183 131 109 0 0
4.6492 10.0761 -0.5711 -0.013 -0.856 0.517 204 153 131 0 0
4.6700 10.0757 -0.5707 -0.117 -0.851 0.511 198 147 128 0 0
4.6846 10.0619 -0.5716 -0.271 -0.670 0.691 176 125 106 0 0
4.7060 10.0628 -0.5712 -0.516 -0.684 0.515 175 124 105 0 0
4.8974 9.9337 -0.5781 -0.091 -0.723 0.685 174 119 98 0 0
4.9154 9.9273 -0.5783 -0.022 -0.790 0.613 178 123 103 0 0
4.9364 9.9269 -0.5780 -0.022 -0.790 0.613 193 139 119 0 0
5.1812 9.7797 -0.5854 -0.515 -0.516 0.685 173 119 97 0 0
6.5816 9.9761 -0.5470 -0.028 -0.889 -0.457 126 80 64 0 0
7.2878 10.4885 -0.4953 0.680 -0.696 -0.232 248 247 245 0 0
7.3582 10.5549 -0.4890 0.684 -0.691 -0.235 248 249 245 0 0
7.4503 10.6529 -0.4798 0.716 -0.697 -0.043 248 247 247 0 0
6.3381 7.8401 -0.7178 -0.580 -0.656 0.483 221 202 172 0 0
6.4948 7.5085 -0.7411 -0.591 -0.601 0.539 221 202 172 0 0
6.6345 7.2998 -0.7551 -0.794 -0.600 0.097 222 199 167 0 0
7.0376 7.0409 -0.7686 -0.440 -0.898 -0.034 204 185 153 0 0
7.1005 7.0166 -0.7695 -0.381 -0.911 0.157 210 193 165 0 0
7.2843 6.9607 -0.7708 -0.120 -0.929 0.349 209 192 161 0 0
8.3027 7.3374 -0.7246 0.346 -0.843 0.412 251 252 252 0 0
8.3468 7.3566 -0.7224 0.346 -0.843 0.412 251 252 253 0 0
8.3857 7.3707 -0.7206 0.331 -0.851 0.407 251 252 252 0 0
2.1230 11.7418 -0.5024 -0.403 -0.147 0.903 244 243 239 0 0
2.1168 11.6153 -0.5122 -0.138 -0.333 0.933 244 243 241 0 0
2.1159 11.5167 -0.5197 -0.768 -0.207 0.607 245 244 242 0 0
2.1255 11.4702 -0.5232 -0.628 -0.211 0.749 243 242 240 0 0
2.9441 10.8046 -0.5612 -0.256 -0.652 0.714 193 147 124 0 0
3.2134 10.7251 -0.5631 -0.661 -0.448 0.602 188 137 116 0 0
3.2274 10.7070 -0.5642 -0.577 -0.527 0.624 174 123 102 0 0
3.5413 10.5195 -0.5736 -0.198 -0.686 0.700 193 141 120 0 0
3.5605 10.5173 -0.5735 -0.403 -0.642 0.652 185 133 112 0 0
3.5770 10.5076 -0.5740 -0.372 -0.664 0.648 183 130 108 0 0
3.5933 10.4971 -0.5745 -0.314 -0.777 0.545 192 138 117 0 0
3.6092 10.4859 -0.5751 -0.384 -0.664 0.641 174 121 100 0 0
3.6338 10.4990 -0.5737 -0.344 -0.474 0.811 185 133 111 0 0
3.6654 10.4753 -0.5751 -0.486 -0.475 0.734 177 125 104 0 0
3.6791 10.4578 -0.5762 -0.473 -0.431 0.768 200 149 128 0 0
3.8392 10.4015 -0.5780 -0.334 -0.565 0.755 178 127 107 0 0
3.8561 10.3928 -0.5784 0.053 -0.751 0.658 186 138 118 0 0
4.5553 10.0540 -0.5933 -0.162 -0.696 0.699 186 134 114 0 0
4.5770 10.0562 -0.5928 -0.017 -0.783 0.622 190 136 115 0 0
4.9628 9.8952 -0.5990 -0.260 -0.602 0.755 180 129 108 0 0
5.0793 9.8313 -0.6021 -0.001 -0.790 0.612 192 140 118 0 0
5.1280 9.8429 -0.6004 -0.021 -0.764 0.645 180 126 102 0 0
5.1680 9.7551 -0.6065 -0.139 -0.718 0.682 179 125 105 0 0
6.1944 9.8070 -0.5863 0.211 -0.858 -0.469 147 101 86 0 0
7.3298 10.5136 -0.5141 0.612 -0.722 -0.324 248 249 245 0 0
6.3196 7.8713 -0.7327 -0.674 -0.420 0.607 215 196 167 0 0
6.3335 7.8346 -0.7353 -0.447 -0.794 0.411 223 204 174 0 0
6.3913 7.6401 -0.7493 -0.808 -0.588 0.032 221 201 173 0 0
6.4289 7.5565 -0.7551 -0.734 -0.622 -0.271 220 202 173 0 0
7.3314 6.9425 -0.7879 -0.252 -0.953 0.169 203 185 152 0 0
8.2548 7.3149 -0.7447 0.474 -0.772 0.424 252 250 244 0 0
8.2846 7.3206 -0.7438 0.346 -0.843 0.412 252 253 251 0 0
8.3285 7.3397 -0.7417 0.346 -0.843 0.412 251 253 252 0 0
8.3685 7.3548 -0.7399 0.331 -0.851 0.407 251 252 252 0 0
8.4172 7.3782 -0.7373 0.346 -0.843 0.412 251 252 252 0 0
2.0629 11.5406 -0.5381 -0.662 -0.117 0.740 244 243 240 0 0
2.0882 11.5709 -0.5354 -0.830 -0.092 0.551 244 243 239 0 0
2.1466 11.3896 -0.5482 -0.318 -0.313 0.895 244 243 239 0 0
2.7011 10.9044 -0.5763 -0.272 -0.662 0.698 179 128 106 0 0
3.1430 10.6890 -0.5858 -0.390 -0.577 0.718 185 133 112 0 0
3.4312 10.5463 -0.5922 -0.217 -0.622 0.752 186 130 109 0 0
3.5707 10.4908 -0.5943 -0.421 -0.662 0.620 193 139 117 0 0
3.6572 10.4534 -0.5958 -0.560 -0.481 0.675 193 145 124 0 0
3.6689 10.4304 -0.5973 -0.465 -0.528 0.711 184 135 116 0 0
4.0475 10.2613 -0.6043 -0.330 -0.542 0.773 201 158 141 0 0
4.0647 10.2536 -0.6046 -0.283 -0.595 0.752 173 128 110 0 0
4.0818 10.2455 -0.6050 -0.172 -0.651 0.739 173 121 102 0 0
4.1003 10.2411 -0.6050 -0.128 -0.652 0.747 182 126 106 0 0
4.2966 10.1721 -0.6073 -0.118 -0.635 0.763 184 132 111 0 0
4.9498 9.8698 -0.6201 -0.308 -0.556 0.772 182 129 108 0 0
5.0348 9.7862 -0.6251 -0.183 -0.676 0.713 187 132 111 0 0
6.1112 9.7841 -0.6090 0.204 -0.946 -0.251 119 72 57 0 0
7.4586 10.6667 -0.5221 0.716 -0.677 -0.170 249 248 246 0 0
6.3288 7.8289 -0.7528 -0.705 -0.702 0.102 219 200 170 0 0
6.3910 7.6402 -0.7661 -0.792 -0.575 -0.206 218 198 171 0 0
6.4011 7.6266 -0.7669 -0.792 -0.575 -0.206 219 199 172 0 0
6.4104 7.5859 -0.7699 -0.410 -0.910 0.054 220 201 174 0 0
6.4257 7.5790 -0.7702 -0.410 -0.910 0.054 219 199 172 0 0
6.4782 7.4635 -0.7780 -0.740 -0.672 0.037 219 200 171 0 0
6.5784 7.3580 -0.7845 -0.158 -0.939 0.306 211 190 161 0 0
6.5920 7.3493 -0.7849 -0.518 -0.850 0.096 205 187 157 0 0
7.0169 7.0195 -0.8033 -0.517 -0.810 0.277 203 185 153 0 0
7.2750 6.9519 -0.8045 -0.201 -0.977 0.076 207 190 159 0 0
7.3666 6.9344 -0.8044 -0.142 -0.988 -0.064 206 189 159 0 0
8.4283 7.3891 -0.7541 0.421 -0.851 0.316 251 252 252 0 0
3.5644 10.4737 -0.6145 -0.276 -0.595 0.755 170 116 92 0 0
3.6040 10.4171 -0.6181 -0.115 -0.887 0.448 180 126 106 0 0
3.6269 10.4254 -0.6172 -0.592 -0.664 0.457 171 119 98 0 0
3.8012 10.4096 -0.6158 -0.833 -0.445 0.327 194 142 122 0 0
3.8253 10.3667 -0.6187 -0.739 -0.513 0.436 178 127 106 0 0
3.8343 10.3372 -0.6207 -0.267 -0.682 0.680 183 132 113 0 0
3.9529 10.2791 -0.6233 -0.179 -0.610 0.772 188 140 125 0 0
4.0528 10.2250 -0.6258 -0.277 -0.728 0.627 187 135 117 0 0
4.0915 10.2203 -0.6256 -0.389 -0.672 0.630 173 118 98 0 0
4.1076 10.2099 -0.6261 -0.109 -0.770 0.629 176 123 102 0 0
4.5369 10.0151 -0.6343 -0.081 -0.711 0.699 183 130 112 0 0
4.8460 9.8739 -0.6403 -0.135 -0.686 0.715 183 122 99 0 0
4.8619 9.8636 -0.6408 -0.181 -0.622 0.762 179 119 95 0 0
4.9382 9.8473 -0.6409 -0.308 -0.556 0.772 163 108 87 0 0
5.4671 9.6334 -0.6490 0.056 -0.931 0.361 181 130 107 0 0
5.7933 9.6671 -0.6418 -0.059 -0.909 0.414 178 131 114 0 0
5.8180 9.6713 -0.6412 -0.150 -0.962 0.227 186 140 122 0 0
6.6048 10.0144 -0.6044 -0.109 -0.834 -0.541 124 79 63 0 0
7.3334 10.5584 -0.5537 0.689 -0.684 -0.240 248 248 245 0 0
7.4089 10.6322 -0.5472 0.689 -0.684 -0.240 250 248 247 0 0
6.2927 8.1179 -0.7490 -0.927 -0.133 0.352 219 198 169 0 0
6.3031 7.8507 -0.7686 -0.844 -0.374 0.384 215 195 166 0 0
6.4095 7.5853 -0.7866 -0.410 -0.910 0.054 221 203 174 0 0
6.4601 7.5444 -0.7889 -0.651 -0.712 0.262 215 197 168 0 0
6.4714 7.4556 -0.7953 -0.744 -0.648 -0.160 219 201 173 0 0
6.5758 7.3553 -0.8012 -0.278 -0.945 0.173 216 196 167 0 0
6.5906 7.3481 -0.8015 -0.290 -0.955 0.060 213 194 165 0 0
7.0038 7.0287 -0.8192 -0.365 -0.881 0.300 207 190 158 0 0
7.4747 6.9333 -0.8194 0.032 -0.981 0.194 209 192 164 0 0
8.4072 7.3695 -0.7737 0.419 -0.852 0.312 251 251 251 0 0
3.3428 10.5196 -0.6331 -0.352 -0.602 0.716 182 130 109 0 0
3.5738 10.4449 -0.6354 -0.158 -0.712 0.684 189 136 114 0 0
3.5915 10.4389 -0.6355 -0.254 -0.650 0.716 183 129 108 0 0
3.6003 10.4077 -0.6377 -0.115 -0.887 0.448 177 124 103 0 0
3.6238 10.4178 -0.6366 -0.512 -0.627 0.588 176 125 104 0 0
4.4885 10.0003 -0.6549 0.043 -0.747 0.664 176 126 106 0 0
4.5098 10.0019 -0.6545 0.043 -0.747 0.664 188 138 119 0 0
4.5367 9.9701 -0.6565 -0.329 -0.640 0.695 184 132 113 0 0
4.8217 9.8679 -0.6599 -0.454 -0.544 0.705 166 105 82 0 0
4.8362 9.8546 -0.6607 -0.135 -0.686 0.715 173 113 90 0 0
4.8508 9.8415 -0.6614 -0.181 -0.622 0.762 171 113 89 0 0
5.2306 9.6737 -0.6684 -0.680 -0.513 0.525 166 114 92 0 0
5.2489 9.6680 -0.6685 -0.526 -0.609 0.593 185 129 108 0 0
5.4595 9.6203 -0.6691 -0.029 -0.809 0.587 167 115 93 0 0
7.3112 10.5262 -0.5779 0.612 -0.728 -0.309 248 249 245 0 0
7.4341 10.6319 -0.5685 0.690 -0.690 -0.220 248 247 246 0 0
6.2720 8.1192 -0.7666 -0.882 -0.446 0.152 217 196 166 0 0
6.2846 8.1075 -0.7673 -0.951 -0.232 0.203 221 200 169 0 0
6.2933 7.8658 -0.7847 -0.606 -0.768 -0.208 218 199 169 0 0
6.3012 7.8487 -0.7858 -0.878 -0.478 -0.003 215 196 166 0 0
6.3160 7.7590 -0.7921 -0.720 -0.569 0.396 214 194 168 0 0
6.3273 7.7465 -0.7928 -0.704 -0.630 0.327 218 198 172 0 0
6.3509 7.6964 -0.7961 -0.780 -0.625 0.015 218 200 171 0 0
6.4082 7.5841 -0.8035 -0.387 -0.915 0.117 220 201 171 0 0
6.4238 7.5775 -0.8037 -0.387 -0.915 0.117 217 198 168 0 0
6.4694 7.4791 -0.8102 -0.591 -0.710 0.384 218 200 172 0 0
6.4705 7.4551 -0.8120 -0.343 -0.919 -0.196 213 195 167 0 0
6.5163 7.3843 -0.8165 -0.577 -0.766 0.283 219 201 171 0 0
6.5734 7.3529 -0.8179 -0.278 -0.945 0.173 215 195 165 0 0
6.5887 7.3463 -0.8182 -0.370 -0.881 0.295 208 189 158 0 0
6.6033 7.3388 -0.8186 -0.719 -0.695 0.021 213 194 163 0 0
6.7577 7.1303 -0.8315 -0.467 -0.851 0.240 217 199 169 0 0
6.9990 7.0239 -0.8359 -0.414 -0.885 0.210 207 188 156 0 0
7.3291 6.9414 -0.8373 -0.162 -0.985 -0.065 205 186 154 0 0
7.3451 6.9355 -0.8375 -0.236 -0.972 0.016 207 189 157 0 0
7.3627 6.9312 -0.8376 -0.236 -0.972 0.016 206 189 159 0 0
7.4729 6.9318 -0.8360 0.037 -0.990 0.136 209 192 165 0 0
2.3493 10.9440 -0.6348 -0.700 -0.566 0.436 183 136 118 0 0
2.3645 10.9289 -0.6357 -0.563 -0.629 0.537 191 143 124 0 0
2.3801 10.9156 -0.6364 -0.642 -0.633 0.433 195 147 126 0 0
2.3942 10.8956 -0.6377 -0.571 -0.734 0.367 192 142 122 0 0
2.8971 10.7130 -0.6440 -0.381 -0.561 0.735 186 135 114 0 0
3.3178 10.5040 -0.6534 -0.639 -0.585 0.499 182 130 109 0 0
3.3341 10.4944 -0.6538 -0.624 -0.599 0.502 189 137 116 0 0
3.3495 10.4817 -0.6545 -0.305 -0.713 0.631 194 143 121 0 0
3.5489 10.4315 -0.6555 -0.340 -0.610 0.715 180 129 108 0 0
4.3832 10.0422 -0.6722 -0.183 -0.736 0.652 175 124 106 0 0
4.4791 9.9804 -0.6753 -0.005 -0.769 0.640 181 133 114 0 0
4.4988 9.9783 -0.6752 -0.047 -0.784 0.619 188 139 122 0 0
4.8274 9.8373 -0.6809 -0.229 -0.627 0.744 191 132 110 0 0
4.9756 9.7551 -0.6848 -0.188 -0.858 0.477 185 130 107 0 0
4.9942 9.7503 -0.6849 0.041 -0.883 0.467 180 125 101 0 0
5.1893 9.6769 -0.6875 -0.177 -0.836 0.520 166 112 92 0 0
5.3756 9.6255 -0.6887 -0.177 -0.843 0.508 176 121 100 0 0
5.4351 9.6161 -0.6886 -0.520 -0.845 -0.128 177 124 102 0 0
5.4561 9.6151 -0.6884 -0.377 -0.910 -0.171 173 121 99 0 0
5.4718 9.6044 -0.6890 -0.213 -0.972 -0.101 186 134 112 0 0
5.5460 9.6206 -0.6869 -0.141 -0.962 0.235 176 123 102 0 0
5.7800 9.6456 -0.6820 0.098 -0.987 0.126 154 107 89 0 0
6.0445 9.7889 -0.6684 0.389 -0.915 -0.109 139 92 74 0 0
6.0747 9.8012 -0.6671 0.341 -0.923 -0.176 143 96 80 0 0
7.3298 10.5545 -0.5971 0.646 -0.723 -0.246 248 248 244 0 0
7.3782 10.5881 -0.5941 0.628 -0.729 -0.271 249 247 246 0 0
6.2917 8.5643 -0.7521 0.596 -0.798 -0.094 248 248 246 0 0
6.2698 8.1167 -0.7842 -0.823 -0.567 -0.037 218 197 168 0 0
6.3111 7.7531 -0.8095 -0.720 -0.569 0.396 214 194 167 0 0
6.3130 7.7286 -0.8112 -0.396 -0.909 -0.130 216 196 169 0 0
6.3333 7.7278 -0.8110 -0.775 -0.624 0.098 218 200 171 0 0
6.3538 7.7005 -0.8126 -0.771 -0.631 -0.092 216 199 171 0 0
6.3906 7.5625 -0.8220 -0.675 -0.713 0.190 215 194 165 0 0
6.4237 7.5779 -0.8204 -0.502 -0.859 -0.100 217 198 168 0 0
6.4739 7.4090 -0.8318 -0.500 -0.755 0.425 216 198 168 0 0
6.5134 7.3813 -0.8332 -0.744 -0.638 0.201 215 197 170 0 0
6.5235 7.3684 -0.8340 -0.737 -0.619 0.271 206 188 158 0 0
6.7373 7.1313 -0.8480 -0.610 -0.787 0.092 218 201 171 0 0
7.0839 6.9784 -0.8544 -0.441 -0.891 -0.105 203 184 152 0 0
7.0916 6.9640 -0.8553 -0.516 -0.853 -0.079 199 181 150 0 0
7.1794 6.9660 -0.8540 -0.314 -0.937 0.151 204 187 159 0 0
7.1958 6.9607 -0.8541 -0.222 -0.970 0.099 205 188 160 0 0
7.3285 6.9412 -0.8538 -0.095 -0.995 0.033 204 185 153 0 0
7.3461 6.9370 -0.8538 -0.447 -0.893 -0.049 203 184 152 0 0
7.6883 6.9476 -0.8486 0.145 -0.967 0.210 216 200 174 0 0
7.7141 6.9508 -0.8480 0.120 -0.970 0.213 212 196 170 0 0
2.8904 10.6908 -0.6644 -0.381 -0.561 0.735 198 147 126 0 0
3.3272 10.4743 -0.6741 -0.758 -0.467 0.455 198 147 126 0 0
3.3407 10.4562 -0.6751 -0.483 -0.630 0.608 198 147 125 0 0
4.1094 10.1178 -0.6891 -0.171 -0.679 0.714 174 120 99 0 0
4.3706 10.0142 -0.6931 -0.312 -0.603 0.734 198 147 127 0 0
4.4713 9.9637 -0.6954 -0.005 -0.769 0.640 157 111 94 0 0
4.6881 9.8517 -0.7004 -0.249 -0.629 0.737 169 111 87 0 0
4.7054 9.8445 -0.7007 -0.249 -0.629 0.737 176 118 96 0 0
4.7910 9.8063 -0.7023 -0.294 -0.715 0.634 188 130 108 0 0
4.9893 9.7413 -0.7044 -0.188 -0.858 0.477 194 140 116 0 0
5.1836 9.6669 -0.7071 -0.134 -0.947 0.292 152 94 74 0 0
5.3419 9.6038 -0.7096 -0.106 -0.779 0.618 174 120 99 0 0
5.4492 9.6033 -0.7083 -0.221 -0.964 0.145 177 125 103 0 0
5.4668 9.5961 -0.7086 -0.211 -0.976 0.046 177 125 103 0 0
5.5211 9.6157 -0.7065 -0.169 -0.923 0.346 172 120 98 0 0
5.5415 9.6133 -0.7064 0.059 -0.998 0.003 176 124 102 0 0
5.5874 9.6175 -0.7056 -0.222 -0.975 -0.015 178 126 105 0 0
5.8174 9.6723 -0.6989 0.055 -0.989 -0.135 142 94 76 0 0
6.0784 9.8082 -0.6862 0.407 -0.898 -0.167 134 87 71 0 0
6.6365 10.0660 -0.6613 -0.077 -0.921 -0.382 117 75 60 0 0
7.2787 10.5173 -0.6219 0.646 -0.723 -0.246 247 246 245 0 0
7.3427 10.5745 -0.6171 0.646 -0.725 -0.237 247 247 244 0 0
7.4039 10.6270 -0.6127 0.659 -0.719 -0.221 248 247 246 0 0
6.3789 8.7201 -0.7582 0.428 -0.852 -0.303 248 248 246 0 0
6.3376 8.5991 -0.7671 0.566 -0.797 -0.211 248 248 246 0 0
6.3912 8.6129 -0.7655 0.642 -0.621 -0.448 248 245 236 0 0
6.3012 7.7407 -0.8273 -0.666 -0.737 0.116 215 195 168 0 0
6.3128 7.7288 -0.8280 -0.376 -0.919 0.115 218 198 170 0 0
6.3268 7.7200 -0.8285 -0.666 -0.743 0.067 214 196 167 0 0
6.4195 7.5731 -0.8375 -0.424 -0.906 -0.014 219 198 169 0 0
6.4686 7.4030 -0.8488 -0.500 -0.755 0.425 217 198 167 0 0
6.5011 7.3920 -0.8491 -0.620 -0.784 -0.031 214 197 169 0 0
6.5210 7.3660 -0.8507 -0.759 -0.596 0.262 216 199 171 0 0
6.5608 7.3141 -0.8538 -0.360 -0.928 0.096 213 194 162 0 0
6.6734 7.1780 -0.8619 -0.573 -0.737 0.358 212 193 161 0 0
7.0663 6.9828 -0.8706 -0.324 -0.939 0.117 204 185 153 0 0
7.0824 6.9772 -0.8708 -0.324 -0.939 0.117 208 189 157 0 0
7.3251 6.9382 -0.8705 -0.251 -0.952 0.174 203 184 152 0 0
7.3418 6.9330 -0.8706 -0.280 -0.940 0.194 204 185 153 0 0
1.9595 11.2183 -0.6581 0.275 -0.868 0.414 243 243 237 0 0
1.9798 11.2269 -0.6573 -0.294 -0.660 0.691 223 214 205 0 0
2.0040 11.2548 -0.6551 0.328 -0.941 -0.082 157 123 111 0 0
2.1339 10.9841 -0.6720 -0.395 -0.405 0.824 180 132 112 0 0
2.1497 10.9715 -0.6727 -0.325 -0.453 0.830 178 130 110 0 0
2.4185 10.8437 -0.6783 -0.426 -0.696 0.578 186 135 113 0 0
2.5914 10.7829 -0.6804 -0.270 -0.531 0.803 178 127 106 0 0
2.9444 10.6135 -0.6878 -0.201 -0.796 0.571 184 133 112 0 0
2.9586 10.5966 -0.6888 -0.086 -0.815 0.573 186 135 114 0 0
3.2888 10.4772 -0.6930 -0.437 -0.662 0.609 192 139 118 0 0
3.3045 10.4659 -0.6936 -0.450 -0.583 0.676 182 130 109 0 0
3.3194 10.4519 -0.6944 -0.639 -0.487 0.595 196 145 124 0 0
3.3345 10.4386 -0.6951 -0.438 -0.605 0.665 188 137 115 0 0
3.3519 10.4321 -0.6953 -0.376 -0.629 0.680 187 135 113 0 0
3.4238 10.4135 -0.6958 -0.299 -0.532 0.792 190 137 117 0 0
3.6224 10.3065 -0.7007 -0.379 -0.643 0.666 194 145 123 0 0
3.6384 10.2960 -0.7013 -0.549 -0.607 0.575 193 144 122 0 0
3.6515 10.2778 -0.7023 -0.587 -0.686 0.430 191 140 119 0 0
3.6694 10.2726 -0.7025 -0.438 -0.629 0.643 182 131 110 0 0
4.1012 10.0987 -0.7093 -0.171 -0.679 0.714 179 128 107 0 0
4.6564 9.8292 -0.7211 -0.259 -0.560 0.787 172 116 91 0 0
4.9867 9.6954 -0.7263 -0.249 -0.700 0.670 165 110 89 0 0
5.0010 9.6824 -0.7271 -0.352 -0.677 0.647 154 97 77 0 0
5.0842 9.6802 -0.7262 -0.035 -0.928 0.371 152 96 75 0 0
5.1052 9.6800 -0.7260 0.005 -0.987 0.161 160 102 80 0 0
5.1261 9.6389 -0.7286 -0.128 -0.917 0.378 159 101 79 0 0
5.5418 9.6146 -0.7253 0.027 -0.995 -0.094 180 129 107 0 0
5.5629 9.6134 -0.7252 0.012 -0.998 -0.063 179 128 106 0 0
5.5872 9.6179 -0.7246 -0.222 -0.975 -0.015 172 121 100 0 0
5.6087 9.6172 -0.7244 -0.054 -0.995 -0.083 176 125 106 0 0
5.7779 9.6435 -0.7206 0.135 -0.927 0.351 134 87 70 0 0
5.8211 9.6793 -0.7176 0.219 -0.976 0.016 141 93 76 0 0
6.3279 9.9527 -0.6930 0.317 -0.899 -0.304 129 80 65 0 0
6.6410 10.0739 -0.6811 -0.077 -0.921 -0.382 121 79 65 0 0
7.3576 10.5974 -0.6369 0.680 -0.717 -0.154 248 247 242 0 0
7.4139 10.6426 -0.6332 0.661 -0.730 -0.174 248 247 246 0 0
6.4231 8.6583 -0.7802 0.641 -0.604 -0.474 225 218 205 0 0
6.4896 8.7207 -0.7751 0.620 -0.646 -0.446 209 192 169 0 0
6.2836 8.2530 -0.8095 -0.861 -0.207 0.464 219 197 166 0 0
6.2950 7.7333 -0.8448 -0.333 -0.826 0.454 218 198 170 0 0
6.4478 7.4034 -0.8655 -0.754 -0.644 0.131 218 197 165 0 0
6.5633 7.3176 -0.8700 -0.392 -0.920 0.016 213 195 163 0 0
6.5729 7.3042 -0.8708 -0.549 -0.832 -0.079 204 185 153 0 0
6.5848 7.2936 -0.8714 -0.652 -0.738 -0.173 211 192 160 0 0
6.7065 7.1447 -0.8801 -0.253 -0.925 0.285 217 198 166 0 0
6.7207 7.1371 -0.8804 -0.528 -0.838 0.136 212 193 162 0 0
6.9605 7.0065 -0.8865 -0.358 -0.884 -0.301 204 185 151 0 0
7.2427 6.9431 -0.8875 -0.219 -0.955 0.198 200 182 150 0 0
7.3671 6.8927 -0.8895 -0.438 -0.898 -0.041 208 193 164 0 0
1.8030 11.4779 -0.6613 -0.537 -0.196 0.821 243 243 242 0 0
1.9959 11.2161 -0.6767 -0.142 -0.547 0.825 161 118 100 0 0
2.9007 10.5958 -0.7081 -0.352 -0.517 0.780 192 142 122 0 0
3.0226 10.5548 -0.7095 -0.498 -0.442 0.746 176 125 105 0 0
3.0721 10.5278 -0.7107 -0.298 -0.587 0.753 185 134 113 0 0
3.3247 10.4098 -0.7158 -0.633 -0.428 0.645 190 137 116 0 0
3.3449 10.4120 -0.7154 -0.286 -0.611 0.738 184 130 109 0 0
3.6463 10.2645 -0.7219 -0.374 -0.681 0.630 194 142 121 0 0
3.6632 10.2567 -0.7223 -0.438 -0.629 0.643 184 133 112 0 0
3.6928 10.2298 -0.7238 -0.462 -0.847 0.262 192 140 119 0 0
3.7129 10.2306 -0.7235 -0.522 -0.687 0.505 180 127 107 0 0
4.3902 9.9211 -0.7366 -0.466 -0.542 0.699 174 122 104 0 0
4.4056 9.9100 -0.7372 -0.123 -0.752 0.648 159 109 92 0 0
4.6862 9.8056 -0.7411 -0.102 -0.739 0.666 182 126 103 0 0
4.8934 9.7189 -0.7445 -0.346 -0.692 0.634 179 125 104 0 0
4.8987 9.6877 -0.7466 -0.426 -0.851 0.308 188 134 112 0 0
4.9157 9.6800 -0.7469 -0.150 -0.981 0.122 189 135 113 0 0
4.9351 9.6770 -0.7469 -0.095 -0.928 0.360 163 109 85 0 0
4.9510 9.6672 -0.7474 -0.286 -0.765 0.577 188 133 111 0 0
4.9749 9.6731 -0.7467 -0.253 -0.776 0.578 173 118 97 0 0
5.0372 9.6309 -0.7488 -0.182 -0.813 0.554 157 104 83 0 0
5.0640 9.6419 -0.7478 0.116 -0.925 0.362 151 95 74 0 0
5.0779 9.6281 -0.7486 0.063 -0.879 0.472 168 110 88 0 0
5.5637 9.6156 -0.7440 -0.000 -0.998 0.068 175 125 103 0 0
5.5856 9.6158 -0.7438 0.059 -0.998 0.003 178 128 108 0 0
5.7792 9.6465 -0.7396 0.174 -0.984 0.033 131 84 67 0 0
5.8576 9.7042 -0.7348 0.336 -0.925 -0.175 136 90 72 0 0
6.5699 10.0757 -0.7021 0.208 -0.885 -0.416 138 92 76 0 0
7.3595 10.6008 -0.6583 0.663 -0.728 -0.172 248 247 243 0 0
7.4240 10.6582 -0.6537 0.659 -0.740 -0.135 248 247 246 0 0
6.4551 8.7039 -0.7950 0.641 -0.604 -0.474 210 199 181 0 0
6.5131 8.7542 -0.7910 0.620 -0.646 -0.446 212 189 163 0 0
6.2761 8.2432 -0.8278 -0.861 -0.207 0.464 217 194 163 0 0
6.3484 7.5893 -0.8707 -0.638 -0.723 0.265 218 197 168 0 0
6.6584 7.1856 -0.8942 -0.608 -0.794 -0.020 214 195 163 0 0
6.6694 7.1743 -0.8948 -0.679 -0.732 0.058 207 185 156 0 0
7.3361 6.9059 -0.9054 -0.546 -0.824 0.147 209 192 162 0 0
1.7683 11.4949 -0.6797 -0.530 -0.200 0.824 244 242 241 0 0
1.7797 11.4541 -0.6822 -0.537 -0.196 0.821 243 242 241 0 0
1.9694 11.1783 -0.6983 -0.526 -0.373 0.765 189 147 128 0 0
1.9899 11.1879 -0.6975 -0.162 -0.560 0.812 204 158 138 0 0
2.5849 10.7605 -0.7192 0.090 -0.856 0.510 174 123 102 0 0
2.5970 10.7345 -0.7208 -0.142 -0.789 0.598 179 131 108 0 0
2.6119 10.7192 -0.7216 -0.310 -0.724 0.616 183 135 112 0 0
2.8748 10.5733 -0.7284 -0.287 -0.618 0.732 189 140 119 0 0
3.2755 10.4388 -0.7330 -0.438 -0.576 0.690 178 124 103 0 0
3.2895 10.4223 -0.7340 -0.260 -0.635 0.728 187 132 111 0 0
3.6335 10.2303 -0.7429 -0.266 -0.958 0.106 177 125 104 0 0
3.6517 10.2262 -0.7430 -0.335 -0.939 -0.076 195 141 120 0 0
3.6716 10.2266 -0.7428 -0.247 -0.963 -0.112 185 129 110 0 0
3.6896 10.2220 -0.7429 -0.247 -0.963 -0.112 171 115 95 0 0
3.7049 10.2100 -0.7435 -0.575 -0.693 0.435 176 120 100 0 0
3.9559 10.0885 -0.7489 -0.397 -0.591 0.703 178 133 114 0 0
4.3820 9.9037 -0.7565 -0.377 -0.612 0.695 186 133 115 0 0
4.8574 9.6892 -0.7656 -0.475 -0.601 0.643 190 136 115 0 0
4.8948 9.6807 -0.7657 -0.368 -0.625 0.689 181 129 106 0 0
4.9115 9.6725 -0.7661 -0.199 -0.778 0.596 191 139 116 0 0
4.9300 9.6677 -0.7662 -0.199 -0.778 0.596 190 136 113 0 0
5.5344 9.6029 -0.7642 -0.088 -0.904 0.417 167 115 93 0 0
5.5971 9.5983 -0.7638 0.027 -0.939 0.344 167 116 95 0 0
5.8285 9.6934 -0.7552 0.224 -0.969 -0.100 139 92 74 0 0
7.3398 10.5723 -0.6819 0.576 -0.781 -0.241 247 246 245 0 0
7.4292 10.6666 -0.6748 0.650 -0.747 -0.139 249 248 246 0 0
6.4081 8.6694 -0.8161 0.659 -0.599 -0.456 233 228 216 0 0
6.4874 8.7500 -0.8100 0.641 -0.604 -0.474 202 185 163 0 0
6.4894 8.7215 -0.8118 0.457 -0.774 -0.438 210 184 156 0 0
1.7565 11.4305 -0.7030 -0.537 -0.196 0.821 242 242 240 0 0
2.6217 10.6862 -0.7422 -0.240 -0.634 0.735 178 130 108 0 0
3.0071 10.5057 -0.7500 -0.492 -0.455 0.742 181 126 105 0 0
3.4421 10.2987 -0.7590 -0.360 -0.673 0.647 176 126 106 0 0
3.4585 10.2897 -0.7594 -0.229 -0.731 0.643 172 121 100 0 0
3.5481 10.2118 -0.7635 -0.407 -0.671 0.620 184 132 111 0 0
3.5759 10.2347 -0.7618 -0.404 -0.543 0.736 187 135 115 0 0
3.6500 10.2226 -0.7619 -0.544 -0.571 0.615 178 124 104 0 0
3.6658 10.2118 -0.7624 -0.355 -0.689 0.632 179 123 103 0 0
3.7397 10.1984 -0.7625 -0.169 -0.710 0.684 182 129 108 0 0
3.7930 10.1823 -0.7630 -0.715 -0.476 0.512 177 126 105 0 0
3.9982 10.0455 -0.7698 -0.230 -0.645 0.729 188 142 125 0 0
5.6170 9.5957 -0.7828 0.152 -0.963 0.223 132 83 64 0 0
5.6461 9.6083 -0.7817 -0.004 -0.829 -0.559 133 85 66 0 0
6.3392 9.9731 -0.7516 0.342 -0.902 -0.262 139 90 76 0 0
6.6949 10.1224 -0.7386 0.006 -0.824 -0.566 125 81 64 0 0
7.3613 10.6050 -0.7012 0.641 -0.731 -0.234 247 246 244 0 0
7.1976 10.3242 -0.7208 -0.686 -0.527 0.501 248 247 245 0 0
6.3191 8.6373 -0.8373 0.421 -0.710 -0.564 248 248 246 0 0
6.4423 8.7183 -0.8309 0.659 -0.599 -0.456 214 204 189 0 0
6.5200 8.7965 -0.8251 0.641 -0.604 -0.474 207 186 162 0 0
6.5006 8.7379 -0.8291 0.457 -0.774 -0.438 210 185 155 0 0
6.2534 8.2424 -0.8632 -0.759 -0.306 0.574 214 189 158 0 0
6.3485 7.5642 -0.9056 -0.504 -0.793 0.342 214 195 165 0 0
6.5178 7.3142 -0.9200 -0.522 -0.853 0.004 214 197 166 0 0
6.6034 7.2193 -0.9252 -0.579 -0.796 0.176 209 190 158 0 0
6.7843 7.0687 -0.9331 -0.505 -0.861 0.053 204 185 152 0 0
6.8328 7.0527 -0.9337 -0.451 -0.884 0.122 199 179 146 0 0
7.1536 6.8965 -0.9405 -0.332 -0.941 -0.065 201 185 151 0 0
1.7255 11.4677 -0.7200 -0.813 -0.123 0.569 243 243 239 0 0
1.8034 11.1815 -0.7372 -0.201 -0.464 0.863 190 166 153 0 0
2.7201 10.5636 -0.7675 -0.328 -0.638 0.697 188 137 115 0 0
2.7351 10.5499 -0.7683 -0.237 -0.930 0.281 171 120 98 0 0
2.7518 10.5422 -0.7686 0.042 -0.949 0.313 176 125 104 0 0
2.9859 10.4999 -0.7691 -0.379 -0.550 0.744 174 121 99 0 0
3.5257 10.2046 -0.7827 -0.123 -0.841 0.526 189 137 115 0 0
3.5789 10.1897 -0.7831 -0.262 -0.599 0.756 174 122 103 0 0
3.6592 10.1948 -0.7821 -0.211 -0.652 0.728 195 139 119 0 0
3.7835 10.1582 -0.7832 -0.596 -0.543 0.591 193 142 121 0 0
3.7935 10.1324 -0.7848 -0.723 -0.481 0.496 183 132 111 0 0
3.8081 10.1187 -0.7855 -0.410 -0.571 0.711 180 129 110 0 0
3.9889 10.0233 -0.7898 -0.307 -0.641 0.703 187 140 122 0 0
4.0055 10.0150 -0.7902 -0.307 -0.641 0.703 184 137 119 0 0
4.1048 9.9648 -0.7924 -0.236 -0.737 0.634 183 130 109 0 0
5.4629 9.5542 -0.8058 0.073 -0.954 0.289 162 111 90 0 0
5.5438 9.5826 -0.8033 0.092 -0.941 0.326 178 126 105 0 0
5.5645 9.5809 -0.8032 0.071 -0.967 0.243 144 92 72 0 0
5.5873 9.5826 -0.8029 0.071 -0.967 0.243 131 80 61 0 0
5.6136 9.5905 -0.8022 -0.038 -0.985 -0.166 141 92 74 0 0
5.6527 9.6206 -0.7999 -0.004 -0.829 -0.559 142 94 77 0 0
7.2594 10.4164 -0.7355 -0.918 -0.361 0.166 247 246 243 0 0
6.3605 8.6968 -0.8513 0.088 -0.784 -0.614 247 247 245 0 0
6.3663 8.6737 -0.8527 0.442 -0.722 -0.533 247 248 245 0 0
6.4045 8.6967 -0.8509 0.488 -0.695 -0.527 240 239 229 0 0
6.4477 8.7265 -0.8487 0.490 -0.697 -0.524 202 188 168 0 0
6.4750 8.7337 -0.8480 0.414 -0.722 -0.555 206 180 153 0 0
6.4757 8.7035 -0.8498 0.001 -0.770 -0.638 212 188 157 0 0
6.2546 8.2153 -0.8824 -0.761 -0.289 0.581 214 191 160 0 0
6.2613 8.1953 -0.8836 -0.761 -0.289 0.581 220 197 166 0 0
6.3444 7.5595 -0.9226 -0.504 -0.793 0.342 209 190 160 0 0
6.4574 7.3918 -0.9321 -0.455 -0.823 0.340 213 196 166 0 0
6.6440 7.1703 -0.9443 -0.465 -0.849 0.250 208 185 153 0 0
6.7714 7.0781 -0.9489 -0.635 -0.768 0.085 200 183 150 0 0
7.1065 6.9372 -0.9547 -0.228 -0.971 -0.071 201 186 153 0 0
7.1240 6.9331 -0.9548 -0.228 -0.971 -0.071 200 184 152 0 0
7.1451 6.9327 -0.9546 -0.068 -0.991 0.115 201 184 154 0 0
7.7007 6.9184 -0.9504 -0.046 -0.982 0.183 209 192 164 0 0
1.6412 11.0890 -0.7629 -0.180 -0.899 -0.400 243 243 240 0 0
2.7104 10.5294 -0.7881 -0.229 -0.709 0.667 192 141 120 0 0
2.7308 10.5354 -0.7876 0.098 -0.861 0.500 186 136 114 0 0
3.5346 10.1758 -0.8028 -0.321 -0.661 0.678 184 133 113 0 0
3.8626 10.0561 -0.8074 -0.449 -0.642 0.621 198 150 133 0 0
3.8830 10.0575 -0.8071 -0.577 -0.682 0.449 187 140 121 0 0
3.8972 10.0432 -0.8079 -0.136 -0.813 0.565 182 135 116 0 0
3.9135 10.0344 -0.8083 -0.040 -0.846 0.532 189 141 123 0 0
3.9334 10.0345 -0.8081 -0.457 -0.639 0.619 189 142 123 0 0
3.9497 10.0255 -0.8085 -0.303 -0.688 0.660 189 142 123 0 0
3.9665 10.0178 -0.8089 -0.303 -0.688 0.660 190 141 123 0 0
3.9832 10.0101 -0.8092 -0.303 -0.688 0.660 189 141 123 0 0
3.9994 10.0007 -0.8096 -0.464 -0.645 0.608 182 135 116 0 0
4.0134 9.9863 -0.8104 -0.373 -0.636 0.676 187 139 120 0 0
4.0951 9.9423 -0.8124 -0.419 -0.546 0.725 182 127 108 0 0
4.8296 9.5939 -0.8275 -0.070 -0.706 0.705 183 128 107 0 0
4.9762 9.5559 -0.8286 0.085 -0.864 0.497 202 153 132 0 0
5.2644 9.5443 -0.8269 -0.157 -0.987 0.043 167 113 90 0 0
5.2840 9.5412 -0.8270 -0.157 -0.987 0.043 181 125 102 0 0
5.5859 9.5809 -0.8220 -0.025 -1.000 -0.015 139 87 69 0 0
5.6225 9.6068 -0.8201 0.153 -0.896 -0.416 137 87 70 0 0
5.6607 9.6352 -0.8180 0.159 -0.852 -0.499 137 88 71 0 0
7.2819 10.4504 -0.7545 -0.937 -0.237 -0.256 248 245 242 0 0
6.3451 8.7068 -0.8691 0.172 -0.815 -0.554 247 247 245 0 0
6.3438 8.6735 -0.8711 0.442 -0.722 -0.533 247 247 245 0 0
6.3809 8.6951 -0.8695 0.442 -0.722 -0.533 249 248 242 0 0
6.4167 8.7146 -0.8680 0.437 -0.727 -0.530 222 215 202 0 0
6.4538 8.7357 -0.8664 0.437 -0.727 -0.530 201 182 158 0 0
6.4855 8.7492 -0.8653 0.525 -0.732 -0.434 208 182 153 0 0
6.2319 8.2432 -0.8984 -0.845 -0.250 0.473 214 190 157 0 0
6.2438 8.2303 -0.8991 -0.622 -0.592 0.513 215 190 158 0 0
6.2228 8.1721 -0.9028 -0.791 -0.429 0.437 215 191 159 0 0
6.2272 8.1490 -0.9042 -0.837 -0.484 0.256 217 194 162 0 0
6.2877 7.6994 -0.9312 -0.459 -0.656 0.599 215 196 166 0 0
6.7555 7.0842 -0.9649 -0.351 -0.903 0.246 194 174 141 0 0
7.1464 6.9344 -0.9708 -0.176 -0.864 0.472 208 191 161 0 0
7.1626 6.9067 -0.9723 -0.543 -0.840 -0.008 189 170 137 0 0
1.6422 11.0968 -0.7809 -0.180 -0.899 -0.400 243 243 241 0 0
2.0137 10.8596 -0.7922 -0.314 -0.539 0.782 185 138 120 0 0
2.7868 10.4681 -0.8096 -0.040 -0.910 0.413 179 127 105 0 0
2.8058 10.4692 -0.8094 -0.005 -0.973 0.229 171 119 97 0 0
2.8294 10.4857 -0.8082 -0.227 -0.868 0.441 170 117 96 0 0
3.7612 10.0493 -0.8271 -0.521 -0.750 0.408 185 132 111 0 0
3.9081 10.0217 -0.8276 -0.169 -0.701 0.693 188 140 120 0 0
3.9414 10.0056 -0.8283 -0.307 -0.596 0.742 187 139 119 0 0
3.9563 9.9934 -0.8289 -0.401 -0.632 0.663 180 129 110 0 0
3.9765 9.9943 -0.8287 -0.303 -0.688 0.660 171 122 102 0 0
3.9904 9.9794 -0.8295 -0.512 -0.681 0.524 188 140 120 0 0
4.0024 9.9601 -0.8305 -0.351 -0.854 0.385 175 126 109 0 0
4.7119 9.6062 -0.8462 -0.221 -0.698 0.682 189 134 113 0 0
4.7295 9.6004 -0.8464 -0.221 -0.698 0.682 176 121 100 0 0
4.9673 9.5393 -0.8482 -0.057 -0.948 0.313 176 125 106 0 0
