ply
format ascii 1.0
element vertex 821
property float x
property float y
property float z
property float nx
property float ny
property float nz
property uchar diffuse_red
property uchar diffuse_green
property uchar diffuse_blue
property uchar class
property uchar detection
end_header
4.2372 5.7897 -2.9374 -0.610 -0.715 0.341 223 203 173 0 0
4.3344 5.7018 -2.9549 -0.264 -0.660 0.703 226 205 175 0 0
4.3525 5.6831 -2.9581 -0.133 -0.760 0.636 228 205 174 0 0
4.3667 5.6783 -2.9609 -0.133 -0.760 0.636 221 197 162 0 0
4.7117 5.7530 -3.0316 -0.517 -0.438 -0.736 228 228 226 0 0
4.7023 5.7274 -3.0292 -0.051 -0.980 0.194 228 228 226 0 0
0.7074 10.9390 -2.3601 -0.731 -0.455 -0.509 172 115 95 0 0
1.0047 10.0926 -2.4003 -0.765 -0.497 -0.410 183 132 113 0 0
1.7689 8.4813 -2.5167 -0.283 -0.958 0.048 167 116 95 0 0
1.7898 8.4588 -2.5204 -0.508 -0.755 0.414 173 126 104 0 0
1.8140 8.4433 -2.5249 -0.594 -0.712 0.376 177 130 110 0 0
2.0210 8.4114 -2.5658 0.138 -0.885 0.444 139 88 68 0 0
2.5833 8.7878 -2.6877 0.324 -0.833 -0.449 110 64 48 0 0
2.6548 8.8225 -2.7029 0.054 -0.844 -0.533 116 70 52 0 0
3.4362 9.3772 -2.8731 0.363 -0.787 -0.499 93 51 38 0 0
3.4668 9.3956 -2.8797 0.363 -0.787 -0.499 98 56 42 0 0
3.4981 9.4147 -2.8864 0.312 -0.788 -0.530 97 54 41 0 0
3.5788 9.4827 -2.9042 0.426 -0.767 -0.479 97 56 41 0 0
3.6904 9.5669 -2.9287 0.323 -0.783 -0.532 102 64 51 0 0
3.7157 9.5749 -2.9340 -0.579 -0.804 -0.133 94 63 50 0 0
3.7232 9.5534 -2.9350 -0.405 -0.851 -0.336 137 120 107 0 0
3.7057 9.4910 -2.9300 -0.438 -0.635 -0.637 184 165 149 0 0
2.6095 6.9323 -2.6499 -0.127 -0.611 0.782 228 207 176 0 0
2.6121 6.8653 -2.6489 -0.077 -0.745 0.663 226 207 178 0 0
2.6205 6.8542 -2.6503 -0.506 -0.518 0.689 229 209 180 0 0
2.8258 6.7322 -2.6888 -0.166 -0.774 0.611 231 211 184 0 0
2.9671 6.6555 -2.7155 -0.181 -0.654 0.735 230 211 181 0 0
3.0033 6.6374 -2.7224 -0.173 -0.636 0.752 229 209 182 0 0
3.0964 6.5411 -2.7389 -0.664 -0.345 0.664 223 206 176 0 0
3.1507 6.5669 -2.7504 -0.140 -0.863 0.486 228 211 183 0 0
3.2429 6.4905 -2.7672 -0.587 -0.677 0.444 228 207 179 0 0
3.2895 6.4843 -2.7764 -0.204 -0.663 0.720 229 209 181 0 0
3.2976 6.4108 -2.7763 0.050 -0.840 0.540 228 211 183 0 0
3.3582 6.4006 -2.7883 -0.033 -0.911 0.411 230 210 183 0 0
3.6569 6.2574 -2.8451 -0.542 -0.629 0.558 228 208 183 0 0
4.0583 5.9115 -2.9179 -0.324 -0.801 0.503 229 209 182 0 0
4.2560 5.7387 -2.9536 -0.569 -0.470 0.675 221 201 174 0 0
4.2767 5.7223 -2.9574 0.107 -0.897 0.428 226 207 179 0 0
1.7853 8.4542 -2.5342 -0.508 -0.755 0.414 160 111 90 0 0
2.0315 8.4049 -2.5827 0.142 -0.942 0.304 132 83 63 0 0
2.5861 8.7980 -2.7045 0.304 -0.826 -0.474 115 69 54 0 0
3.4346 9.3797 -2.8904 0.299 -0.713 -0.634 97 57 43 0 0
3.4657 9.3987 -2.8971 0.299 -0.713 -0.634 93 51 37 0 0
2.4823 6.9842 -2.6391 -0.435 -0.900 -0.011 216 193 159 0 0
2.4949 6.9792 -2.6415 -0.400 -0.890 0.219 216 193 159 0 0
2.5068 6.9733 -2.6438 -0.400 -0.890 0.219 215 192 158 0 0
2.6127 6.8463 -2.6621 -0.472 -0.588 0.657 230 211 182 0 0
2.6338 6.8304 -2.6660 -0.172 -0.747 0.642 225 206 178 0 0
2.8184 6.7253 -2.7007 -0.201 -0.729 0.655 229 209 182 0 0
2.8285 6.7167 -2.7025 -0.126 -0.744 0.656 225 205 178 0 0
2.9807 6.6329 -2.7313 -0.263 -0.631 0.730 230 210 183 0 0
3.5708 6.2640 -2.8416 -0.315 -0.675 0.667 230 210 183 0 0
3.6244 6.2245 -2.8514 -0.312 -0.593 0.743 229 209 182 0 0
3.6720 6.1785 -2.8599 -0.285 -0.854 0.435 229 209 182 0 0
3.7619 6.1008 -2.8762 -0.472 -0.546 0.692 225 205 178 0 0
0.9165 10.4445 -2.4238 -0.798 -0.495 -0.345 184 133 115 0 0
1.0165 10.0957 -2.4352 -0.848 -0.473 -0.240 186 135 116 0 0
1.6040 8.6101 -2.5162 -0.484 -0.871 0.085 178 130 108 0 0
1.6164 8.6031 -2.5185 -0.488 -0.868 0.097 169 119 98 0 0
1.6464 8.5655 -2.5236 -0.876 -0.462 0.141 166 118 96 0 0
1.6778 8.5316 -2.5292 -0.605 -0.775 0.182 164 117 95 0 0
1.9752 8.3931 -2.5860 -0.082 -0.887 0.454 144 92 74 0 0
3.4755 9.4203 -2.9173 0.334 -0.770 -0.544 99 60 45 0 0
2.4817 6.9870 -2.6526 -0.651 -0.746 -0.138 217 194 160 0 0
2.5011 6.9682 -2.6561 -0.746 -0.596 0.298 220 197 163 0 0
2.5060 6.9516 -2.6567 -0.437 -0.805 0.401 218 195 161 0 0
2.6060 6.8401 -2.6741 -0.379 -0.692 0.615 230 211 183 0 0
2.6187 6.8353 -2.6765 -0.438 -0.541 0.718 230 211 181 0 0
2.6261 6.8227 -2.6777 -0.392 -0.623 0.676 230 210 183 0 0
2.6400 6.8197 -2.6805 -0.142 -0.831 0.538 230 210 183 0 0
2.8198 6.7082 -2.7141 -0.119 -0.745 0.656 226 207 177 0 0
2.8332 6.7040 -2.7167 -0.140 -0.735 0.663 230 210 180 0 0
3.2478 6.4608 -2.7947 -0.228 -0.632 0.741 232 212 185 0 0
3.2594 6.4540 -2.7969 -0.228 -0.632 0.741 231 211 184 0 0
3.3443 6.3902 -2.8125 -0.012 -0.885 0.465 229 208 179 0 0
3.3923 6.3445 -2.8210 -0.020 -0.885 0.466 228 209 180 0 0
3.6341 6.1988 -2.8664 -0.395 -0.629 0.670 228 209 179 0 0
3.6538 6.1812 -2.8700 -0.366 -0.684 0.632 229 209 182 0 0
3.6656 6.1745 -2.8722 -0.285 -0.854 0.435 229 209 182 0 0
3.6745 6.1647 -2.8737 -0.292 -0.813 0.504 225 205 178 0 0
4.0880 5.8364 -2.9493 -0.321 -0.511 0.797 228 209 183 0 0
4.0841 5.7967 -2.9475 -0.157 -0.814 0.559 227 207 180 0 0
4.1968 5.7423 -2.9689 -0.450 -0.534 0.716 229 209 182 0 0
0.6809 11.5723 -2.4229 -0.979 0.039 -0.198 237 236 233 0 0
0.9785 10.2360 -2.4474 -0.856 -0.484 -0.184 157 104 84 0 0
1.5409 8.6843 -2.5202 -0.651 -0.754 0.094 185 138 122 0 0
1.6016 8.6100 -2.5306 -0.484 -0.871 0.085 180 130 108 0 0
1.6139 8.6029 -2.5329 -0.484 -0.871 0.085 191 139 118 0 0
1.6350 8.5803 -2.5366 -0.861 -0.502 0.077 177 128 106 0 0
1.6438 8.5651 -2.5379 -0.861 -0.502 0.077 169 122 100 0 0
1.7000 8.5170 -2.5481 -0.553 -0.787 0.274 170 120 97 0 0
2.5903 8.8160 -2.7379 0.283 -0.815 -0.506 115 69 53 0 0
3.4819 9.4362 -2.9366 0.320 -0.761 -0.564 86 47 32 0 0
3.5217 9.4698 -2.9457 0.410 -0.815 -0.409 95 56 41 0 0
2.4975 6.9664 -2.6689 -0.746 -0.596 0.298 222 199 166 0 0
2.5019 6.9491 -2.6693 -0.228 -0.950 0.215 218 195 162 0 0
2.5529 6.8828 -2.6779 -0.357 -0.487 0.797 231 208 177 0 0
2.6164 6.8122 -2.6890 -0.244 -0.722 0.647 230 209 181 0 0
2.6293 6.8077 -2.6915 -0.219 -0.729 0.649 231 211 182 0 0
2.8354 6.6882 -2.7303 -0.130 -0.672 0.729 231 212 182 0 0
2.8492 6.6846 -2.7330 -0.048 -0.728 0.684 226 206 179 0 0
2.9226 6.6065 -2.7459 -0.438 -0.558 0.705 226 207 179 0 0
2.9354 6.6016 -2.7484 -0.356 -0.561 0.747 229 210 181 0 0
2.9441 6.5912 -2.7498 -0.645 -0.443 0.623 231 212 183 0 0
3.1920 6.4793 -2.7974 -0.175 -0.862 0.476 230 210 181 0 0
3.2018 6.4704 -2.7992 -0.203 -0.685 0.699 229 208 179 0 0
3.3445 6.3526 -2.8251 -0.394 -0.605 0.692 228 209 181 0 0
3.3924 6.3274 -2.8342 -0.165 -0.769 0.618 228 209 181 0 0
3.4357 6.3169 -2.8428 -0.398 -0.608 0.687 231 212 183 0 0
3.4458 6.3083 -2.8446 -0.398 -0.608 0.687 231 211 184 0 0
3.4883 6.2767 -2.8524 -0.482 -0.596 0.642 229 210 180 0 0
3.6673 6.1598 -2.8858 -0.292 -0.813 0.504 228 208 181 0 0
3.8909 5.9566 -2.9259 -0.810 -0.458 0.366 224 205 177 0 0
3.8973 5.9445 -2.9269 -0.810 -0.458 0.366 227 207 180 0 0
4.0890 5.7860 -2.9617 -0.157 -0.814 0.559 229 208 181 0 0
4.2096 5.7037 -2.9841 -0.392 -0.698 0.599 226 206 177 0 0
4.2168 5.6753 -2.9848 -0.363 -0.872 0.327 225 206 177 0 0
4.7932 5.8334 -3.1067 -0.988 0.124 0.093 229 229 227 0 0
1.2799 9.4062 -2.5020 -0.742 -0.523 -0.419 176 125 106 0 0
1.4303 8.9850 -2.5209 -0.866 -0.405 -0.295 179 127 109 0 0
1.5964 8.6036 -2.5442 -0.350 -0.900 0.260 165 110 89 0 0
1.6110 8.6017 -2.5471 -0.660 -0.708 0.249 181 125 105 0 0
3.5257 9.4816 -2.9646 0.373 -0.810 -0.452 93 51 37 0 0
3.5841 9.5461 -2.9784 0.525 -0.850 -0.051 98 56 43 0 0
2.4939 6.9645 -2.6816 -0.746 -0.596 0.298 219 196 164 0 0
2.4979 6.9466 -2.6820 -0.409 -0.889 0.209 218 195 163 0 0
2.6090 6.8050 -2.7007 -0.458 -0.673 0.581 228 207 175 0 0
2.6218 6.8003 -2.7032 -0.236 -0.654 0.719 229 208 178 0 0
2.6533 6.7996 -2.7097 -0.399 -0.615 0.681 227 207 178 0 0
2.8302 6.6399 -2.7414 -0.103 -0.766 0.635 228 208 181 0 0
3.2334 6.3872 -2.8169 -0.217 -0.821 0.529 230 210 181 0 0
3.2467 6.3826 -2.8195 -0.283 -0.805 0.521 226 206 177 0 0
3.3128 6.3590 -2.8324 -0.292 -0.722 0.628 228 209 179 0 0
3.3457 6.3366 -2.8385 -0.394 -0.605 0.692 226 206 179 0 0
3.3564 6.3289 -2.8404 -0.028 -0.788 0.615 228 209 182 0 0
3.3763 6.3319 -2.8446 -0.012 -0.863 0.505 229 213 184 0 0
3.6454 6.1583 -2.8948 -0.071 -0.737 0.672 229 209 182 0 0
3.8909 5.9407 -2.9390 -0.796 -0.476 0.374 228 209 180 0 0
3.9797 5.8637 -2.9550 -0.705 -0.625 0.336 229 211 184 0 0
4.0402 5.7958 -2.9655 -0.360 -0.802 0.477 224 206 179 0 0
4.0489 5.7863 -2.9670 -0.438 -0.891 0.121 229 211 184 0 0
4.0657 5.7844 -2.9704 -0.183 -0.981 0.065 230 210 183 0 0
4.0532 5.7546 -2.9670 -0.802 -0.594 0.065 229 208 180 0 0
4.2690 5.6556 -3.0084 -0.234 -0.900 0.368 207 184 148 0 0
4.4023 5.6359 -3.0352 -0.254 -0.846 0.469 200 184 159 0 0
4.7905 5.8337 -3.1204 -0.975 0.170 0.146 230 229 227 0 0
0.6957 11.6539 -2.4640 -0.822 -0.040 -0.568 236 235 233 0 0
1.5892 8.5924 -2.5572 -0.533 -0.845 -0.038 175 122 101 0 0
2.5976 8.8396 -2.7722 0.299 -0.853 -0.428 113 66 51 0 0
3.3543 9.3639 -2.9436 0.353 -0.892 -0.284 99 60 47 0 0
3.3843 9.3815 -2.9502 0.450 -0.828 -0.335 97 57 44 0 0
3.5443 9.5181 -2.9872 0.283 -0.876 -0.390 94 53 41 0 0
2.4917 6.9407 -2.6941 -0.715 -0.673 0.186 220 197 165 0 0
2.7265 6.7015 -2.7353 0.002 -0.840 0.543 227 206 179 0 0
2.9910 6.5292 -2.7847 -0.353 -0.705 0.615 227 206 178 0 0
3.2260 6.3812 -2.8287 -0.223 -0.841 0.494 231 211 183 0 0
3.2398 6.3773 -2.8314 -0.283 -0.805 0.521 230 210 182 0 0
3.3253 6.3360 -2.8478 -0.254 -0.645 0.721 229 208 182 0 0
3.3359 6.3281 -2.8497 -0.132 -0.663 0.737 226 205 177 0 0
3.7132 6.0606 -2.9195 -0.468 -0.459 0.755 229 209 180 0 0
3.8745 5.9641 -2.9499 -0.935 -0.354 -0.001 226 209 181 0 0
3.8802 5.9327 -2.9501 -0.905 -0.325 0.274 227 207 179 0 0
3.9128 5.9100 -2.9561 -0.356 -0.695 0.625 229 209 182 0 0
4.0511 5.7553 -2.9800 -0.741 -0.668 -0.069 226 206 177 0 0
4.0622 5.7480 -2.9821 -0.917 -0.387 0.103 225 206 176 0 0
4.3917 5.6290 -3.0464 -0.230 -0.918 0.324 199 184 161 0 0
0.6932 11.5866 -2.4793 -0.992 0.060 -0.108 236 235 232 0 0
0.6664 11.4111 -2.4684 -0.950 -0.112 -0.292 236 234 232 0 0
1.3057 9.4046 -2.5385 -0.819 -0.460 -0.343 182 131 115 0 0
1.5687 8.6217 -2.5687 -0.823 -0.538 -0.179 181 133 113 0 0
1.5771 8.6054 -2.5699 -0.709 -0.705 -0.023 177 129 110 0 0
1.5879 8.5947 -2.5718 -0.590 -0.804 -0.075 190 138 117 0 0
1.7548 8.4140 -2.6008 -0.397 -0.814 0.424 178 129 109 0 0
2.1187 8.5078 -2.6789 0.396 -0.916 -0.066 122 77 61 0 0
2.5967 8.8430 -2.7882 0.318 -0.896 -0.311 109 61 46 0 0
3.3863 9.3901 -2.9684 0.495 -0.840 -0.222 97 57 45 0 0
3.3891 9.3612 -2.9681 0.067 -0.633 -0.771 97 59 47 0 0
3.4824 9.4864 -2.9913 0.261 -0.751 -0.607 89 49 38 0 0
3.5115 9.5018 -2.9978 0.261 -0.751 -0.607 97 56 44 0 0
2.6310 6.7744 -2.7313 -0.176 -0.700 0.693 229 205 177 0 0
2.6432 6.7690 -2.7336 -0.176 -0.700 0.693 230 209 180 0 0
2.6560 6.7187 -2.7347 -0.328 -0.706 0.627 227 206 173 0 0
2.6663 6.7107 -2.7366 -0.403 -0.660 0.635 223 202 170 0 0
2.8364 6.6107 -2.7687 -0.195 -0.652 0.733 227 207 179 0 0
2.8479 6.6043 -2.7709 -0.193 -0.653 0.732 226 206 178 0 0
2.8600 6.5985 -2.7732 -0.195 -0.652 0.733 231 212 182 0 0
2.8889 6.5716 -2.7783 -0.317 -0.508 0.801 231 212 182 0 0
3.2180 6.3746 -2.8403 -0.190 -0.818 0.544 225 205 178 0 0
3.2337 6.3731 -2.8435 -0.413 -0.729 0.546 224 204 177 0 0
3.4942 6.1930 -2.8918 -0.373 -0.786 0.494 231 211 181 0 0
3.6530 6.0950 -2.9217 -0.215 -0.629 0.747 229 209 182 0 0
4.3231 5.6572 -3.0467 -0.346 -0.833 0.432 185 161 126 0 0
0.6643 11.4796 -2.4877 -0.950 -0.112 -0.292 237 235 233 0 0
0.6696 11.4341 -2.4873 -0.950 -0.112 -0.292 236 234 232 0 0
0.6794 11.4073 -2.4885 -0.972 -0.054 -0.229 233 234 231 0 0
1.5684 8.6266 -2.5836 -0.895 -0.445 0.009 182 134 114 0 0
1.5756 8.6075 -2.5845 -0.677 -0.717 -0.163 188 140 120 0 0
1.5875 8.5993 -2.5867 -0.515 -0.795 -0.321 190 141 120 0 0
1.5983 8.5886 -2.5886 -0.590 -0.804 -0.075 185 136 116 0 0
1.6100 8.5802 -2.5908 -0.590 -0.804 -0.075 186 134 115 0 0
2.6020 8.8581 -2.8058 0.299 -0.853 -0.428 121 73 58 0 0
3.3568 9.3783 -2.9794 0.199 -0.697 -0.689 104 62 49 0 0
3.3731 9.3726 -2.9826 0.091 -0.618 -0.781 96 56 44 0 0
3.3959 9.3779 -2.9875 0.078 -0.573 -0.816 91 54 40 0 0
3.5041 9.5285 -3.0149 0.309 -0.950 -0.043 96 55 44 0 0
3.5145 9.5121 -3.0165 0.308 -0.776 -0.550 98 55 45 0 0
2.5223 7.2167 -2.7364 -0.930 -0.059 -0.363 208 183 146 0 0
2.5036 6.9901 -2.7252 -0.873 -0.242 -0.423 216 193 161 0 0
2.6269 6.7261 -2.7423 -0.396 -0.564 0.724 229 208 178 0 0
2.6487 6.7117 -2.7464 -0.328 -0.706 0.627 225 204 173 0 0
2.6591 6.7039 -2.7483 -0.403 -0.660 0.635 227 204 173 0 0
2.6695 6.6960 -2.7502 -0.105 -0.688 0.718 226 203 172 0 0
2.8106 6.6233 -2.7772 -0.209 -0.655 0.726 229 208 179 0 0
2.8997 6.5457 -2.7932 -0.253 -0.614 0.748 228 207 178 0 0
3.0385 6.4684 -2.8195 -0.360 -0.849 0.388 227 208 180 0 0
3.0504 6.4624 -2.8218 -0.360 -0.849 0.388 227 207 179 0 0
3.0610 6.4547 -2.8238 -0.574 -0.783 0.239 227 207 180 0 0
3.0815 6.4595 -2.8282 -0.399 -0.656 0.640 230 210 184 0 0
3.1167 6.4404 -2.8349 -0.169 -0.725 0.667 227 210 182 0 0
3.2105 6.3686 -2.8520 -0.190 -0.818 0.544 227 207 180 0 0
3.2584 6.3442 -2.8612 -0.281 -0.697 0.660 226 206 179 0 0
3.2696 6.3372 -2.8633 -0.276 -0.674 0.685 228 209 180 0 0
3.2829 6.3325 -2.8659 -0.261 -0.675 0.690 228 209 180 0 0
3.3095 6.3234 -2.8711 -0.272 -0.699 0.661 230 210 183 0 0
3.4011 6.2488 -2.8878 -0.486 -0.457 0.745 229 212 186 0 0
3.4847 6.1852 -2.9031 -0.181 -0.775 0.605 231 211 181 0 0
3.4977 6.1802 -2.9056 -0.181 -0.775 0.605 229 209 179 0 0
3.5027 6.1661 -2.9062 -0.595 -0.706 0.383 228 208 178 0 0
3.5199 6.1658 -2.9098 -0.416 -0.614 0.670 228 209 179 0 0
3.5847 6.1204 -2.9218 -0.033 -0.727 0.686 228 209 179 0 0
3.9274 5.8567 -2.9845 -0.322 -0.563 0.761 225 205 178 0 0
4.1476 5.6745 -3.0244 -0.190 -0.824 0.533 228 209 178 0 0
4.1647 5.6727 -3.0279 -0.272 -0.691 0.669 227 207 175 0 0
4.1882 5.6594 -3.0323 -0.233 -0.667 0.708 216 193 158 0 0
4.3358 5.6537 -3.0628 -0.015 -0.986 -0.168 195 175 146 0 0
0.6826 11.4305 -2.5076 -0.972 -0.054 -0.229 234 234 230 0 0
0.6853 11.3756 -2.5063 -0.972 -0.054 -0.229 236 233 230 0 0
1.2012 9.7431 -2.5593 -0.710 -0.542 -0.449 155 106 88 0 0
1.2122 9.7292 -2.5611 -0.800 -0.481 -0.359 162 114 96 0 0
1.4803 8.8641 -2.5881 -0.713 -0.690 -0.126 180 132 112 0 0
1.5792 8.6213 -2.6006 -0.729 -0.618 -0.293 196 146 127 0 0
1.5878 8.6054 -2.6018 -0.479 -0.799 -0.363 191 142 125 0 0
1.6004 8.5989 -2.6042 -0.461 -0.824 -0.328 184 135 116 0 0
1.6145 8.5958 -2.6071 -0.597 -0.731 -0.331 170 121 102 0 0
1.7863 8.3913 -2.6361 -0.639 -0.762 0.103 194 150 131 0 0
2.0887 8.5232 -2.7036 0.275 -0.864 -0.421 125 80 63 0 0
3.3642 9.3962 -2.9991 0.308 -0.775 -0.552 99 58 44 0 0
3.3934 9.4125 -3.0057 0.308 -0.775 -0.552 87 48 35 0 0
3.4108 9.4084 -3.0092 0.200 -0.654 -0.729 95 58 45 0 0
3.5026 9.5310 -3.0324 0.280 -0.943 0.179 90 52 40 0 0
3.5262 9.5370 -3.0376 0.257 -0.944 0.205 94 60 50 0 0
2.6892 6.6819 -2.7672 -0.101 -0.654 0.750 226 205 176 0 0
2.8675 6.5496 -2.8000 -0.348 -0.615 0.708 227 210 180 0 0
2.8771 6.5407 -2.8017 -0.243 -0.652 0.718 227 208 178 0 0
2.9126 6.5227 -2.8085 -0.237 -0.796 0.557 231 207 179 0 0
2.9814 6.4836 -2.8215 0.047 -0.831 0.554 228 211 182 0 0
3.0221 6.4719 -2.8296 -0.352 -0.780 0.517 231 211 184 0 0
3.0335 6.4653 -2.8318 -0.352 -0.780 0.517 230 210 182 0 0
3.0452 6.4590 -2.8340 -0.360 -0.849 0.388 230 211 182 0 0
3.0569 6.4527 -2.8363 -0.645 -0.694 0.320 228 208 181 0 0
3.0719 6.4505 -2.8393 -0.147 -0.799 0.583 229 209 182 0 0
3.1096 6.4137 -2.8460 -0.314 -0.656 0.686 231 211 183 0 0
3.4029 6.2339 -2.9011 -0.242 -0.700 0.672 229 211 184 0 0
3.4759 6.1783 -2.9145 -0.181 -0.775 0.605 228 208 179 0 0
3.4890 6.1733 -2.9171 -0.181 -0.775 0.605 228 209 179 0 0
3.9135 5.8276 -2.9941 -0.712 -0.583 0.391 224 204 177 0 0
4.0375 5.7502 -3.0174 -0.463 -0.666 0.585 229 209 182 0 0
4.4507 5.7062 -3.1021 0.256 -0.851 -0.458 201 186 163 0 0
0.6811 11.4348 -2.5250 -0.950 -0.112 -0.292 234 233 229 0 0
0.6862 11.3895 -2.5246 -0.950 -0.112 -0.292 233 231 230 0 0
1.0990 10.0610 -2.5648 -0.906 -0.265 -0.329 172 121 104 0 0
1.1926 9.7711 -2.5744 -0.761 -0.504 -0.409 170 121 103 0 0
1.2031 9.7557 -2.5760 -0.717 -0.521 -0.463 163 112 92 0 0
1.2133 9.7396 -2.5776 -0.800 -0.481 -0.359 178 130 110 0 0
1.4796 8.8683 -2.6031 -0.684 -0.696 -0.217 182 134 116 0 0
1.6049 8.6148 -2.6206 -0.591 -0.622 -0.514 179 129 110 0 0
1.7026 8.4512 -2.6354 -0.512 -0.853 0.101 165 113 90 0 0
3.3409 9.3950 -3.0116 0.442 -0.802 -0.401 104 65 50 0 0
3.3975 9.4247 -3.0245 0.361 -0.740 -0.567 90 53 38 0 0
3.4964 9.5256 -3.0488 0.269 -0.938 0.221 92 61 48 0 0
3.6183 9.4933 -3.0732 -0.497 -0.664 0.558 194 185 174 0 0
2.5754 6.7504 -2.7591 -0.146 -0.744 0.652 219 196 162 0 0
2.8589 6.5415 -2.8113 -0.364 -0.608 0.706 229 210 181 0 0
3.1197 6.3878 -2.8606 -0.286 -0.816 0.503 230 212 184 0 0
3.1305 6.3803 -2.8626 -0.264 -0.782 0.565 229 212 185 0 0
3.2176 6.3218 -2.8788 -0.692 -0.363 0.624 229 211 185 0 0
3.2235 6.3084 -2.8796 -0.767 -0.262 0.585 231 211 184 0 0
3.3275 6.2697 -2.9001 -0.638 -0.465 0.613 229 210 182 0 0
3.4202 6.1972 -2.9170 -0.372 -0.633 0.679 231 212 182 0 0
3.4305 6.1891 -2.9188 -0.372 -0.633 0.679 231 212 182 0 0
3.5772 6.0793 -2.9458 -0.397 -0.513 0.761 226 207 179 0 0
3.9246 5.8050 -3.0091 -0.586 -0.578 0.568 223 203 176 0 0
3.9362 5.7983 -3.0112 -0.270 -0.808 0.524 227 207 180 0 0
3.9603 5.7858 -3.0159 -0.226 -0.868 0.442 228 208 179 0 0
4.1097 5.6795 -3.0435 -0.244 -0.895 0.373 226 205 173 0 0
0.6856 11.4635 -2.5447 -0.973 -0.097 -0.209 235 232 231 0 0
0.6902 11.4158 -2.5439 -0.973 -0.097 -0.209 233 231 230 0 0
1.4795 8.8738 -2.6184 -0.651 -0.733 -0.197 179 130 115 0 0
1.5168 8.8141 -2.6241 -0.751 -0.645 -0.141 172 121 103 0 0
1.5260 8.7990 -2.6255 -0.712 -0.699 -0.065 175 122 104 0 0
1.7497 8.4235 -2.6590 -0.683 -0.728 -0.056 147 95 74 0 0
1.7970 8.3910 -2.6678 -0.493 -0.832 -0.255 147 103 85 0 0
3.3131 9.3858 -3.0229 0.451 -0.792 -0.410 107 69 53 0 0
3.3809 9.4352 -3.0390 0.430 -0.818 -0.382 93 56 39 0 0
3.4086 9.4489 -3.0453 0.345 -0.740 -0.577 101 62 47 0 0
2.5272 7.1604 -2.7771 -0.998 0.028 0.053 212 186 153 0 0
2.5318 7.1427 -2.7775 -0.997 -0.074 0.013 209 185 151 0 0
3.0282 6.4437 -2.8568 -0.279 -0.918 0.281 226 207 177 0 0
3.0442 6.4428 -2.8601 0.023 -0.869 0.494 227 207 178 0 0
3.1012 6.3887 -2.8701 -0.297 -0.703 0.646 230 210 183 0 0
3.1411 6.3551 -2.8773 -0.148 -0.699 0.700 226 208 179 0 0
3.1537 6.3499 -2.8798 -0.148 -0.699 0.700 225 207 177 0 0
3.2131 6.3194 -2.8912 -0.546 -0.495 0.677 229 210 184 0 0
3.2147 6.3010 -2.8909 -0.732 -0.482 0.482 231 211 186 0 0
3.5499 6.0909 -2.9539 -0.562 -0.583 0.587 228 208 180 0 0
3.5667 6.0708 -2.9567 -0.502 -0.510 0.699 227 207 180 0 0
3.5864 6.0538 -2.9602 -0.014 -0.759 0.651 228 210 182 0 0
3.9227 5.7878 -3.0214 -0.207 -0.719 0.663 228 208 181 0 0
1.2498 9.6771 -2.6149 -0.912 -0.410 -0.012 163 114 98 0 0
1.5161 8.8181 -2.6391 -0.751 -0.645 -0.141 176 128 111 0 0
1.5271 8.8073 -2.6410 -0.679 -0.733 0.023 177 127 110 0 0
1.5945 8.6376 -2.6490 -0.541 -0.633 -0.554 175 124 106 0 0
1.7200 8.4318 -2.6678 -0.498 -0.781 -0.377 162 107 86 0 0
1.7346 8.4297 -2.6708 -0.546 -0.763 -0.347 163 106 86 0 0
2.5619 8.8691 -2.8622 0.321 -0.856 -0.405 119 70 55 0 0
2.9609 9.1391 -2.9567 0.415 -0.827 -0.378 119 73 61 0 0
3.3170 9.3978 -3.0416 0.451 -0.792 -0.410 107 67 52 0 0
2.5146 6.8072 -2.7751 -0.708 -0.700 0.094 214 191 155 0 0
3.0070 6.3991 -2.8640 -0.294 -0.590 0.752 229 210 180 0 0
3.1891 6.3140 -2.8993 -0.520 -0.462 0.719 225 205 178 0 0
3.5230 6.0837 -2.9613 -0.369 -0.762 0.532 232 213 187 0 0
3.5349 6.0774 -2.9636 -0.514 -0.716 0.472 231 214 188 0 0
3.5626 6.0692 -2.9692 -0.613 -0.668 0.422 228 208 181 0 0
3.6449 6.0052 -2.9842 -0.528 -0.474 0.705 228 208 180 0 0
3.8633 5.8222 -3.0235 -0.131 -0.692 0.710 225 208 180 0 0
3.9600 5.7372 -3.0408 -0.744 -0.443 0.500 227 207 178 0 0
4.0527 5.6839 -3.0584 -0.264 -0.759 0.595 226 203 172 0 0
4.1960 5.6419 -3.0872 -0.165 -0.985 0.044 182 159 125 0 0
4.8363 5.9277 -3.2333 -0.957 0.254 -0.139 229 229 227 0 0
0.7213 11.6282 -2.5940 -0.993 0.042 -0.115 233 230 229 0 0
0.7136 11.2683 -2.5784 -0.843 -0.508 0.175 175 143 137 0 0
1.2534 9.6943 -2.6323 -0.926 -0.314 -0.210 164 116 97 0 0
1.5266 8.8118 -2.6562 -0.646 -0.693 -0.319 164 116 100 0 0
2.5098 6.8270 -2.7883 -0.828 -0.553 -0.096 212 189 157 0 0
2.5185 6.7932 -2.7888 -0.874 -0.477 0.091 210 186 152 0 0
3.5161 6.0789 -2.9731 -0.369 -0.762 0.532 229 210 183 0 0
3.7155 5.9321 -3.0098 -0.826 -0.361 0.432 229 210 182 0 0
3.9150 5.7676 -3.0458 -0.207 -0.719 0.663 229 209 182 0 0
3.9325 5.7489 -3.0488 -0.326 -0.634 0.701 226 208 180 0 0
4.8402 5.9336 -3.2487 -0.957 0.254 -0.139 229 229 227 0 0
0.7245 11.6519 -2.6136 -0.993 0.042 -0.115 232 230 228 0 0
1.2082 9.8924 -2.6465 -0.727 -0.517 -0.451 160 111 96 0 0
1.5737 8.7818 -2.6801 -0.623 -0.726 -0.293 173 126 110 0 0
1.5871 8.7399 -2.6812 -0.851 -0.509 -0.127 172 125 109 0 0
3.1635 9.3089 -3.0403 0.294 -0.784 -0.547 106 69 58 0 0
3.0189 8.4847 -2.9765 -0.968 0.244 -0.059 196 186 176 0 0
2.5137 6.8362 -2.8029 -0.775 -0.476 -0.416 211 188 157 0 0
2.5218 6.8249 -2.8041 -0.728 -0.463 -0.506 210 187 155 0 0
3.7103 5.9294 -3.0219 -0.535 -0.495 0.685 228 209 179 0 0
5.2102 6.2964 -3.3566 0.457 -0.808 -0.373 229 229 226 0 0
0.7144 11.3564 -2.6172 -0.967 -0.145 -0.210 217 214 210 0 0
1.2121 9.9111 -2.6642 -0.408 -0.783 -0.470 175 126 110 0 0
1.5883 8.7484 -2.6969 -0.787 -0.541 -0.297 168 121 104 0 0
1.6276 8.6589 -2.7016 -0.776 -0.517 -0.362 177 130 114 0 0
1.6382 8.6475 -2.7034 -0.816 -0.428 -0.387 173 127 111 0 0
1.6878 8.5135 -2.7085 -0.554 -0.666 -0.499 166 113 93 0 0
3.1632 9.3134 -3.0576 0.401 -0.859 -0.319 110 72 61 0 0
2.5610 6.6781 -2.8199 -0.653 -0.744 -0.142 211 187 149 0 0
2.5819 6.6629 -2.8238 -0.512 -0.801 0.310 217 192 157 0 0
2.6059 6.6521 -2.8285 -0.759 -0.506 0.410 219 196 162 0 0
2.8253 6.4698 -2.8679 -0.322 -0.611 0.723 226 208 180 0 0
3.1340 6.2768 -2.9261 -0.727 -0.648 0.228 227 208 179 0 0
3.1418 6.2660 -2.9274 -0.665 -0.725 0.176 228 209 179 0 0
3.1473 6.2524 -2.9280 -0.235 -0.906 0.352 230 210 183 0 0
3.3422 6.1622 -2.9660 0.055 -0.904 0.424 229 210 182 0 0
5.1980 6.3078 -3.3696 0.488 -0.780 -0.391 229 228 224 0 0
0.9535 10.6824 -2.6576 -0.874 -0.430 -0.224 176 131 113 0 0
1.1953 9.9633 -2.6790 -0.937 -0.337 -0.090 164 113 95 0 0
1.5860 8.7487 -2.7114 -0.861 -0.500 -0.098 164 118 102 0 0
1.5972 8.7385 -2.7134 -0.832 -0.533 -0.156 165 117 100 0 0
1.6230 8.6899 -2.7169 -0.643 -0.608 -0.466 180 132 117 0 0
1.6303 8.6708 -2.7176 -0.657 -0.593 -0.466 173 126 110 0 0
3.1608 9.3143 -3.0744 0.401 -0.879 -0.258 110 70 60 0 0
2.5584 6.6777 -2.8326 -0.528 -0.848 0.047 210 186 149 0 0
2.5859 6.6720 -2.8383 -0.722 -0.686 -0.093 216 192 158 0 0
2.5892 6.6542 -2.8382 -0.522 -0.843 0.131 216 192 158 0 0
3.3338 6.1555 -2.9772 0.066 -0.924 0.378 228 209 181 0 0
3.3838 6.0951 -2.9854 -0.039 -0.735 0.677 229 212 186 0 0
3.5399 5.9987 -3.0149 -0.199 -0.968 0.152 227 210 184 0 0
3.5520 5.9928 -3.0173 -0.113 -0.993 0.017 227 210 184 0 0
3.8039 5.7739 -3.0622 -0.427 -0.686 0.589 225 206 177 0 0
0.7208 11.5343 -2.6615 -0.998 0.011 -0.064 228 224 221 0 0
1.4447 9.2145 -2.7163 -0.658 -0.747 -0.101 176 124 108 0 0
1.4568 9.2050 -2.7185 -0.567 -0.794 -0.218 173 122 105 0 0
1.4686 9.1951 -2.7206 -0.514 -0.811 -0.279 177 128 110 0 0
3.1922 9.3410 -3.0995 0.405 -0.854 -0.326 108 69 55 0 0
3.4432 9.2369 -3.1492 -0.509 -0.502 0.699 196 186 176 0 0
2.9649 8.3195 -3.0056 -0.032 -0.796 -0.604 177 154 130 0 0
2.9859 8.3246 -3.0104 0.105 -0.804 -0.586 186 154 121 0 0
3.1390 6.2484 -2.9525 -0.135 -0.788 0.600 226 206 178 0 0
3.3170 6.1588 -2.9871 -0.118 -0.954 0.275 229 209 182 0 0
3.3318 6.1561 -2.9901 -0.223 -0.962 -0.160 228 208 181 0 0
3.3170 6.1196 -2.9853 -0.290 -0.873 0.392 228 208 181 0 0
3.3269 6.1114 -2.9871 -0.356 -0.656 0.666 228 208 180 0 0
3.3345 6.1006 -2.9883 -0.318 -0.695 0.645 231 210 181 0 0
3.3731 6.0859 -2.9960 -0.039 -0.735 0.677 230 210 183 0 0
3.3881 6.0834 -2.9991 -0.038 -0.703 0.710 228 208 181 0 0
3.4184 6.0402 -3.0038 0.144 -0.853 0.501 227 207 180 0 0
3.4375 6.0422 -3.0080 -0.024 -0.778 0.627 225 205 178 0 0
3.5201 5.9991 -3.0240 -0.207 -0.850 0.485 227 207 180 0 0
3.7802 5.7710 -3.0702 -0.472 -0.506 0.722 225 204 176 0 0
3.7944 5.7672 -3.0731 -0.298 -0.633 0.714 223 203 176 0 0
3.8169 5.7715 -3.0781 -0.578 -0.573 0.581 222 202 174 0 0
3.9475 5.6501 -3.1010 -0.205 -0.972 0.114 206 181 144 0 0
5.2513 6.3602 -3.4139 0.468 -0.779 -0.417 229 228 225 0 0
0.4742 11.1986 -2.6107 -0.076 -0.930 -0.358 236 235 233 0 0
1.3476 9.5929 -2.7278 -0.702 -0.536 -0.469 181 130 111 0 0
1.3537 9.5661 -2.7279 -0.421 -0.892 -0.163 171 120 100 0 0
1.4688 9.2017 -2.7365 -0.633 -0.621 -0.461 180 131 111 0 0
3.1704 9.3416 -3.1121 0.488 -0.857 -0.166 113 73 61 0 0
3.1935 9.3484 -3.1174 0.405 -0.854 -0.326 104 65 51 0 0
3.4150 9.2276 -3.1601 -0.612 -0.265 0.745 196 186 175 0 0
2.9714 8.3347 -3.0235 0.002 -0.782 -0.624 181 158 134 0 0
2.9927 8.3401 -3.0284 0.141 -0.809 -0.571 190 159 126 0 0
2.5326 6.7387 -2.8563 -0.961 -0.277 -0.017 215 194 164 0 0
2.5850 6.6549 -2.8639 -0.494 -0.869 -0.003 213 189 155 0 0
2.7034 6.5100 -2.8830 -0.080 -0.724 0.685 225 204 175 0 0
2.7969 6.4206 -2.8993 -0.189 -0.748 0.636 225 206 177 0 0
3.0462 6.2804 -2.9471 -0.185 -0.763 0.619 225 206 176 0 0
3.1833 6.2239 -2.9743 -0.267 -0.693 0.669 229 209 182 0 0
3.3981 6.0397 -3.0126 -0.384 -0.448 0.807 231 211 184 0 0
3.6231 5.9053 -3.0554 -0.276 -0.840 0.467 223 203 176 0 0
3.7200 5.8034 -3.0718 -0.582 -0.668 0.463 226 206 178 0 0
3.7427 5.8083 -3.0770 -0.532 -0.772 0.349 228 208 180 0 0
3.7485 5.7960 -3.0777 -0.644 -0.702 0.303 225 206 176 0 0
3.7574 5.7868 -3.0792 -0.398 -0.917 0.032 225 204 175 0 0
3.7635 5.7750 -3.0800 -0.438 -0.897 0.067 226 205 176 0 0
3.7772 5.7706 -3.0827 -0.551 -0.833 0.041 224 204 175 0 0
0.4474 11.2303 -2.6235 -0.170 -0.749 -0.641 236 235 233 0 0
0.5003 11.3886 -2.6423 -0.111 -0.865 -0.490 236 235 233 0 0
0.4722 11.2005 -2.6275 0.163 -0.971 -0.172 235 234 232 0 0
0.4880 11.1999 -2.6309 0.072 -0.957 -0.282 234 233 231 0 0
0.5057 11.2075 -2.6351 0.163 -0.971 -0.172 234 233 231 0 0
0.7225 11.5619 -2.6988 -1.000 0.031 -0.007 229 225 222 0 0
0.6811 11.3300 -2.6790 -0.620 -0.503 0.602 227 223 220 0 0
0.7337 11.3431 -2.6911 -0.569 -0.820 -0.059 220 216 213 0 0
0.8516 10.9825 -2.7001 -0.753 -0.591 -0.289 168 127 112 0 0
0.8639 10.9678 -2.7021 -0.753 -0.591 -0.289 171 127 111 0 0
1.0624 10.4223 -2.7200 -0.862 -0.311 -0.401 163 116 99 0 0
1.1901 10.0179 -2.7291 -0.725 -0.652 -0.221 151 102 87 0 0
1.3508 9.6085 -2.7451 -0.843 -0.514 -0.161 169 118 97 0 0
1.3554 9.5773 -2.7447 -0.574 -0.812 -0.104 175 123 103 0 0
1.3656 9.5618 -2.7462 -0.923 -0.345 -0.169 184 133 113 0 0
2.4556 8.8683 -2.9516 0.243 -0.916 -0.318 132 85 69 0 0
3.4048 9.3482 -3.1808 0.114 -0.802 0.586 195 185 175 0 0
3.4252 9.3160 -3.1837 0.238 -0.802 0.548 195 185 174 0 0
2.9753 8.3455 -3.0406 0.002 -0.768 -0.641 180 158 135 0 0
2.9957 8.3495 -3.0452 0.002 -0.768 -0.641 189 159 126 0 0
2.5767 6.6464 -2.8749 -0.713 -0.701 -0.005 207 183 152 0 0
2.6188 6.5720 -2.8807 -0.707 -0.667 0.232 210 184 147 0 0
2.6629 6.5232 -2.8880 -0.353 -0.549 0.757 216 193 159 0 0
2.7688 6.4505 -2.9077 -0.127 -0.763 0.634 226 207 176 0 0
2.7773 6.4403 -2.9091 -0.496 -0.491 0.716 227 207 179 0 0
2.7746 6.4154 -2.9073 -0.369 -0.645 0.669 226 206 179 0 0
2.7852 6.4082 -2.9093 -0.305 -0.706 0.639 225 205 178 0 0
3.0871 6.2119 -2.9660 -0.194 -0.692 0.695 229 210 180 0 0
3.1232 6.2354 -2.9750 -0.008 -0.787 0.617 226 207 180 0 0
3.1378 6.2328 -2.9780 -0.008 -0.787 0.617 226 209 181 0 0
3.1696 6.2106 -2.9839 -0.484 -0.766 0.424 230 210 183 0 0
3.2335 6.1468 -2.9949 -0.384 -0.606 0.697 228 211 183 0 0
3.3467 6.0619 -3.0156 -0.475 -0.687 0.550 228 208 181 0 0
3.3734 6.0534 -3.0211 -0.476 -0.541 0.694 229 209 182 0 0
3.3821 6.0439 -3.0225 -0.476 -0.541 0.694 229 209 183 0 0
3.6166 5.9013 -3.0670 -0.285 -0.881 0.377 227 207 181 0 0
3.6241 5.8906 -3.0682 -0.561 -0.828 0.010 225 205 177 0 0
3.6382 5.8868 -3.0711 -0.526 -0.837 0.149 223 204 174 0 0
3.7398 5.8080 -3.0895 -0.264 -0.923 0.280 230 210 182 0 0
3.7632 5.7594 -3.0924 -0.541 -0.784 0.305 224 204 176 0 0
3.7759 5.7540 -3.0949 -0.366 -0.778 0.510 226 206 179 0 0
3.7860 5.7461 -3.0967 -0.290 -0.908 0.303 228 208 181 0 0
5.1974 6.3378 -3.4318 0.448 -0.767 -0.458 229 227 221 0 0
0.4485 11.2456 -2.6416 -0.170 -0.749 -0.641 236 235 233 0 0
0.5406 11.2300 -2.6610 0.262 -0.931 -0.256 231 230 228 0 0
0.6717 11.3028 -2.6932 -0.736 -0.658 0.157 227 223 220 0 0
0.7200 11.2996 -2.7036 -0.066 -0.998 0.014 223 219 216 0 0
1.1897 10.0240 -2.7456 -0.725 -0.652 -0.221 163 113 97 0 0
1.4723 9.2231 -2.7693 -0.704 -0.570 -0.424 167 118 98 0 0
1.4936 9.1970 -2.7727 -0.782 -0.498 -0.374 177 125 107 0 0
1.8458 8.4745 -2.8153 -0.632 -0.705 -0.323 147 98 84 0 0
1.8758 8.4710 -2.8217 -0.287 -0.806 -0.518 134 85 70 0 0
1.9332 8.4915 -2.8353 0.157 -0.774 -0.614 132 83 68 0 0
3.5151 9.6443 -3.2365 0.314 -0.709 -0.632 194 184 174 0 0
3.4091 9.1949 -3.1919 -0.156 -0.559 0.815 198 188 178 0 0
2.9779 8.3543 -3.0574 0.254 -0.823 -0.508 181 160 137 0 0
3.0029 8.3657 -3.0634 0.254 -0.823 -0.508 187 157 126 0 0
2.9792 6.2852 -2.9591 -0.256 -0.574 0.778 226 207 178 0 0
3.0659 6.2092 -2.9744 -0.174 -0.841 0.512 225 206 178 0 0
3.2378 6.1351 -3.0085 -0.246 -0.660 0.710 228 209 182 0 0
3.3564 6.0180 -3.0289 -0.076 -0.726 0.683 227 207 181 0 0
3.4604 5.9617 -3.0489 -0.465 -0.629 0.623 226 207 177 0 0
3.5994 5.9045 -3.0767 -0.662 -0.536 0.523 226 206 180 0 0
3.6085 5.8955 -3.0782 -0.353 -0.804 0.479 226 206 178 0 0
3.6249 5.8942 -3.0817 -0.692 -0.707 0.144 225 206 176 0 0
3.6339 5.8851 -3.0833 -0.692 -0.707 0.144 226 207 177 0 0
3.6443 5.8774 -3.0852 -0.153 -0.904 0.398 225 206 176 0 0
3.7041 5.8108 -3.0951 -0.797 -0.580 0.165 231 210 183 0 0
3.9796 5.6532 -3.1479 -0.476 -0.876 0.071 175 152 117 0 0
3.9997 5.6547 -3.1524 -0.170 -0.908 -0.384 176 155 121 0 0
5.2328 6.3719 -3.4565 0.468 -0.779 -0.417 227 227 222 0 0
0.5229 11.4375 -2.6845 0.121 -0.977 -0.177 235 234 232 0 0
0.5398 11.4403 -2.6884 0.121 -0.977 -0.177 233 232 229 0 0
0.5643 11.4752 -2.6955 0.104 -0.785 -0.610 233 232 228 0 0
0.5372 11.2264 -2.6774 0.293 -0.948 -0.125 232 231 227 0 0
0.5714 11.2350 -2.6853 -0.876 -0.297 0.381 231 229 226 0 0
0.5900 11.1798 -2.6867 -0.887 -0.313 0.339 230 227 223 0 0
0.6971 11.2196 -2.7122 -0.198 -0.808 0.556 224 220 217 0 0
0.9933 10.6948 -2.7516 -0.744 -0.557 -0.369 176 135 123 0 0
1.0053 10.6801 -2.7535 -0.744 -0.557 -0.369 178 139 125 0 0
1.5044 9.1906 -2.7903 -0.842 -0.417 -0.341 173 124 109 0 0
1.5134 9.1734 -2.7914 -0.842 -0.417 -0.341 174 126 110 0 0
1.8464 8.4810 -2.8307 -0.632 -0.705 -0.323 148 98 83 0 0
1.8966 8.4867 -2.8420 -0.082 -0.766 -0.638 139 90 75 0 0
2.8997 9.1752 -3.0962 0.473 -0.790 -0.390 121 79 63 0 0
3.5395 9.6914 -3.2621 0.377 -0.730 -0.570 195 185 175 0 0
2.9826 8.3665 -3.0749 0.254 -0.823 -0.508 181 161 138 0 0
3.0076 8.3780 -3.0809 0.254 -0.823 -0.508 192 163 132 0 0
2.9698 6.2766 -2.9697 -0.279 -0.581 0.764 228 209 181 0 0
3.0580 6.2027 -2.9855 -0.271 -0.766 0.583 223 204 174 0 0
3.0650 6.1911 -2.9864 -0.451 -0.639 0.623 226 207 179 0 0
3.2154 6.1315 -3.0166 -0.265 -0.783 0.563 227 207 180 0 0
3.2247 6.1228 -3.0182 -0.301 -0.671 0.677 230 210 183 0 0
3.2442 6.1062 -3.0217 -0.426 -0.579 0.695 230 210 183 0 0
3.3432 6.0253 -3.0395 -0.353 -0.676 0.647 228 209 179 0 0
3.3537 6.0179 -3.0414 -0.155 -0.820 0.551 227 207 181 0 0
3.4052 5.9987 -3.0518 -0.391 -0.660 0.641 225 206 176 0 0
3.4205 5.9776 -3.0541 -0.321 -0.715 0.621 225 205 178 0 0
3.7641 5.7119 -3.1167 -0.304 -0.742 0.598 224 202 172 0 0
5.2237 6.3667 -3.4696 0.438 -0.791 -0.428 227 228 223 0 0
0.5138 11.4787 -2.7021 0.128 -0.646 -0.753 236 235 233 0 0
0.5340 11.4957 -2.7074 0.213 -0.925 -0.315 234 233 231 0 0
0.5379 11.4432 -2.7057 0.271 -0.963 0.011 233 232 230 0 0
0.7001 11.2412 -2.7313 -0.913 -0.324 -0.247 224 220 217 0 0
0.7043 11.1941 -2.7299 -0.730 -0.522 -0.441 224 220 217 0 0
0.7171 11.1802 -2.7320 -0.703 -0.591 -0.396 223 218 215 0 0
0.7768 11.1587 -2.7441 -0.658 -0.592 0.465 219 215 212 0 0
1.2051 10.0372 -2.7823 -0.623 -0.779 0.066 178 129 110 0 0
1.2550 9.9472 -2.7888 -0.873 -0.425 -0.239 175 122 104 0 0
1.5566 8.8984 -2.8026 -0.640 -0.587 -0.496 174 132 115 0 0
1.7034 8.6565 -2.8229 -0.812 -0.494 -0.310 180 133 116 0 0
1.7110 8.6383 -2.8237 -0.861 -0.454 -0.228 176 129 113 0 0
1.7699 8.5250 -2.8310 -0.437 -0.809 -0.393 156 106 89 0 0
1.8541 8.5026 -2.8484 -0.431 -0.773 -0.465 138 88 73 0 0
1.8830 8.4966 -2.8545 -0.082 -0.927 -0.366 138 89 75 0 0
2.4466 8.8662 -2.9975 0.113 -0.787 -0.607 126 78 63 0 0
2.9306 9.2030 -3.1213 0.391 -0.812 -0.433 126 84 68 0 0
3.3077 9.2979 -3.2093 -0.849 -0.457 -0.264 195 185 176 0 0
2.9884 8.3806 -3.0927 0.273 -0.808 -0.522 182 161 138 0 0
3.0142 8.3934 -3.0990 0.273 -0.808 -0.522 195 166 136 0 0
2.8518 6.3363 -2.9598 -0.201 -0.706 0.679 223 205 175 0 0
2.8637 6.3308 -2.9621 -0.016 -0.846 0.533 224 206 176 0 0
2.9601 6.2674 -2.9802 -0.279 -0.581 0.764 224 204 177 0 0
3.0480 6.1935 -2.9959 -0.385 -0.700 0.601 228 208 180 0 0
3.0598 6.1878 -2.9982 -0.418 -0.592 0.689 231 211 183 0 0
3.2058 6.1232 -3.0272 -0.343 -0.712 0.613 228 208 182 0 0
3.2161 6.1156 -3.0291 -0.301 -0.671 0.677 230 210 183 0 0
3.2264 6.1081 -3.0310 -0.426 -0.579 0.695 229 209 182 0 0
3.2391 6.1032 -3.0336 -0.436 -0.546 0.715 230 210 183 0 0
3.3718 6.0027 -3.0578 -0.277 -0.716 0.641 224 204 175 0 0
3.3870 6.0005 -3.0611 -0.391 -0.660 0.641 226 206 177 0 0
3.3923 5.9873 -3.0616 -0.349 -0.695 0.629 228 208 178 0 0
3.4112 5.9891 -3.0658 -0.330 -0.796 0.508 230 209 180 0 0
3.4302 5.9721 -3.0692 -0.689 -0.596 0.412 228 208 180 0 0
3.4311 5.9542 -3.0685 -0.401 -0.577 0.711 230 210 182 0 0
3.4546 5.9048 -3.0712 -0.473 -0.514 0.715 227 206 177 0 0
3.6557 5.8031 -3.1105 -0.069 -0.754 0.654 226 206 176 0 0
3.7410 5.7095 -3.1246 -0.381 -0.787 0.485 223 200 169 0 0
3.7626 5.6953 -3.1286 -0.397 -0.802 0.447 212 188 154 0 0
3.7741 5.6889 -3.1309 -0.325 -0.914 0.242 210 187 151 0 0
3.9802 5.6589 -3.1748 -0.313 -0.944 0.105 184 165 136 0 0
0.5271 11.4770 -2.7225 -0.167 -0.630 -0.758 235 234 232 0 0
0.5712 11.5256 -2.7348 0.085 -0.619 -0.781 233 232 230 0 0
0.6970 11.1755 -2.7447 -0.930 -0.316 -0.190 224 220 217 0 0
0.8568 11.0387 -2.7730 -0.953 -0.292 0.081 218 211 209 0 0
0.8710 11.0308 -2.7758 -0.934 -0.244 -0.261 216 210 207 0 0
1.1073 10.3907 -2.7952 -0.873 -0.303 -0.382 180 132 116 0 0
1.1225 10.3874 -2.7984 -0.547 -0.630 -0.552 182 131 114 0 0
1.6385 8.8014 -2.8310 -0.714 -0.548 -0.436 167 120 104 0 0
1.7117 8.6451 -2.8392 -0.838 -0.456 -0.301 172 123 108 0 0
1.7493 8.5888 -2.8446 -0.545 -0.754 -0.366 168 120 100 0 0
1.8233 8.5096 -2.8569 -0.390 -0.917 -0.087 142 91 77 0 0
1.8362 8.5034 -2.8595 -0.397 -0.885 -0.242 141 92 77 0 0
2.4424 8.8630 -3.0124 0.045 -0.912 -0.407 123 76 60 0 0
3.2782 9.4897 -3.2300 0.485 -0.726 -0.487 192 180 173 0 0
3.3953 9.5913 -3.2611 0.648 -0.748 -0.142 194 185 178 0 0
2.9915 8.3903 -3.1097 0.313 -0.813 -0.491 182 162 138 0 0
3.0171 8.4026 -3.1160 0.254 -0.823 -0.508 193 164 134 0 0
2.6418 6.4854 -2.9340 -0.627 -0.757 -0.185 210 186 150 0 0
2.6936 6.4265 -2.9425 -0.746 -0.660 -0.092 214 188 150 0 0
2.7028 6.4175 -2.9440 -0.559 -0.823 0.099 213 187 151 0 0
2.7132 6.4102 -2.9460 -0.559 -0.823 0.099 209 183 148 0 0
2.8195 6.3395 -2.9659 -0.374 -0.577 0.726 226 205 172 0 0
3.0337 6.2192 -3.0072 -0.635 -0.751 0.183 225 205 178 0 0
3.0336 6.1990 -3.0061 -0.405 -0.726 0.556 227 207 180 0 0
3.0451 6.1929 -3.0083 -0.300 -0.707 0.640 227 207 180 0 0
3.0511 6.1802 -3.0090 -0.509 -0.624 0.593 225 206 178 0 0
3.1707 6.1244 -3.0327 -0.001 -0.844 0.537 227 207 180 0 0
3.2406 6.0302 -3.0433 -0.783 -0.414 0.464 227 208 178 0 0
3.5337 5.8620 -3.0996 -0.700 -0.388 0.600 226 207 177 0 0
3.7376 5.7086 -3.1369 -0.439 -0.830 0.345 208 185 151 0 0
3.7439 5.6971 -3.1377 -0.525 -0.836 0.161 210 186 150 0 0
3.7825 5.6821 -3.1455 -0.325 -0.914 0.242 204 178 141 0 0
4.0283 5.6718 -3.1995 0.030 -0.983 0.181 193 177 152 0 0
4.0484 5.6731 -3.2040 0.032 -0.998 0.061 194 178 151 0 0
4.0724 5.6781 -3.2096 0.053 -0.906 -0.420 194 178 152 0 0
0.5312 11.5055 -2.7425 -0.411 -0.433 -0.802 234 233 231 0 0
0.5618 11.1604 -2.7311 -0.601 -0.687 0.408 232 228 227 0 0
0.5840 11.1206 -2.7339 -0.650 -0.593 0.476 230 226 225 0 0
0.7232 11.1606 -2.7670 -0.790 -0.354 -0.501 224 219 215 0 0
0.7341 11.0155 -2.7618 -0.794 -0.500 0.344 222 218 215 0 0
0.8223 11.1025 -2.7860 -0.567 -0.721 -0.399 220 215 212 0 0
0.8823 11.0813 -2.7983 -0.906 -0.153 -0.394 219 212 210 0 0
0.9105 10.9455 -2.7974 -0.872 -0.392 -0.294 209 202 198 0 0
1.1111 10.4108 -2.8138 -0.547 -0.630 -0.552 175 128 112 0 0
1.1244 10.4014 -2.8162 -0.547 -0.630 -0.552 178 128 111 0 0
1.6176 8.8685 -2.8450 -0.527 -0.658 -0.538 167 117 100 0 0
1.6538 8.8060 -2.8498 -0.414 -0.728 -0.547 173 126 110 0 0
1.6581 8.7794 -2.8493 -0.814 -0.468 -0.345 177 128 113 0 0
1.6686 8.7673 -2.8510 -0.871 -0.456 -0.183 175 126 111 0 0
1.7130 8.6536 -2.8549 -0.885 -0.402 -0.233 174 124 107 0 0
1.7291 8.6191 -2.8567 -0.786 -0.544 -0.294 157 104 87 0 0
1.7388 8.6058 -2.8581 -0.786 -0.544 -0.294 178 126 108 0 0
1.7500 8.5958 -2.8601 -0.545 -0.754 -0.366 160 109 90 0 0
1.8023 8.5377 -2.8687 -0.497 -0.766 -0.408 155 106 92 0 0
1.8381 8.5126 -2.8753 -0.490 -0.791 -0.365 149 101 86 0 0
2.4443 8.8719 -3.0292 -0.160 -0.873 -0.461 137 90 74 0 0
2.4810 8.9096 -3.0394 0.286 -0.868 -0.406 137 89 73 0 0
2.8921 9.2108 -3.1468 0.233 -0.776 -0.586 122 79 66 0 0
2.9173 9.2231 -3.1531 0.233 -0.776 -0.586 111 69 57 0 0
2.9427 9.2355 -3.1594 0.233 -0.776 -0.586 113 71 59 0 0
3.2468 9.4739 -3.2397 0.378 -0.696 -0.610 189 179 171 0 0
3.2815 9.5008 -3.2488 0.378 -0.696 -0.610 191 181 176 0 0
3.3189 9.5321 -3.2588 0.457 -0.727 -0.513 194 183 177 0 0
3.3100 9.2452 -3.2417 -0.607 -0.717 -0.343 197 187 178 0 0
3.3484 9.2774 -3.2519 -0.773 -0.577 0.262 198 188 179 0 0
2.9973 8.4044 -3.1276 0.379 -0.795 -0.474 184 165 141 0 0
3.0211 8.4137 -3.1334 0.223 -0.802 -0.554 194 167 136 0 0
2.6009 6.6079 -2.9445 -0.908 -0.368 -0.203 212 187 157 0 0
2.6077 6.5952 -2.9453 -0.886 -0.453 -0.097 211 188 157 0 0
2.6134 6.5149 -2.9424 -0.868 -0.492 0.070 212 189 155 0 0
2.8305 6.3151 -2.9801 -0.228 -0.708 0.669 224 204 172 0 0
2.8661 6.3193 -2.9883 -0.399 -0.547 0.736 224 203 173 0 0
2.8990 6.2786 -2.9934 -0.448 -0.523 0.725 223 202 172 0 0
2.9125 6.2752 -2.9963 -0.433 -0.486 0.760 225 206 176 0 0
2.9495 6.2399 -3.0027 -0.238 -0.640 0.731 227 208 179 0 0
2.9886 6.2275 -3.0107 -0.435 -0.690 0.579 228 208 180 0 0
2.9952 6.2154 -3.0115 -0.351 -0.704 0.618 228 209 181 0 0
3.0058 6.2083 -3.0135 -0.351 -0.704 0.618 227 207 180 0 0
3.0307 6.2187 -3.0196 -0.635 -0.751 0.183 226 206 179 0 0
3.0399 6.2097 -3.0212 -0.169 -0.978 0.119 229 209 183 0 0
3.0507 6.2028 -3.0232 -0.633 -0.605 0.483 227 209 182 0 0
3.0562 6.1894 -3.0237 -0.793 -0.563 0.233 224 205 176 0 0
3.2191 6.0277 -3.0514 -0.529 -0.454 0.717 226 205 176 0 0
3.2353 6.0270 -3.0550 -0.783 -0.414 0.464 226 207 177 0 0
3.7264 5.7002 -3.1471 -0.406 -0.851 0.333 202 178 144 0 0
3.7896 5.6740 -3.1598 -0.548 -0.823 0.152 197 172 133 0 0
5.2206 6.3531 -3.5142 0.274 -0.863 -0.424 227 228 225 0 0
0.6548 11.6207 -2.7940 -0.099 -0.889 0.447 232 228 227 0 0
0.7174 11.1478 -2.7824 -0.649 -0.443 -0.619 225 220 216 0 0
0.8935 11.1315 -2.8209 -0.737 -0.233 -0.634 222 213 210 0 0
0.9384 10.8792 -2.8173 -0.847 -0.487 -0.211 206 195 189 0 0
1.1167 10.4370 -2.8332 -0.547 -0.683 -0.484 179 133 118 0 0
1.1458 10.3744 -2.8363 -0.889 -0.395 -0.231 183 133 115 0 0
1.2567 10.0213 -2.8420 -0.819 -0.349 -0.455 157 109 92 0 0
1.6567 8.8184 -2.8663 -0.212 -0.875 -0.435 170 123 107 0 0
1.6596 8.7885 -2.8653 -0.814 -0.468 -0.345 171 122 107 0 0
1.7138 8.6609 -2.8705 -0.885 -0.402 -0.233 173 122 104 0 0
1.7219 8.6436 -2.8714 -0.885 -0.402 -0.233 180 128 109 0 0
1.7397 8.6130 -2.8737 -0.786 -0.544 -0.294 168 115 96 0 0
1.7523 8.6062 -2.8762 -0.689 -0.644 -0.333 155 103 84 0 0
1.7623 8.5935 -2.8777 -0.624 -0.717 -0.310 173 123 105 0 0
1.7750 8.5520 -2.8783 -0.699 -0.677 -0.231 154 107 92 0 0
1.8034 8.5454 -2.8843 -0.516 -0.746 -0.421 153 105 90 0 0
1.8262 8.5263 -2.8884 -0.433 -0.800 -0.415 137 88 74 0 0
1.8388 8.5193 -2.8908 -0.490 -0.791 -0.365 139 90 75 0 0
2.4464 8.8811 -3.0462 -0.184 -0.844 -0.504 134 86 71 0 0
2.9222 9.2372 -3.1718 0.373 -0.727 -0.576 105 63 53 0 0
3.1816 9.4323 -3.2404 0.414 -0.696 -0.587 174 164 158 0 0
3.3111 9.5584 -3.2762 0.321 -0.604 -0.729 194 184 180 0 0
3.3934 9.2262 -3.2766 0.078 -0.825 0.560 199 190 181 0 0
2.9993 8.4121 -3.1444 0.312 -0.821 -0.478 183 164 141 0 0
3.0259 8.4262 -3.1511 0.312 -0.821 -0.478 189 162 131 0 0
3.0527 8.4403 -3.1579 0.312 -0.821 -0.478 193 165 130 0 0
2.6081 6.6439 -2.9613 -0.823 -0.334 -0.459 211 187 156 0 0
2.6141 6.6299 -2.9618 -0.823 -0.334 -0.459 209 185 155 0 0
2.6074 6.5317 -2.9550 -0.911 -0.412 0.024 209 186 153 0 0
2.6130 6.5176 -2.9555 -0.947 -0.321 0.006 207 183 149 0 0
2.6418 6.4919 -2.9606 -0.627 -0.757 -0.185 207 184 150 0 0
2.7067 6.4292 -2.9717 -0.728 -0.667 0.161 205 179 142 0 0
2.7319 6.3778 -2.9745 -0.669 -0.695 0.262 212 184 145 0 0
2.8110 6.3137 -2.9888 -0.231 -0.719 0.655 220 196 162 0 0
2.8376 6.3066 -2.9943 -0.196 -0.696 0.691 223 200 168 0 0
2.9312 6.2404 -3.0116 -0.207 -0.774 0.598 225 206 176 0 0
2.9438 6.2358 -3.0142 -0.180 -0.835 0.520 229 210 180 0 0
2.9647 6.2212 -3.0181 -0.578 -0.483 0.658 229 209 179 0 0
2.9724 6.2105 -3.0192 -0.578 -0.483 0.658 227 207 177 0 0
2.9800 6.1997 -3.0204 -0.560 -0.451 0.695 226 206 178 0 0
3.0419 6.1751 -3.0329 -0.118 -0.664 0.739 225 206 175 0 0
3.2293 6.0230 -3.0665 -0.516 -0.647 0.562 226 207 178 0 0
3.5723 5.7979 -3.1310 -0.392 -0.633 0.668 223 202 173 0 0
3.6948 5.7069 -3.1535 -0.288 -0.935 0.205 207 181 147 0 0
3.7391 5.6976 -3.1629 -0.352 -0.936 -0.019 208 184 147 0 0
0.5414 11.7846 -2.7955 0.024 -0.454 -0.891 235 234 232 0 0
0.7083 11.5780 -2.8215 0.208 -0.961 0.183 228 226 225 0 0
0.8148 11.6673 -2.8504 -0.849 0.082 -0.522 227 223 220 0 0
0.7838 11.1617 -2.8154 -0.308 -0.951 0.033 222 218 215 0 0
0.8009 11.1644 -2.8194 -0.200 -0.974 -0.103 223 217 215 0 0
0.8281 11.2051 -2.8277 -0.736 -0.450 -0.506 223 216 214 0 0
0.8762 11.0179 -2.8282 -0.825 -0.505 0.252 219 214 210 0 0
0.8883 11.0022 -2.8300 -0.570 -0.807 0.152 219 214 210 0 0
1.7405 8.6202 -2.8893 -0.786 -0.544 -0.294 158 106 85 0 0
1.7524 8.6118 -2.8915 -0.703 -0.643 -0.303 149 98 78 0 0
1.7628 8.5998 -2.8932 -0.624 -0.717 -0.310 172 122 105 0 0
1.8430 8.5337 -2.9075 -0.388 -0.879 -0.277 151 101 84 0 0
1.8565 8.5286 -2.9103 -0.388 -0.879 -0.277 142 92 75 0 0
2.9513 9.2616 -3.1966 0.231 -0.811 -0.537 113 73 61 0 0
3.2872 9.5562 -3.2883 0.363 -0.627 -0.690 193 185 178 0 0
3.4008 9.2107 -3.2947 0.129 -0.914 0.386 200 191 184 0 0
3.0044 8.4252 -3.1622 0.327 -0.833 -0.446 185 165 142 0 0
3.0301 8.4376 -3.1686 0.317 -0.839 -0.442 189 162 131 0 0
3.0553 8.4492 -3.1750 0.289 -0.837 -0.465 195 166 132 0 0
2.7793 6.3173 -2.9949 -0.570 -0.786 0.239 206 180 144 0 0
2.8911 6.2339 -3.0153 -0.160 -0.800 0.579 224 203 171 0 0
3.2287 6.0060 -3.0785 -0.468 -0.485 0.738 228 208 181 0 0
3.5506 5.7962 -3.1391 -0.178 -0.812 0.556 226 206 177 0 0
3.6508 5.7187 -3.1573 -0.366 -0.909 0.200 209 185 149 0 0
3.9658 5.6730 -3.2255 -0.476 -0.688 -0.548 191 173 147 0 0
0.6394 11.5784 -2.8239 -0.203 -0.977 -0.070 231 230 228 0 0
0.6596 11.5936 -2.8293 -0.170 -0.588 -0.791 230 229 227 0 0
0.6822 11.6181 -2.8358 -0.821 -0.463 0.333 230 229 227 0 0
0.8107 11.0270 -2.8312 -0.695 -0.713 0.093 223 217 213 0 0
1.3836 9.7094 -2.8856 -0.801 -0.483 -0.355 172 121 104 0 0
1.5307 9.2942 -2.8952 -0.642 -0.601 -0.476 181 129 111 0 0
1.7640 8.6079 -2.9089 -0.704 -0.648 -0.290 179 128 111 0 0
2.4926 8.9475 -3.0924 0.331 -0.853 -0.403 128 80 64 0 0
3.2123 9.2586 -3.2722 -0.772 -0.624 0.122 199 188 181 0 0
3.0081 8.4358 -3.1796 0.332 -0.838 -0.434 186 166 144 0 0
3.0350 8.4502 -3.1864 0.327 -0.833 -0.446 190 162 132 0 0
2.7892 6.3124 -3.0098 -0.630 -0.770 0.104 205 180 143 0 0
2.8029 6.2681 -3.0104 -0.569 -0.647 0.507 210 186 150 0 0
2.8126 6.2599 -3.0121 -0.533 -0.647 0.545 215 191 157 0 0
2.9644 6.1664 -3.0410 -0.432 -0.626 0.649 227 205 174 0 0
3.4452 5.8527 -3.1316 -0.208 -0.649 0.732 228 206 175 0 0
3.5087 5.8282 -3.1445 -0.324 -0.738 0.592 226 205 175 0 0
3.5259 5.7914 -3.1463 -0.400 -0.792 0.461 223 202 172 0 0
3.5889 5.7480 -3.1581 -0.395 -0.683 0.615 216 192 156 0 0
3.6485 5.7191 -3.1699 -0.444 -0.889 0.111 211 187 151 0 0
0.6371 11.5796 -2.8412 -0.067 -0.898 -0.434 231 230 228 0 0
0.6853 11.5735 -2.8518 -0.724 -0.673 0.151 232 228 227 0 0
0.8112 11.0383 -2.8492 -0.725 -0.624 0.291 222 217 213 0 0
0.8224 11.0192 -2.8507 -0.809 -0.491 0.323 223 218 213 0 0
0.8396 10.9626 -2.8513 -0.710 -0.493 -0.503 223 216 212 0 0
0.9575 11.0910 -2.8854 -0.952 -0.066 -0.299 219 214 210 0 0
1.3954 9.7042 -2.9041 -0.851 -0.477 -0.220 170 119 102 0 0
1.5083 9.3246 -2.9076 -0.709 -0.561 -0.429 183 130 109 0 0
1.5202 9.3144 -2.9097 -0.727 -0.593 -0.347 185 132 113 0 0
1.7550 8.6282 -2.9231 -0.756 -0.563 -0.335 168 115 96 0 0
1.7646 8.6145 -2.9244 -0.702 -0.633 -0.325 170 119 102 0 0
2.4944 8.9563 -3.1094 0.331 -0.853 -0.403 124 77 61 0 0
3.1912 9.2604 -3.2848 -0.549 -0.835 0.024 196 187 178 0 0
3.2049 9.2507 -3.2873 -0.141 -0.971 0.191 197 188 180 0 0
3.2296 9.2602 -3.2934 0.001 -0.982 -0.191 199 190 183 0 0
3.0125 8.4476 -3.1972 0.350 -0.830 -0.434 183 162 142 0 0
3.0402 8.4633 -3.2044 0.360 -0.820 -0.445 190 161 132 0 0
2.6848 6.4307 -3.0061 -0.799 -0.596 0.078 205 181 146 0 0
2.7765 6.2990 -3.0192 -0.797 -0.582 -0.163 211 186 148 0 0
3.0502 6.1143 -3.0704 -0.280 -0.502 0.818 226 205 175 0 0
3.0594 6.1056 -3.0720 -0.163 -0.688 0.707 226 205 176 0 0
3.3492 5.9188 -3.1268 -0.153 -0.756 0.637 226 206 173 0 0
3.5199 5.7878 -3.1578 -0.400 -0.792 0.461 217 194 162 0 0
3.5898 5.7336 -3.1705 -0.398 -0.809 0.432 215 192 157 0 0
5.2149 6.3789 -3.5757 0.155 -0.828 -0.539 227 227 225 0 0
5.2587 6.3981 -3.5867 0.267 -0.859 -0.437 226 226 224 0 0
0.6516 11.5820 -2.8625 0.056 -0.902 -0.428 230 229 225 0 0
0.7533 11.1371 -2.8592 -0.991 0.126 -0.039 226 221 218 0 0
0.8443 10.8119 -2.8606 -0.482 -0.843 0.239 222 217 213 0 0
0.9232 10.9779 -2.8884 -0.474 -0.835 -0.280 220 215 211 0 0
0.9969 11.0631 -2.9102 -0.903 -0.137 -0.407 218 213 209 0 0
1.1360 10.4269 -2.9041 -0.769 -0.606 -0.206 169 127 113 0 0
1.4036 9.6896 -2.9212 -0.879 -0.445 -0.171 167 115 101 0 0
1.5080 9.3303 -2.9236 -0.696 -0.672 -0.253 179 127 109 0 0
1.5196 9.3190 -2.9256 -0.696 -0.672 -0.253 175 123 107 0 0
1.5311 9.3078 -2.9275 -0.696 -0.672 -0.253 180 128 112 0 0
1.5427 9.2966 -2.9295 -0.696 -0.672 -0.253 168 117 101 0 0
1.5510 9.2773 -2.9302 -0.927 -0.356 0.117 169 117 101 0 0
1.6891 8.8062 -2.9337 -0.732 -0.484 -0.479 173 124 108 0 0
1.8999 8.5689 -2.9675 -0.408 -0.710 -0.574 143 95 81 0 0
2.4939 8.9603 -3.1257 0.322 -0.829 -0.458 130 83 67 0 0
3.1889 9.2615 -3.3015 -0.549 -0.835 0.024 198 189 180 0 0
3.2214 9.2511 -3.3083 0.090 -0.986 0.138 200 191 184 0 0
3.0151 8.4564 -3.2143 0.319 -0.823 -0.470 183 163 142 0 0
3.0444 8.4747 -3.2220 0.360 -0.820 -0.445 193 164 135 0 0
2.7195 6.3739 -3.0237 -0.740 -0.671 -0.043 200 176 141 0 0
2.7292 6.3446 -3.0241 -0.636 -0.735 0.234 204 180 145 0 0
2.8037 6.2546 -3.0357 -0.725 -0.647 0.236 209 185 149 0 0
3.0149 6.0946 -3.0742 -0.527 -0.793 0.305 225 201 169 0 0
3.0225 6.0841 -3.0753 -0.665 -0.633 0.396 228 204 172 0 0
3.3763 5.8765 -3.1434 -0.001 -0.887 0.462 220 199 166 0 0
3.5177 5.7882 -3.1703 -0.373 -0.794 0.479 210 186 151 0 0
3.7262 5.7130 -3.2133 -0.589 -0.803 0.088 178 158 126 0 0
3.7373 5.7063 -3.2154 -0.569 -0.799 0.195 182 163 130 0 0
5.1218 6.3574 -3.5686 0.518 -0.770 -0.373 217 210 198 0 0
5.3418 6.5340 -3.6291 0.523 -0.774 -0.357 226 225 217 0 0
5.2289 6.3942 -3.5951 0.155 -0.828 -0.539 226 226 224 0 0
5.2653 6.4068 -3.6041 0.236 -0.846 -0.477 227 227 225 0 0
0.8069 12.0199 -2.9423 0.306 -0.950 -0.060 230 227 224 0 0
0.8802 11.8313 -2.9475 -0.851 0.121 -0.512 227 223 220 0 0
0.8015 11.2684 -2.8955 -0.848 0.036 -0.529 225 221 218 0 0
0.8398 10.8049 -2.8762 -0.450 -0.890 0.065 222 217 213 0 0
0.8556 10.8035 -2.8797 -0.608 -0.794 0.015 221 216 212 0 0
0.8673 10.7874 -2.8814 -0.683 -0.726 0.080 221 216 212 0 0
0.9471 11.0136 -2.9133 -0.432 -0.880 -0.196 220 215 211 0 0
