ply
format ascii 1.0
element vertex 823
property float x
property float y
property float z
property float nx
property float ny
property float nz
property uchar diffuse_red
property uchar diffuse_green
property uchar diffuse_blue
property uchar class
property uchar detection
end_header
4.3940 5.7902 -2.8882 -0.505 -0.862 0.056 224 205 177 0 0
4.4524 5.7861 -2.8663 0.101 -0.655 0.749 221 203 173 0 0
4.8329 5.8122 -2.7391 -0.336 -0.903 0.269 202 178 144 0 0
4.8672 5.8242 -2.7305 0.321 -0.923 0.210 204 180 146 0 0
4.8787 5.8246 -2.7265 -0.047 -0.982 0.181 201 177 142 0 0
4.9931 5.8914 -2.7056 0.206 -0.979 -0.005 193 174 144 0 0
5.0047 5.8937 -2.7021 0.274 -0.957 -0.091 193 172 142 0 0
5.0278 5.9111 -2.6990 0.539 -0.837 0.092 191 171 138 0 0
5.1089 6.0395 -2.7080 0.434 -0.691 -0.578 192 173 143 0 0
5.1207 6.0494 -2.7067 0.567 -0.687 -0.455 191 172 142 0 0
5.3299 6.3975 -2.7347 0.819 -0.555 -0.144 192 170 141 0 0
5.3419 6.3791 -2.7251 0.874 -0.485 -0.041 195 173 144 0 0
5.4898 6.6889 -2.7636 0.867 -0.437 -0.240 192 170 139 0 0
5.5046 6.7374 -2.7726 0.817 -0.484 -0.314 193 172 143 0 0
6.5161 8.4851 -2.9271 0.358 -0.907 0.222 218 218 216 0 0
6.5307 8.4798 -2.9203 0.292 -0.810 0.509 216 216 214 0 0
6.5436 8.4616 -2.9104 0.414 -0.860 0.297 217 217 215 0 0
6.5805 8.5071 -2.9107 0.473 -0.703 0.531 213 213 211 0 0
7.1011 8.3433 -2.6781 -0.473 -0.848 0.238 173 171 172 0 0
7.4489 7.2794 -2.2426 -0.117 -0.925 -0.361 181 167 141 0 0
7.6308 7.1622 -2.1437 0.106 -0.785 -0.610 187 173 147 0 0
7.6674 7.1514 -2.1276 0.090 -0.831 -0.549 192 177 154 0 0
7.6797 7.1483 -2.1223 -0.006 -0.842 -0.539 189 174 151 0 0
7.9375 7.2172 -2.0512 0.516 -0.805 -0.293 190 175 154 0 0
8.0194 7.2675 -2.0369 0.361 -0.841 -0.402 191 174 154 0 0
8.1143 7.2733 -2.0049 0.492 -0.607 -0.624 190 176 152 0 0
8.2912 7.5650 -2.0279 0.716 -0.458 -0.527 201 187 170 0 0
8.4775 7.9111 -2.0634 0.698 -0.435 -0.568 224 222 216 0 0
8.4928 7.8731 -2.0468 0.274 -0.665 -0.695 224 223 221 0 0
8.5192 7.9087 -2.0479 0.508 -0.530 -0.679 225 224 222 0 0
8.5723 7.9796 -2.0499 0.679 -0.519 -0.518 227 226 224 0 0
8.8308 8.5493 -2.1256 0.062 -0.996 -0.060 229 228 226 0 0
8.8235 8.4440 -2.0973 -0.014 -0.526 0.850 229 229 227 0 0
2.9906 6.7335 -3.6773 0.981 -0.050 0.187 212 195 174 0 0
3.5933 5.7312 -3.1678 0.048 -0.879 0.475 214 190 157 0 0
4.0548 5.7493 -3.0095 -0.565 -0.781 0.265 224 204 176 0 0
4.5609 5.7811 -2.8395 -0.429 -0.882 0.193 221 198 167 0 0
4.5727 5.7786 -2.8346 -0.402 -0.792 0.460 219 196 165 0 0
4.5844 5.7765 -2.8298 -0.458 -0.851 0.257 218 195 164 0 0
4.5963 5.7717 -2.8242 -0.458 -0.851 0.257 220 197 166 0 0
4.7335 5.7951 -2.7824 0.113 -0.819 0.563 221 198 166 0 0
4.8829 5.8175 -2.7361 -0.095 -0.974 0.204 186 162 126 0 0
5.0086 5.8999 -2.7158 0.475 -0.853 -0.217 187 167 136 0 0
5.0202 5.9043 -2.7130 0.505 -0.829 -0.241 184 163 132 0 0
5.0316 5.9256 -2.7153 0.580 -0.797 -0.169 189 168 137 0 0
5.1247 6.0646 -2.7233 0.376 -0.760 -0.530 189 170 140 0 0
5.2088 6.1737 -2.7257 0.503 -0.709 -0.495 193 173 143 0 0
5.2209 6.1817 -2.7238 0.650 -0.693 -0.313 192 169 138 0 0
5.3345 6.4103 -2.7510 0.866 -0.499 -0.032 190 169 140 0 0
6.5971 8.5879 -2.9463 0.317 -0.518 0.795 214 214 212 0 0
6.7711 8.4150 -2.8336 -0.536 -0.435 0.724 208 207 205 0 0
6.8358 8.5329 -2.8455 -0.429 -0.400 0.810 206 205 203 0 0
7.1860 7.7926 -2.5028 -0.086 -0.352 -0.932 167 159 149 0 0
7.1907 7.7482 -2.4879 -0.060 -0.373 -0.926 174 159 146 0 0
7.1965 7.7090 -2.4743 -0.016 -0.395 -0.918 176 162 143 0 0
7.4556 7.2867 -2.2578 -0.087 -0.989 0.119 186 171 148 0 0
7.9669 7.2537 -2.0668 0.198 -0.772 -0.604 191 176 154 0 0
8.2978 7.6107 -2.0549 0.731 -0.472 -0.493 201 188 170 0 0
8.4488 7.8945 -2.0852 0.752 -0.428 -0.501 224 218 213 0 0
8.4682 7.9101 -2.0829 0.720 -0.468 -0.512 223 220 217 0 0
8.4690 7.8706 -2.0710 0.717 -0.604 -0.348 224 222 221 0 0
8.4920 7.8966 -2.0705 0.703 -0.640 -0.310 224 222 222 0 0
8.5069 7.8987 -2.0658 0.274 -0.665 -0.695 224 223 223 0 0
8.5298 7.9240 -2.0652 0.502 -0.692 -0.518 225 224 222 0 0
8.5503 7.9422 -2.0632 0.651 -0.670 -0.355 225 224 222 0 0
8.7333 8.4269 -2.1415 0.219 -0.496 0.840 226 225 223 0 0
8.7972 8.4386 -2.1223 -0.628 -0.701 0.338 228 228 226 0 0
8.8079 8.4268 -2.1150 -0.862 -0.476 0.175 229 229 227 0 0
8.8553 8.4339 -2.1003 0.328 -0.705 0.629 231 231 229 0 0
8.8807 8.4629 -2.0999 0.069 -0.533 0.843 231 231 229 0 0
3.0107 6.7229 -3.6820 0.980 -0.065 0.187 209 193 169 0 0
3.7285 5.7127 -3.1275 -0.228 -0.818 0.528 220 198 166 0 0
3.7402 5.7123 -3.1232 -0.344 -0.728 0.594 223 200 169 0 0
3.7519 5.7116 -3.1188 -0.524 -0.772 0.361 225 203 172 0 0
3.7645 5.7059 -3.1127 -0.524 -0.772 0.361 223 202 172 0 0
3.7756 5.7087 -3.1096 -0.202 -0.781 0.591 221 202 171 0 0
4.2671 5.7499 -2.9475 -0.381 -0.783 0.492 220 200 167 0 0
4.2789 5.7473 -2.9425 -0.381 -0.783 0.492 220 199 168 0 0
4.8294 5.8059 -2.7648 0.325 -0.936 0.139 200 176 139 0 0
4.9548 5.8753 -2.7409 0.362 -0.902 -0.236 189 167 136 0 0
5.1169 6.0663 -2.7402 0.309 -0.939 -0.150 189 169 139 0 0
5.1288 6.0661 -2.7359 0.616 -0.773 -0.151 189 169 139 0 0
5.2251 6.1926 -2.7393 0.650 -0.693 -0.313 194 172 141 0 0
5.4856 6.6819 -2.7922 0.877 -0.479 0.034 192 169 138 0 0
5.5138 6.7443 -2.8008 0.906 -0.411 0.106 193 171 142 0 0
5.8616 8.4384 -3.1805 -0.538 -0.822 0.185 216 213 209 0 0
5.8764 8.4294 -3.1726 -0.705 -0.702 -0.101 217 214 209 0 0
5.8906 8.4133 -3.1628 -0.637 -0.726 -0.259 218 215 210 0 0
6.7369 8.3558 -2.8456 0.358 -0.631 0.688 210 209 207 0 0
6.7722 8.3878 -2.8426 -0.699 -0.510 0.501 209 208 206 0 0
6.8594 8.5501 -2.8598 -0.790 -0.343 0.507 205 204 202 0 0
7.1407 8.4146 -2.7199 -0.111 -0.667 0.736 174 172 173 0 0
7.1700 8.0380 -2.5976 -0.634 -0.278 -0.721 161 161 162 0 0
7.2053 7.8598 -2.5322 -0.239 -0.342 -0.909 154 152 146 0 0
7.2083 7.8066 -2.5154 -0.138 -0.340 -0.930 158 152 143 0 0
7.4620 7.2928 -2.2728 -0.130 -0.885 0.446 185 171 146 0 0
7.4732 7.2839 -2.2662 -0.266 -0.958 -0.107 187 172 149 0 0
7.4847 7.2766 -2.2599 -0.231 -0.927 -0.297 188 173 150 0 0
8.0102 7.2918 -2.0781 0.661 -0.653 -0.369 194 177 152 0 0
8.0470 7.3238 -2.0746 0.434 -0.748 -0.502 184 168 145 0 0
8.4363 7.8839 -2.1029 0.763 -0.461 -0.452 222 219 215 0 0
8.5165 7.9112 -2.0825 0.740 -0.647 -0.182 224 223 222 0 0
8.5399 7.9379 -2.0822 0.740 -0.647 -0.182 225 224 222 0 0
8.7990 8.4702 -2.1484 -0.851 -0.524 -0.010 227 227 225 0 0
8.8126 8.4243 -2.1299 -0.745 -0.635 0.204 229 229 227 0 0
3.0126 6.7326 -3.6991 0.968 -0.063 0.244 208 192 168 0 0
3.6041 5.7154 -3.1855 -0.090 -0.975 0.202 207 186 154 0 0
3.7575 5.7018 -3.1270 -0.412 -0.770 0.487 219 196 161 0 0
3.7809 5.7000 -3.1182 -0.050 -0.828 0.559 219 198 166 0 0
3.9950 5.7355 -3.0528 -0.381 -0.688 0.617 223 200 169 0 0
4.1132 5.7180 -3.0057 -0.032 -0.930 0.365 218 198 166 0 0
4.2945 5.7457 -2.9496 -0.317 -0.884 0.344 223 200 169 0 0
4.3066 5.7414 -2.9441 -0.328 -0.744 0.582 221 198 167 0 0
4.3189 5.7345 -2.9377 -0.404 -0.672 0.620 222 199 168 0 0
4.6294 5.7400 -2.8292 -0.121 -0.900 0.418 225 203 170 0 0
4.6524 5.7397 -2.8209 -0.240 -0.938 0.252 219 198 165 0 0
4.9699 5.8960 -2.7550 0.387 -0.852 -0.353 186 165 134 0 0
4.9815 5.9005 -2.7522 0.393 -0.827 -0.403 185 164 133 0 0
5.1210 6.0564 -2.7493 0.428 -0.840 0.334 190 169 140 0 0
5.2172 6.1964 -2.7570 0.602 -0.711 -0.362 194 172 143 0 0
5.2294 6.2037 -2.7548 0.650 -0.693 -0.313 194 171 140 0 0
5.2417 6.2236 -2.7564 0.815 -0.580 -0.006 194 172 142 0 0
5.4904 6.6922 -2.8082 0.880 -0.468 0.076 190 168 137 0 0
5.8679 8.4516 -3.1998 -0.706 -0.634 0.316 216 212 209 0 0
5.9092 8.3854 -3.1654 -0.556 -0.676 0.484 219 216 211 0 0
5.9859 8.3889 -3.1392 -0.407 -0.478 0.778 217 215 211 0 0
6.5907 8.1439 -2.8515 -0.757 -0.475 -0.449 212 212 210 0 0
7.1931 7.9833 -2.5899 -0.701 -0.257 -0.665 157 157 156 0 0
7.1967 7.9314 -2.5731 -0.733 -0.409 -0.544 156 156 154 0 0
7.2358 7.8446 -2.5333 -0.138 -0.340 -0.930 153 150 144 0 0
7.2560 7.5519 -2.4387 -0.253 -0.506 -0.824 177 161 136 0 0
7.2954 7.4824 -2.4040 -0.066 -0.575 -0.816 175 159 134 0 0
7.3067 7.4718 -2.3968 -0.011 -0.549 -0.836 175 161 138 0 0
7.4655 7.2874 -2.2854 -0.202 -0.919 0.338 158 142 117 0 0
7.4781 7.2841 -2.2800 -0.266 -0.958 -0.107 179 163 139 0 0
7.4888 7.2735 -2.2730 -0.344 -0.876 -0.338 189 173 150 0 0
8.1390 7.4283 -2.0886 0.570 -0.500 -0.652 199 184 163 0 0
8.4383 7.9165 -2.1283 0.741 -0.455 -0.493 221 219 215 0 0
8.4690 7.8814 -2.1069 0.805 -0.583 -0.114 222 222 220 0 0
8.4961 7.9191 -2.1086 0.805 -0.583 -0.114 222 222 220 0 0
8.7306 8.4733 -2.1909 0.641 -0.289 0.711 225 224 222 0 0
3.6109 5.7005 -3.1917 -0.045 -0.946 0.322 198 177 146 0 0
3.7749 5.6905 -3.1305 -0.524 -0.772 0.361 212 187 152 0 0
3.8457 5.6820 -3.1029 0.141 -0.826 0.545 225 204 175 0 0
3.9241 5.6959 -3.0792 0.061 -0.759 0.648 224 203 170 0 0
4.1172 5.7168 -3.0170 -0.088 -0.965 0.247 221 200 169 0 0
4.1288 5.7162 -3.0127 -0.349 -0.605 0.716 220 200 169 0 0
4.2991 5.7396 -2.9593 -0.146 -0.842 0.519 222 199 167 0 0
4.3932 5.7217 -2.9205 -0.426 -0.726 0.540 226 203 172 0 0
4.4607 5.7380 -2.9015 -0.206 -0.655 0.727 224 202 171 0 0
4.5191 5.7289 -2.8780 -0.031 -0.930 0.366 223 200 166 0 0
4.5307 5.7274 -2.8735 -0.057 -0.873 0.485 222 198 165 0 0
4.5422 5.7277 -2.8695 0.083 -0.880 0.467 220 195 163 0 0
4.5532 5.7343 -2.8676 -0.323 -0.758 0.566 219 195 161 0 0
4.6451 5.7348 -2.8351 -0.128 -0.962 0.239 216 194 162 0 0
4.6565 5.7369 -2.8317 0.116 -0.935 0.335 213 191 159 0 0
4.7814 5.7650 -2.7958 0.083 -0.994 0.070 197 173 135 0 0
4.7929 5.7656 -2.7919 0.260 -0.943 0.208 190 166 128 0 0
4.9622 5.8949 -2.7707 0.459 -0.884 -0.086 186 164 133 0 0
4.9738 5.9015 -2.7686 0.434 -0.894 -0.113 185 164 133 0 0
4.9853 5.9069 -2.7661 0.472 -0.880 -0.056 184 163 132 0 0
5.0895 6.0307 -2.7663 0.582 -0.791 -0.189 190 171 139 0 0
5.1250 6.0598 -2.7625 0.275 -0.931 0.239 192 171 142 0 0
5.4951 6.6986 -2.8231 0.863 -0.490 0.122 188 167 136 0 0
5.7587 8.0872 -3.1467 0.963 -0.046 0.265 215 209 201 0 0
7.2663 7.5753 -2.4581 -0.367 -0.496 -0.787 147 133 112 0 0
7.4690 7.2820 -2.2980 -0.202 -0.919 0.338 181 164 139 0 0
7.4844 7.2895 -2.2949 -0.292 -0.956 0.038 161 145 120 0 0
7.4969 7.2859 -2.2893 -0.292 -0.956 0.038 172 156 131 0 0
7.7950 7.2526 -2.1736 0.148 -0.766 -0.625 193 178 154 0 0
8.1240 7.4501 -2.1162 0.556 -0.487 -0.674 195 183 161 0 0
8.1442 7.4711 -2.1153 0.539 -0.471 -0.698 196 182 161 0 0
8.1655 7.4948 -2.1149 0.539 -0.471 -0.698 199 184 165 0 0
8.1972 7.5507 -2.1204 0.573 -0.466 -0.674 203 188 171 0 0
8.8663 8.4595 -2.1561 -0.274 -0.677 0.683 231 230 228 0 0
3.8604 5.6854 -3.1117 -0.230 -0.758 0.611 220 199 168 0 0
4.1224 5.7066 -3.0251 -0.116 -0.800 0.589 221 202 170 0 0
4.1337 5.7080 -3.0215 -0.237 -0.707 0.666 222 203 171 0 0
4.5350 5.7219 -2.8833 -0.136 -0.859 0.494 213 189 153 0 0
4.6042 5.7179 -2.8575 -0.217 -0.894 0.392 214 191 157 0 0
4.6386 5.7183 -2.8455 0.114 -0.887 0.447 211 188 153 0 0
4.6492 5.7316 -2.8457 -0.128 -0.962 0.239 207 183 148 0 0
4.6716 5.7407 -2.8405 0.512 -0.859 -0.003 204 179 145 0 0
4.7288 5.7448 -2.8215 -0.181 -0.924 0.336 197 173 137 0 0
4.7403 5.7463 -2.8179 0.032 -0.926 0.377 198 174 138 0 0
4.7738 5.7640 -2.8113 -0.086 -0.996 0.015 187 164 129 0 0
4.7853 5.7645 -2.8074 0.083 -0.994 0.070 181 157 121 0 0
4.7969 5.7645 -2.8033 0.165 -0.966 0.199 174 150 114 0 0
4.9661 5.8979 -2.7835 0.347 -0.917 -0.195 189 168 139 0 0
4.9893 5.9073 -2.7781 0.609 -0.792 -0.043 187 166 135 0 0
5.0936 6.0300 -2.7782 0.685 -0.710 -0.164 190 169 138 0 0
5.2136 6.2148 -2.7914 0.569 -0.723 -0.391 193 169 140 0 0
5.2625 6.2449 -2.7832 0.624 -0.644 -0.444 193 172 143 0 0
5.4860 6.6801 -2.8354 0.859 -0.503 0.095 190 168 139 0 0
5.4997 6.7032 -2.8374 0.863 -0.490 0.122 189 165 137 0 0
5.5140 6.7374 -2.8427 0.914 -0.392 0.103 193 169 141 0 0
5.8536 8.3123 -3.1980 -0.389 -0.528 0.755 216 212 206 0 0
5.8839 8.3107 -3.1867 -0.044 -0.588 0.808 216 211 205 0 0
5.8957 8.2651 -3.1688 -0.389 -0.237 0.890 217 212 206 0 0
5.9089 8.2388 -3.1561 -0.130 -0.379 0.916 218 213 208 0 0
5.9638 8.3606 -3.1735 -0.383 -0.511 0.769 218 213 209 0 0
5.9783 8.3514 -3.1655 0.060 -0.509 0.858 217 214 209 0 0
7.2778 7.6667 -2.4976 -0.175 -0.400 -0.900 157 152 143 0 0
7.2839 7.6315 -2.4848 -0.161 -0.442 -0.882 163 156 140 0 0
7.3318 7.5372 -2.4393 0.063 -0.570 -0.820 179 164 142 0 0
7.5797 7.3274 -2.2880 0.078 -0.735 -0.673 190 174 151 0 0
8.1993 7.5842 -2.1456 0.566 -0.458 -0.685 200 184 171 0 0
8.7229 8.4189 -2.2120 0.606 -0.320 0.728 223 223 221 0 0
3.7488 5.6853 -3.1643 -0.007 -0.926 0.378 206 182 146 0 0
3.8533 5.6815 -3.1260 -0.051 -0.722 0.690 213 191 157 0 0
4.2091 5.6890 -3.0021 -0.328 -0.870 0.369 220 197 165 0 0
4.2192 5.6999 -3.0018 -0.384 -0.801 -0.459 220 199 168 0 0
4.4492 5.6972 -2.9193 0.100 -0.701 0.706 215 191 157 0 0
4.6086 5.7106 -2.8668 -0.244 -0.841 0.483 201 178 142 0 0
4.6200 5.7116 -2.8631 -0.217 -0.894 0.392 201 177 142 0 0
4.7332 5.7364 -2.8304 -0.007 -1.000 0.024 191 168 133 0 0
4.7662 5.7654 -2.8275 -0.119 -0.970 0.213 179 156 122 0 0
4.8559 5.8265 -2.8143 0.116 -0.992 -0.053 181 161 129 0 0
4.8675 5.8258 -2.8099 0.160 -0.986 -0.051 183 163 132 0 0
4.8788 5.8341 -2.8084 0.044 -0.999 -0.027 184 163 132 0 0
4.9472 5.8813 -2.7985 0.677 -0.726 -0.120 185 166 135 0 0
4.9585 5.8968 -2.7992 0.367 -0.866 -0.340 189 168 137 0 0
5.0976 6.0392 -2.7931 0.452 -0.888 -0.086 190 170 139 0 0
5.1094 6.0462 -2.7910 0.538 -0.825 -0.169 195 176 145 0 0
5.5045 6.7116 -2.8529 0.870 -0.491 -0.043 191 169 140 0 0
5.8412 8.2746 -3.2083 -0.889 -0.400 0.223 215 210 204 0 0
5.8577 8.2944 -3.2085 -0.389 -0.528 0.755 216 211 205 0 0
5.8773 8.3575 -3.2207 -0.662 -0.317 0.679 214 211 204 0 0
5.8983 8.2283 -3.1740 -0.467 -0.276 0.840 217 212 207 0 0
5.9435 8.2281 -3.1579 -0.219 -0.210 0.953 217 212 208 0 0
5.9594 8.2396 -3.1557 -0.213 -0.190 0.958 218 213 208 0 0
5.9964 8.1412 -3.1127 -0.047 -0.464 0.885 217 215 208 0 0
6.0115 8.1442 -3.1082 -0.018 -0.540 0.841 218 215 209 0 0
6.6227 8.1529 -2.8940 -0.595 -0.782 -0.187 212 212 210 0 0
7.1488 8.3445 -2.7654 -0.694 -0.540 0.475 177 176 174 0 0
7.3445 8.4876 -2.7394 -0.736 -0.266 -0.623 158 158 158 0 0
7.3024 7.6912 -2.5124 -0.088 -0.428 -0.899 148 143 139 0 0
7.3074 7.6512 -2.4985 -0.193 -0.428 -0.883 158 151 142 0 0
7.3213 7.6507 -2.4935 -0.050 -0.423 -0.905 167 156 144 0 0
7.4686 7.4019 -2.3656 0.092 -0.661 -0.745 177 162 141 0 0
7.5116 7.3576 -2.3368 0.024 -0.583 -0.812 183 167 144 0 0
7.8504 7.3172 -2.2043 0.169 -0.670 -0.723 194 179 156 0 0
7.9559 7.4000 -2.1920 0.504 -0.561 -0.657 191 176 155 0 0
7.9711 7.4057 -2.1883 0.388 -0.680 -0.622 191 176 155 0 0
3.6844 5.6790 -3.1983 -0.221 -0.971 -0.094 184 163 131 0 0
3.7537 5.6793 -3.1738 0.015 -0.983 0.181 198 174 138 0 0
3.8586 5.6728 -3.1345 -0.085 -0.706 0.703 209 185 150 0 0
3.8940 5.6681 -3.1206 -0.374 -0.776 0.507 206 183 149 0 0
3.9073 5.6574 -3.1126 -0.278 -0.890 0.360 208 184 148 0 0
3.9192 5.6548 -3.1075 -0.158 -0.933 0.322 213 189 153 0 0
3.9301 5.6580 -3.1046 0.174 -0.959 0.224 213 189 153 0 0
3.9673 5.6410 -3.0862 -0.544 -0.818 0.186 212 187 151 0 0
4.0898 5.6651 -3.0501 -0.138 -0.775 0.617 219 196 164 0 0
4.1006 5.6696 -3.0476 -0.415 -0.693 0.590 222 199 165 0 0
4.1338 5.6784 -3.0386 -0.312 -0.576 0.756 221 200 167 0 0
4.2236 5.6955 -3.0119 -0.511 -0.801 0.312 221 200 168 0 0
4.4315 5.6829 -2.9343 -0.304 -0.683 0.665 210 186 152 0 0
4.7260 5.7295 -2.8439 0.233 -0.972 0.008 176 153 119 0 0
4.7370 5.7370 -2.8423 -0.112 -0.992 0.061 175 153 120 0 0
4.7697 5.7729 -2.8417 -0.053 -0.994 -0.092 180 158 124 0 0
4.7816 5.7650 -2.8350 0.063 -0.982 0.177 178 156 123 0 0
4.8597 5.8290 -2.8268 -0.222 -0.860 0.460 183 164 134 0 0
4.9512 5.8815 -2.8104 0.727 -0.684 0.062 187 168 138 0 0
4.9741 5.8966 -2.8069 0.280 -0.911 -0.304 189 170 140 0 0
5.0086 5.9309 -2.8052 0.469 -0.875 -0.125 191 171 141 0 0
5.0898 6.0369 -2.8087 0.432 -0.757 -0.490 190 171 141 0 0
5.1016 6.0433 -2.8064 0.538 -0.782 -0.314 192 173 143 0 0
5.1372 6.0762 -2.8039 0.694 -0.646 -0.318 189 170 140 0 0
5.2221 6.2372 -2.8229 0.799 -0.579 -0.159 193 172 144 0 0
5.5238 6.7596 -2.8754 0.916 -0.399 0.049 190 169 140 0 0
5.8617 8.2760 -3.2188 -0.372 -0.506 0.778 215 211 204 0 0
5.8807 8.3300 -3.2285 -0.955 -0.292 0.052 214 211 204 0 0
5.8855 8.1866 -3.1830 -0.130 -0.224 0.966 215 210 206 0 0
5.9311 8.1953 -3.1695 0.035 -0.268 0.963 217 212 208 0 0
6.0457 8.1345 -3.1102 0.199 -0.237 0.951 218 215 210 0 0
6.6298 8.1654 -2.9123 -0.800 -0.587 -0.122 212 212 210 0 0
7.3514 8.4942 -2.7566 -0.782 -0.299 -0.547 161 161 161 0 0
7.3332 7.7425 -2.5334 0.075 -0.421 -0.904 145 143 143 0 0
7.3434 7.7253 -2.5245 0.075 -0.421 -0.904 146 141 138 0 0
7.3535 7.7081 -2.5157 0.075 -0.421 -0.904 151 145 137 0 0
7.8117 7.3054 -2.2299 0.334 -0.858 -0.390 191 176 153 0 0
7.9215 7.4041 -2.2211 0.610 -0.546 -0.575 192 177 156 0 0
7.9420 7.4271 -2.2209 0.460 -0.558 -0.690 193 178 156 0 0
8.4394 8.0708 -2.2410 0.721 -0.454 -0.524 215 215 212 0 0
8.5237 8.1065 -2.2220 0.864 -0.358 0.355 220 218 217 0 0
8.6107 8.1066 -2.1911 0.856 -0.371 0.359 223 223 221 0 0
3.6220 5.7204 -3.2462 -0.257 -0.872 -0.416 191 175 149 0 0
3.6484 5.7048 -3.2320 -0.211 -0.975 -0.061 191 174 147 0 0
3.7590 5.6712 -3.1824 -0.060 -0.968 0.244 182 161 127 0 0
3.8988 5.6621 -3.1300 -0.228 -0.824 0.518 207 184 148 0 0
3.9111 5.6572 -3.1241 0.276 -0.914 0.297 208 184 148 0 0
3.9228 5.6555 -3.1194 0.124 -0.965 0.231 209 185 148 0 0
3.9339 5.6578 -3.1162 0.157 -0.918 0.364 208 184 148 0 0
3.9475 5.6450 -3.1075 -0.157 -0.974 0.165 207 183 147 0 0
4.1045 5.6693 -3.0592 -0.192 -0.773 0.604 217 195 158 0 0
4.1282 5.6639 -3.0491 -0.225 -0.763 0.607 217 194 160 0 0
4.4485 5.6649 -2.9357 -0.102 -0.992 0.071 202 178 143 0 0
4.4593 5.6714 -2.9338 -0.147 -0.966 0.212 204 178 143 0 0
4.7073 5.7225 -2.8615 0.576 -0.818 -0.015 172 149 117 0 0
4.7298 5.7303 -2.8559 0.233 -0.972 0.008 166 144 113 0 0
4.7410 5.7358 -2.8536 -0.112 -0.992 0.061 172 152 120 0 0
4.8405 5.8271 -2.8463 0.426 -0.868 -0.256 188 168 138 0 0
4.8520 5.8319 -2.8437 0.426 -0.868 -0.256 188 168 138 0 0
4.8868 5.8316 -2.8313 -0.294 -0.953 -0.071 188 169 139 0 0
5.0008 5.9325 -2.8218 0.521 -0.817 -0.246 191 170 141 0 0
5.0240 5.9465 -2.8178 0.501 -0.858 -0.113 185 165 136 0 0
5.0938 6.0477 -2.8242 0.353 -0.811 -0.466 191 171 142 0 0
5.5287 6.7686 -2.8912 0.899 -0.436 0.041 188 167 138 0 0
5.8185 8.4643 -3.3093 0.968 -0.049 0.247 214 208 204 0 0
5.8605 8.1839 -3.2082 -0.916 -0.398 -0.045 215 211 204 0 0
5.8753 8.1813 -3.2022 -0.914 -0.396 0.085 214 211 204 0 0
5.8895 8.1707 -3.1938 0.045 -0.238 0.970 215 210 206 0 0
5.9205 8.1846 -3.1871 0.265 -0.182 0.947 216 211 207 0 0
5.9370 8.2034 -3.1871 -0.178 -0.213 0.961 217 212 208 0 0
5.9502 7.8156 -3.0632 -0.807 -0.332 -0.488 216 213 208 0 0
6.7822 8.2491 -2.9010 -0.032 -0.191 0.981 208 208 208 0 0
7.1529 8.3103 -2.7882 -0.212 -0.553 0.806 178 178 176 0 0
7.1693 8.3177 -2.7846 -0.157 -0.486 0.860 176 176 174 0 0
7.2068 8.2803 -2.7598 -0.448 -0.545 0.709 171 169 170 0 0
7.2215 8.2791 -2.7542 -0.504 -0.554 0.663 169 169 169 0 0
7.3616 8.5163 -2.7773 -0.732 -0.294 -0.615 161 161 161 0 0
7.7890 7.3494 -2.2670 0.343 -0.746 -0.571 186 170 147 0 0
8.6279 8.1828 -2.2252 -0.587 -0.556 -0.589 223 222 220 0 0
3.6525 5.7031 -3.2431 -0.221 -0.948 -0.228 192 175 149 0 0
3.7878 5.6600 -3.1818 -0.311 -0.942 0.123 182 161 128 0 0
4.1110 5.6497 -3.0638 -0.070 -0.985 0.155 212 188 150 0 0
4.1232 5.6444 -3.0578 0.116 -0.987 0.115 212 188 153 0 0
4.1332 5.6546 -3.0574 -0.134 -0.866 0.482 206 182 147 0 0
4.2938 5.6514 -2.9994 0.067 -0.990 0.124 210 186 150 0 0
4.3499 5.6604 -2.9823 0.467 -0.884 -0.015 208 181 146 0 0
4.7222 5.7313 -2.8720 0.409 -0.901 0.146 172 151 120 0 0
4.7336 5.7322 -2.8682 0.338 -0.931 0.140 174 154 124 0 0
4.7449 5.7347 -2.8649 -0.112 -0.992 0.061 181 161 132 0 0
5.8223 8.4406 -3.3183 0.969 -0.055 0.242 214 207 203 0 0
5.9238 8.1587 -3.1951 -0.187 -0.224 0.957 215 212 206 0 0
6.0578 8.1528 -3.1457 -0.058 -0.344 0.937 218 215 210 0 0
6.5195 8.2622 -3.0155 -0.006 -0.750 0.661 217 217 217 0 0
6.5293 8.2240 -3.0002 -0.112 -0.985 0.134 217 217 217 0 0
6.5580 8.2150 -2.9872 -0.429 -0.850 0.306 216 216 216 0 0
6.6125 8.0770 -2.9253 -0.737 -0.676 0.001 212 212 212 0 0
7.1838 8.2137 -2.7646 0.178 -0.820 0.545 176 175 173 0 0
7.2027 8.2338 -2.7641 -0.119 -0.784 0.610 175 173 173 0 0
7.2168 8.2299 -2.7579 -0.309 -0.723 0.617 172 172 172 0 0
7.2311 8.2270 -2.7519 -0.349 -0.769 0.535 170 170 170 0 0
7.4062 8.2793 -2.7059 -0.439 -0.873 0.214 152 152 153 0 0
7.5766 7.4468 -2.3881 0.109 -0.536 -0.837 182 167 146 0 0
7.9556 7.5302 -2.2793 0.693 -0.423 -0.584 188 173 151 0 0
8.6147 8.1710 -2.2432 -0.250 -0.962 -0.109 222 221 219 0 0
8.6440 8.2136 -2.2459 -0.056 -0.902 -0.428 222 222 220 0 0
3.5216 5.8453 -3.3469 -0.505 -0.803 -0.318 195 178 151 0 0
3.7920 5.6578 -3.1926 -0.135 -0.977 -0.167 180 161 131 0 0
3.8037 5.6569 -3.1882 -0.104 -0.987 0.125 178 157 127 0 0
3.8161 5.6520 -3.1823 -0.264 -0.953 0.148 178 156 126 0 0
3.9682 5.6345 -3.1228 0.114 -0.990 0.085 204 181 145 0 0
4.0056 5.6148 -3.1034 0.044 -0.998 0.033 200 174 136 0 0
4.0243 5.6416 -3.1050 0.214 -0.886 0.410 201 175 138 0 0
4.1386 5.6427 -3.0648 0.102 -0.927 0.361 201 177 140 0 0
4.1947 5.6509 -3.0474 -0.043 -0.992 0.117 203 178 142 0 0
4.2975 5.6517 -3.0111 0.075 -0.960 0.270 201 175 139 0 0
4.3429 5.6549 -2.9960 0.242 -0.970 -0.029 197 170 133 0 0
4.3540 5.6575 -2.9929 0.242 -0.970 -0.029 200 173 138 0 0
4.5352 5.6752 -2.9340 0.056 -0.969 0.242 185 160 123 0 0
4.7150 5.7245 -2.8854 0.301 -0.941 -0.155 178 155 125 0 0
4.7261 5.7302 -2.8833 0.282 -0.957 -0.072 182 162 133 0 0
4.7375 5.7312 -2.8795 0.355 -0.933 -0.057 184 165 137 0 0
4.7486 5.7386 -2.8779 0.047 -0.989 -0.139 189 169 142 0 0
4.7596 5.7478 -2.8768 0.556 -0.831 -0.022 188 168 140 0 0
5.1615 6.1304 -2.8529 0.401 -0.767 -0.501 191 169 140 0 0
5.1735 6.1366 -2.8506 0.285 -0.745 -0.603 190 169 138 0 0
5.3357 6.4115 -2.8783 0.389 -0.753 0.531 190 168 137 0 0
5.8568 8.1965 -3.2478 -0.854 -0.489 0.177 214 208 204 0 0
5.8964 8.1229 -3.2109 -0.108 -0.185 0.977 213 209 203 0 0
5.9124 8.1373 -3.2096 -0.191 -0.240 0.952 214 210 203 0 0
5.9370 8.2624 -3.2398 -0.642 -0.330 0.691 214 210 204 0 0
5.9807 8.2422 -3.2180 0.152 -0.145 0.978 215 212 207 0 0
6.0619 8.1406 -3.1576 -0.232 -0.301 0.925 218 214 208 0 0
6.5156 8.1941 -3.0130 0.026 -0.894 0.447 218 218 217 0 0
6.5367 8.2390 -3.0195 0.115 -0.787 0.606 217 217 217 0 0
6.5507 8.2320 -3.0123 -0.287 -0.837 0.466 217 217 216 0 0
6.5659 8.2335 -3.0074 0.316 -0.674 0.668 217 217 215 0 0
6.5768 8.2044 -2.9945 -0.462 -0.863 0.203 216 216 216 0 0
6.6108 8.1304 -2.9594 -0.742 -0.464 0.484 213 213 212 0 0
6.6238 8.1183 -2.9510 -0.742 -0.464 0.484 213 213 212 0 0
6.6400 8.1278 -2.9482 -0.944 -0.287 0.165 212 212 211 0 0
7.2055 8.2212 -2.7763 -0.361 -0.699 0.618 175 174 174 0 0
7.2198 8.2183 -2.7703 -0.381 -0.697 0.608 173 173 173 0 0
7.4360 8.2554 -2.7050 -0.738 -0.447 0.507 150 150 152 0 0
7.4335 7.9256 -2.6035 -0.268 -0.364 -0.892 145 145 147 0 0
7.6223 7.4978 -2.4035 0.104 -0.512 -0.853 185 170 149 0 0
7.7867 7.4491 -2.3300 0.485 -0.531 -0.695 188 173 151 0 0
7.8040 7.4622 -2.3279 0.485 -0.531 -0.695 188 174 151 0 0
8.6066 8.4800 -2.3590 0.650 -0.384 0.656 216 215 213 0 0
8.6136 8.4560 -2.3490 0.484 -0.646 0.590 216 215 213 0 0
8.5941 8.2230 -2.2836 -0.618 -0.641 -0.454 220 219 218 0 0
8.6048 8.2115 -2.2762 -0.640 -0.702 -0.312 222 221 219 0 0
8.6217 8.2180 -2.2722 -0.439 -0.858 -0.265 222 221 219 0 0
8.6236 8.1812 -2.2601 -0.563 -0.765 0.314 222 221 219 0 0
8.6424 8.1932 -2.2571 -0.461 -0.783 0.417 223 222 220 0 0
3.8196 5.6536 -3.1945 -0.172 -0.978 -0.120 183 165 136 0 0
4.1883 5.6417 -3.0598 -0.001 -0.973 0.230 197 173 137 0 0
4.4834 5.6584 -2.9601 0.034 -0.956 0.292 187 164 128 0 0
4.5281 5.6693 -2.9477 0.004 -0.948 0.319 171 148 112 0 0
4.7725 5.7974 -2.9008 0.273 -0.852 -0.446 188 169 139 0 0
4.9537 5.9475 -2.8833 0.749 -0.644 -0.155 186 167 137 0 0
5.1656 6.1258 -2.8637 0.506 -0.766 -0.396 191 168 140 0 0
5.1777 6.1414 -2.8643 -0.120 -0.959 -0.256 190 169 138 0 0
5.1899 6.1905 -2.8753 0.658 -0.753 -0.027 190 169 138 0 0
5.3534 6.4509 -2.8986 0.845 -0.504 -0.177 195 171 143 0 0
5.5015 6.7248 -2.9315 0.867 -0.486 -0.112 189 169 140 0 0
5.5436 6.8011 -2.9404 0.899 -0.438 0.008 187 165 136 0 0
5.8972 8.0632 -3.2090 -0.905 -0.402 -0.140 214 209 203 0 0
5.9516 8.1887 -3.2289 -0.365 -0.377 0.851 214 210 203 0 0
5.9983 8.2087 -3.2185 -0.297 -0.554 0.777 215 212 206 0 0
6.0692 8.1634 -3.1792 -0.273 -0.245 0.930 217 213 207 0 0
6.5217 8.1999 -3.0298 0.408 -0.669 0.622 218 218 216 0 0
6.5352 8.1894 -3.0217 0.222 -0.820 0.528 217 217 216 0 0
6.5533 8.2126 -3.0225 0.316 -0.674 0.668 217 217 215 0 0
6.5697 8.2228 -3.0199 0.316 -0.674 0.668 216 216 214 0 0
6.5813 8.1988 -3.0083 -0.462 -0.863 0.203 216 216 216 0 0
6.6253 8.0930 -2.9596 -0.460 -0.470 0.754 213 213 212 0 0
7.4032 8.3525 -2.7642 -0.644 -0.243 -0.725 160 160 160 0 0
7.7729 7.5282 -2.3753 0.233 -0.499 -0.835 164 146 125 0 0
7.7897 7.5392 -2.3728 0.142 -0.458 -0.877 170 153 132 0 0
7.7950 7.5093 -2.3616 0.315 -0.470 -0.825 179 161 140 0 0
8.1821 7.9190 -2.3520 -0.677 -0.421 -0.603 201 200 194 0 0
8.6321 8.4943 -2.3718 -0.650 -0.548 0.527 216 216 214 0 0
8.6568 8.4783 -2.3581 -0.650 -0.548 0.527 218 218 216 0 0
8.6694 8.4711 -2.3513 -0.682 -0.637 0.359 218 218 216 0 0
8.6170 8.1885 -2.2817 -0.745 -0.637 0.200 222 221 219 0 0
8.6443 8.2252 -2.2834 -0.798 -0.601 0.032 222 221 219 0 0
8.6449 8.1846 -2.2705 -0.461 -0.783 0.417 224 223 221 0 0
3.0622 6.7957 -3.8355 0.959 -0.053 0.277 210 195 171 0 0
4.0680 5.6294 -3.1116 0.069 -0.988 0.138 188 165 130 0 0
4.0789 5.6336 -3.1091 -0.104 -0.973 0.206 188 165 130 0 0
4.1254 5.6278 -3.0907 -0.178 -0.979 0.095 190 168 133 0 0
4.2723 5.6393 -3.0421 0.033 -0.928 0.371 192 166 129 0 0
4.7654 5.7875 -2.9134 0.478 -0.871 0.110 187 168 140 0 0
4.7876 5.8071 -2.9117 0.279 -0.918 -0.282 185 164 135 0 0
5.0388 6.0311 -2.8927 0.628 -0.733 -0.259 188 167 136 0 0
5.3580 6.4647 -2.9155 0.845 -0.504 -0.177 192 168 139 0 0
6.0026 8.1981 -3.2309 -0.153 -0.628 0.763 214 211 205 0 0
6.0170 8.1908 -3.2235 0.060 -0.560 0.826 216 211 205 0 0
6.0297 8.1650 -3.2108 -0.517 -0.767 0.379 217 212 206 0 0
6.0458 8.1775 -3.2090 -0.527 -0.692 0.494 216 211 205 0 0
6.0611 8.1810 -3.2047 -0.507 -0.511 0.695 216 212 205 0 0
6.5225 8.1669 -3.0363 0.039 -0.756 0.654 219 219 217 0 0
6.5391 8.1793 -3.0343 -0.022 -0.988 0.154 218 218 217 0 0
6.5495 8.1470 -3.0204 -0.572 -0.565 0.595 217 217 215 0 0
6.5735 8.2122 -3.0324 0.316 -0.674 0.668 215 215 213 0 0
6.6279 8.0754 -2.9701 -0.446 -0.525 0.724 213 213 213 0 0
6.6432 8.0790 -2.9658 -0.768 -0.406 0.496 213 213 213 0 0
7.0562 8.2409 -2.8698 0.240 -0.530 0.813 192 191 189 0 0
7.0785 8.2798 -2.8741 0.147 -0.363 0.920 192 191 189 0 0
7.2723 8.3480 -2.8267 -0.181 -0.646 0.741 174 174 172 0 0
7.2876 8.3494 -2.8217 -0.181 -0.646 0.741 172 172 170 0 0
7.6191 7.6049 -2.4700 0.510 -0.579 -0.636 160 156 148 0 0
7.6833 7.5857 -2.4411 0.486 -0.483 -0.728 176 166 151 0 0
7.7332 7.6675 -2.4491 0.338 -0.414 -0.845 176 165 150 0 0
7.7958 7.5922 -2.4032 0.209 -0.439 -0.874 180 165 148 0 0
7.8860 7.6653 -2.3941 0.451 -0.389 -0.803 169 153 135 0 0
7.9162 7.7217 -2.4011 0.566 -0.396 -0.723 168 153 136 0 0
7.9524 7.7984 -2.4123 0.523 -0.402 -0.752 171 156 139 0 0
8.1292 8.0102 -2.4160 0.641 -0.415 -0.646 193 187 180 0 0
8.1856 7.9131 -2.3655 -0.861 -0.403 -0.310 199 199 198 0 0
8.2619 7.9291 -2.3433 -0.674 -0.524 -0.521 208 205 204 0 0
8.6396 8.5002 -2.3885 0.750 -0.552 0.365 217 217 215 0 0
8.6320 8.4332 -2.3701 0.449 -0.884 0.131 218 218 216 0 0
8.6744 8.4694 -2.3665 0.352 -0.710 0.610 219 218 216 0 0
8.6552 8.3696 -2.3419 0.737 -0.493 0.461 220 218 218 0 0
8.6525 8.1908 -2.2867 -0.592 -0.633 0.499 222 221 219 0 0
3.8878 5.6347 -3.1903 0.338 -0.933 0.125 179 162 133 0 0
3.9105 5.6361 -3.1827 -0.025 -0.993 0.114 175 158 129 0 0
4.0377 5.6280 -3.1349 0.068 -0.965 0.253 173 153 121 0 0
4.1287 5.6313 -3.1036 0.174 -0.976 0.129 175 155 123 0 0
4.2766 5.6355 -3.0524 0.147 -0.958 0.244 175 152 116 0 0
4.4124 5.6454 -3.0072 0.239 -0.969 -0.061 173 153 121 0 0
4.5246 5.6666 -2.9740 0.579 -0.809 0.100 173 154 121 0 0
4.7693 5.7870 -2.9250 0.502 -0.863 -0.061 187 168 138 0 0
4.8586 5.8689 -2.9191 0.446 -0.812 -0.377 188 165 134 0 0
4.8701 5.8742 -2.9167 0.352 -0.818 -0.455 186 165 135 0 0
4.9962 5.9855 -2.9070 0.312 -0.948 -0.056 188 167 136 0 0
5.0314 6.0066 -2.9012 0.498 -0.817 -0.291 190 169 138 0 0
5.1498 6.1446 -2.9027 0.445 -0.753 -0.485 187 166 135 0 0
5.1618 6.1514 -2.9006 0.361 -0.703 -0.612 191 170 140 0 0
5.2228 6.2303 -2.9038 0.726 -0.688 -0.005 188 167 137 0 0
5.8554 8.1670 -3.2906 -0.905 -0.398 -0.151 212 207 201 0 0
5.8687 8.1432 -3.2783 -0.936 -0.350 -0.031 211 206 200 0 0
5.8809 8.1053 -3.2620 -0.923 -0.384 -0.004 212 207 201 0 0
5.9451 8.1646 -3.2579 -0.186 -0.419 0.889 214 209 203 0 0
6.0198 8.1629 -3.2308 -0.217 -0.425 0.879 215 211 204 0 0
6.0342 8.1558 -3.2235 -0.517 -0.767 0.379 216 211 205 0 0
6.5259 8.1531 -3.0478 -0.388 -0.648 0.655 219 219 217 0 0
6.5773 8.2017 -3.0449 0.316 -0.674 0.668 216 216 214 0 0
6.8908 8.2034 -2.9340 -0.850 -0.315 0.422 205 205 205 0 0
7.0444 8.2287 -2.8874 0.040 -0.492 0.870 195 194 192 0 0
7.0598 8.2316 -2.8828 -0.158 -0.490 0.857 194 193 191 0 0
7.0771 8.2443 -2.8806 -0.042 -0.500 0.865 193 192 190 0 0
7.5591 8.9356 -2.9276 -0.247 -0.298 -0.922 161 161 161 0 0
7.4328 8.1702 -2.7308 0.005 -0.952 -0.306 157 157 157 0 0
7.5111 8.1895 -2.7091 0.505 -0.856 -0.106 153 153 153 0 0
7.7296 7.6871 -2.4727 0.600 -0.441 -0.668 160 156 149 0 0
7.7552 7.7298 -2.4771 0.616 -0.436 -0.656 162 158 151 0 0
8.0209 7.9178 -2.4420 0.353 -0.529 -0.772 181 176 166 0 0
8.6434 8.4948 -2.4029 0.839 -0.544 -0.023 217 217 215 0 0
8.6373 8.3883 -2.3715 -0.479 -0.849 0.224 219 218 216 0 0
8.6614 8.3715 -2.3576 0.490 -0.792 0.364 220 218 218 0 0
3.7716 5.7260 -3.2736 0.313 -0.850 -0.423 186 169 141 0 0
3.9485 5.6371 -3.1825 0.134 -0.989 -0.068 182 162 135 0 0
3.9598 5.6383 -3.1789 0.134 -0.989 -0.068 178 158 131 0 0
4.0641 5.6297 -3.1390 0.164 -0.984 -0.074 172 153 123 0 0
4.0755 5.6301 -3.1351 -0.069 -0.991 -0.112 171 154 123 0 0
4.2806 5.6334 -3.0632 0.147 -0.958 0.244 165 143 111 0 0
4.3935 5.6448 -3.0267 0.097 -0.951 -0.294 169 151 118 0 0
4.4836 5.6570 -2.9985 0.021 -0.992 -0.121 177 158 127 0 0
4.8058 5.8329 -2.9398 0.402 -0.782 -0.477 184 163 132 0 0
4.8624 5.8743 -2.9328 0.520 -0.810 -0.271 191 169 140 0 0
4.8738 5.8826 -2.9314 0.397 -0.842 -0.365 189 169 138 0 0
5.3674 6.4969 -2.9509 0.835 -0.513 -0.202 195 172 141 0 0
5.5445 6.8105 -2.9875 0.834 -0.538 -0.123 186 165 138 0 0
5.8587 8.1387 -3.2976 -0.926 -0.342 0.162 211 206 200 0 0
5.8716 8.1102 -3.2840 -0.926 -0.342 0.162 212 207 201 0 0
5.9092 8.0174 -3.2411 0.464 -0.792 0.396 212 207 201 0 0
5.9269 8.0560 -3.2471 -0.318 -0.709 0.630 214 209 203 0 0
5.9464 8.1139 -3.2586 0.105 -0.448 0.888 214 209 203 0 0
5.9593 8.0900 -3.2464 0.080 -0.379 0.922 214 211 204 0 0
6.0386 8.1470 -3.2362 -0.203 -0.566 0.799 215 210 204 0 0
6.0533 8.1440 -3.2301 -0.209 -0.720 0.661 216 211 205 0 0
6.5653 8.1845 -3.0609 0.237 -0.683 0.691 217 217 215 0 0
6.5811 8.1911 -3.0573 0.316 -0.674 0.668 217 217 215 0 0
6.5804 8.0825 -3.0231 0.540 -0.595 0.595 217 217 216 0 0
6.6077 8.1688 -3.0408 0.740 -0.600 0.303 216 216 216 0 0
6.6156 8.0210 -2.9910 -0.713 -0.692 -0.112 214 214 214 0 0
6.8425 8.2392 -2.9796 -0.531 -0.334 0.779 209 209 209 0 0
6.8565 8.2333 -2.9728 -0.837 -0.364 0.408 208 208 208 0 0
6.8960 8.2030 -2.9491 -0.956 -0.287 -0.060 205 205 205 0 0
7.0648 8.2297 -2.8976 0.036 -0.541 0.840 195 194 192 0 0
7.4387 8.1728 -2.7466 0.022 -0.949 -0.315 159 159 159 0 0
7.4480 8.1490 -2.7357 -0.118 -0.990 0.073 158 158 158 0 0
7.5027 8.1311 -2.7106 -0.278 -0.873 -0.400 156 156 156 0 0
7.7067 7.6351 -2.4805 0.793 -0.435 -0.426 156 156 153 0 0
7.7808 7.7535 -2.4918 0.427 -0.461 -0.777 159 159 157 0 0
7.7846 7.7158 -2.4785 0.278 -0.465 -0.841 161 160 158 0 0
7.7982 7.7144 -2.4731 0.278 -0.465 -0.841 162 162 158 0 0
7.8118 7.7129 -2.4678 0.278 -0.465 -0.841 165 163 160 0 0
7.8583 7.7288 -2.4563 0.213 -0.443 -0.871 170 167 162 0 0
7.9380 7.8105 -2.4540 0.512 -0.437 -0.740 178 174 169 0 0
8.0290 7.9275 -2.4588 0.151 -0.569 -0.808 184 182 178 0 0
8.2513 8.0903 -2.4314 0.830 -0.459 0.317 200 200 198 0 0
8.3822 8.2272 -2.4283 -0.480 -0.459 -0.747 209 207 205 0 0
8.4082 8.2165 -2.4157 -0.602 -0.705 -0.375 210 209 207 0 0
8.5475 8.2816 -2.3868 0.410 -0.676 0.613 214 214 212 0 0
8.5589 8.2716 -2.3796 -0.148 -0.633 0.760 215 215 213 0 0
8.6266 8.3407 -2.3774 -0.658 -0.710 0.250 219 218 216 0 0
8.6450 8.3511 -2.3742 0.412 -0.911 -0.001 219 218 216 0 0
3.0802 6.8304 -3.8853 0.970 -0.064 0.234 208 192 167 0 0
3.7744 5.7319 -3.2877 0.291 -0.897 -0.333 187 170 141 0 0
3.8132 5.7098 -3.2668 -0.044 -0.780 -0.624 184 167 141 0 0
4.0679 5.6297 -3.1506 0.112 -0.975 -0.192 172 154 126 0 0
4.3419 5.6289 -3.0529 -0.150 -0.985 0.080 172 154 122 0 0
4.3646 5.6297 -3.0451 0.063 -0.990 -0.130 173 154 122 0 0
4.5636 5.7042 -2.9981 -0.181 -0.974 -0.135 179 160 129 0 0
4.6087 5.7148 -2.9854 0.344 -0.878 -0.331 182 163 134 0 0
4.7864 5.8360 -2.9609 0.068 -0.803 -0.592 183 163 133 0 0
4.8435 5.8619 -2.9489 0.558 -0.818 -0.140 188 168 139 0 0
4.8662 5.8781 -2.9460 0.625 -0.777 -0.080 188 167 139 0 0
4.8776 5.8873 -2.9449 0.510 -0.854 -0.108 189 169 139 0 0
5.0274 6.0226 -2.9348 0.592 -0.766 -0.248 185 162 132 0 0
5.1580 6.1691 -2.9351 0.642 -0.749 -0.162 193 173 143 0 0
5.1701 6.1765 -2.9331 0.506 -0.840 -0.196 192 171 142 0 0
5.2313 6.2529 -2.9358 0.702 -0.692 -0.169 188 167 137 0 0
5.2934 6.3195 -2.9349 0.795 -0.607 0.021 191 171 142 0 0
5.5653 6.8814 -3.0176 0.558 -0.826 -0.081 185 164 137 0 0
5.5788 6.8903 -3.0157 0.558 -0.826 -0.081 189 168 141 0 0
5.9045 8.0823 -3.2804 -0.932 -0.337 0.132 213 207 201 0 0
5.9140 8.0135 -3.2550 0.509 -0.820 0.263 212 208 201 0 0
5.9346 8.0877 -3.2714 0.031 -0.464 0.885 212 208 201 0 0
5.9501 8.0958 -3.2685 0.071 -0.418 0.906 213 208 202 0 0
5.9657 8.1045 -3.2657 0.071 -0.418 0.906 213 210 203 0 0
6.0415 8.1210 -3.2440 0.033 -0.417 0.908 214 209 203 0 0
6.0574 8.1314 -3.2417 0.026 -0.371 0.928 215 210 204 0 0
6.5444 8.1039 -3.0597 -0.725 -0.615 0.312 217 217 217 0 0
6.5708 8.1865 -3.0767 0.460 -0.825 -0.328 217 217 215 0 0
6.5850 8.1814 -3.0700 0.237 -0.883 -0.405 217 217 215 0 0
6.6023 8.1976 -3.0690 0.791 -0.603 -0.106 217 217 217 0 0
6.6031 8.1008 -3.0378 0.535 -0.701 0.472 216 216 216 0 0
6.6254 8.0520 -3.0143 -0.551 -0.815 0.182 215 215 215 0 0
6.6371 8.0319 -3.0037 0.125 -0.918 -0.376 214 214 214 0 0
7.2257 8.2617 -2.8678 0.700 -0.524 0.485 183 182 180 0 0
7.2574 8.2705 -2.8593 -0.417 -0.908 -0.045 179 179 177 0 0
7.2629 8.2255 -2.8430 -0.422 -0.805 -0.417 178 178 176 0 0
7.5965 8.8403 -2.9206 -0.138 -0.253 -0.958 161 161 161 0 0
7.4498 8.1335 -2.7471 -0.037 -0.971 0.235 161 161 161 0 0
7.5986 8.3872 -2.7752 0.169 -0.788 0.592 156 156 156 0 0
7.7319 8.3786 -2.7250 -0.242 -0.950 0.196 148 151 150 0 0
7.7432 8.3639 -2.7163 -0.529 -0.840 0.122 150 151 152 0 0
7.7592 8.3675 -2.7118 -0.868 -0.495 -0.037 152 152 154 0 0
7.7664 7.7851 -2.5233 0.791 -0.438 -0.428 160 159 160 0 0
7.8840 8.1651 -2.6027 0.863 -0.417 -0.285 161 160 162 0 0
7.7644 7.5738 -2.4565 0.848 -0.475 -0.236 163 164 163 0 0
7.7941 7.6309 -2.4642 0.846 -0.460 -0.271 165 166 166 0 0
8.1968 7.9907 -2.4358 0.789 -0.479 0.385 198 198 196 0 0
8.3325 8.2389 -2.4668 0.827 -0.561 0.045 205 203 203 0 0
8.3850 8.1280 -2.4127 0.068 -0.762 0.644 209 208 206 0 0
8.4590 8.2205 -2.4159 -0.071 -0.976 0.205 211 210 209 0 0
8.4863 8.2587 -2.4184 -0.020 -0.833 0.553 213 212 210 0 0
8.6508 8.3518 -2.3896 0.511 -0.753 0.414 219 218 216 0 0
8.8010 8.1132 -2.2600 0.822 -0.469 0.323 230 229 228 0 0
3.0800 6.8492 -3.9065 0.852 -0.041 0.522 209 193 168 0 0
3.6272 5.8474 -3.3903 -0.076 -0.833 -0.548 189 174 145 0 0
3.6404 5.8400 -3.3831 0.111 -0.801 -0.588 189 172 144 0 0
3.7243 5.7708 -3.3311 0.040 -0.866 -0.498 188 168 141 0 0
3.7368 5.7666 -3.3253 -0.198 -0.806 -0.558 188 170 142 0 0
3.8384 5.7201 -3.2743 -0.104 -0.879 -0.465 182 165 138 0 0
3.8751 5.7086 -3.2575 0.145 -0.939 -0.312 186 167 137 0 0
4.3337 5.6344 -3.0705 -0.123 -0.992 0.041 181 164 134 0 0
4.4113 5.6565 -3.0500 0.142 -0.896 -0.421 183 165 138 0 0
4.4459 5.6532 -3.0366 0.364 -0.898 -0.249 183 166 136 0 0
4.5895 5.7162 -3.0058 0.291 -0.826 -0.484 179 162 133 0 0
4.6228 5.7326 -2.9992 0.309 -0.861 -0.403 184 164 136 0 0
4.6336 5.7427 -2.9986 0.366 -0.872 -0.326 184 165 135 0 0
4.8136 5.8349 -2.9641 -0.234 -0.843 -0.484 188 167 138 0 0
4.8700 5.8836 -2.9597 0.547 -0.833 -0.084 186 165 137 0 0
4.8812 5.8985 -2.9605 0.475 -0.866 -0.158 184 164 135 0 0
4.8925 5.9087 -2.9598 0.577 -0.802 -0.157 187 167 137 0 0
5.1501 6.1816 -2.9557 0.649 -0.709 -0.276 187 166 137 0 0
5.1622 6.1597 -2.9444 0.591 -0.766 0.253 191 169 140 0 0
5.2232 6.2419 -2.9490 0.498 -0.638 -0.587 195 171 143 0 0
5.2354 6.2393 -2.9439 0.785 -0.596 0.166 192 170 141 0 0
5.2854 6.3186 -2.9516 0.601 -0.772 -0.204 191 168 140 0 0
5.5669 6.8200 -3.0123 0.919 -0.392 0.048 189 168 140 0 0
5.8623 8.0433 -3.2999 -0.428 -0.308 0.850 210 205 199 0 0
5.9373 8.0566 -3.2775 -0.069 -0.347 0.935 212 208 199 0 0
5.9689 8.0802 -3.2739 -0.333 -0.209 0.919 212 209 202 0 0
5.9822 8.0612 -3.2630 -0.281 -0.247 0.927 213 210 203 0 0
5.9984 8.0785 -3.2628 -0.817 -0.355 0.454 214 209 203 0 0
6.0605 8.1080 -3.2502 -0.041 -0.297 0.954 215 210 204 0 0
6.5915 8.1899 -3.0875 0.267 -0.964 -0.006 218 218 217 0 0
6.6291 8.2429 -3.0912 0.495 -0.823 0.279 215 215 215 0 0
6.6153 8.0479 -3.0335 -0.506 -0.849 0.156 215 215 215 0 0
6.6339 8.0739 -3.0352 -0.077 -0.895 0.439 214 214 214 0 0
7.1861 8.1873 -2.8752 0.319 -0.677 0.663 189 185 184 0 0
7.2379 8.2226 -2.8681 0.314 -0.818 -0.481 183 183 181 0 0
7.2947 8.2802 -2.8664 0.174 -0.283 0.943 179 178 176 0 0
7.6004 8.5646 -2.8489 -0.094 -0.265 -0.960 161 159 160 0 0
7.7608 8.3527 -2.7238 -0.864 -0.481 0.150 155 155 157 0 0
7.7733 8.3430 -2.7162 -0.828 -0.514 0.223 155 155 157 0 0
8.4653 8.2231 -2.4316 0.422 -0.885 0.196 212 211 209 0 0
8.4678 8.1862 -2.4188 -0.274 -0.855 0.440 212 211 209 0 0
8.6235 8.6117 -2.5000 -0.930 -0.367 -0.019 213 213 211 0 0
8.6296 8.5388 -2.4744 -0.855 -0.491 -0.165 215 215 213 0 0
8.6751 8.3631 -2.4018 0.560 -0.767 0.312 219 219 217 0 0
8.7758 8.5671 -2.4315 0.893 -0.432 0.129 220 220 218 0 0
3.5786 5.8723 -3.4289 -0.041 -0.869 -0.493 192 175 149 0 0
3.5925 5.8622 -3.4207 -0.023 -0.858 -0.513 191 174 148 0 0
3.6051 5.8584 -3.4150 -0.023 -0.858 -0.513 192 175 149 0 0
3.6303 5.8509 -3.4036 -0.023 -0.858 -0.513 189 173 145 0 0
3.7382 5.7799 -3.3423 -0.267 -0.877 -0.400 186 166 139 0 0
3.9275 5.6949 -3.2475 -0.196 -0.863 -0.465 184 167 139 0 0
4.3480 5.6428 -3.0811 0.461 -0.871 -0.171 180 164 133 0 0
4.3588 5.6485 -3.0791 -0.187 -0.982 0.001 178 162 131 0 0
4.3704 5.6474 -3.0746 0.301 -0.954 -0.011 177 160 130 0 0
4.4259 5.6635 -3.0600 0.206 -0.885 -0.418 181 164 136 0 0
4.4603 5.6620 -3.0473 0.364 -0.898 -0.249 182 162 133 0 0
4.6374 5.7431 -3.0105 0.047 -0.900 -0.433 183 164 134 0 0
4.6486 5.7480 -3.0081 0.119 -0.992 0.029 182 164 134 0 0
5.0354 6.0270 -2.9605 0.601 -0.768 -0.222 188 167 138 0 0
5.1421 6.1830 -2.9728 0.599 -0.733 -0.323 190 167 136 0 0
5.1663 6.1589 -2.9564 0.591 -0.766 0.253 191 170 141 0 0
5.1784 6.1667 -2.9546 0.590 -0.664 0.460 191 170 139 0 0
5.2399 6.2719 -2.9667 0.453 -0.681 -0.575 191 170 141 0 0
5.4467 6.5993 -2.9988 0.643 -0.657 -0.393 192 171 144 0 0
5.5608 6.8706 -3.0457 0.717 -0.689 0.102 188 167 138 0 0
5.5751 6.8962 -3.0489 0.593 -0.801 0.081 188 167 138 0 0
5.5887 6.9065 -3.0474 0.593 -0.801 0.081 187 166 137 0 0
5.6028 6.9255 -3.0485 0.749 -0.607 0.266 184 163 134 0 0
5.9411 8.0384 -3.2873 0.223 -0.830 0.512 211 206 200 0 0
5.9563 8.0446 -3.2838 0.223 -0.830 0.512 212 208 202 0 0
6.0565 8.0071 -3.2361 0.468 -0.261 0.844 216 211 205 0 0
6.1498 8.2063 -3.2672 0.253 -0.466 0.848 216 214 209 0 0
6.2142 7.9689 -3.1676 0.113 -0.253 0.961 217 217 214 0 0
6.5987 8.2028 -3.1063 0.753 -0.652 -0.091 217 217 217 0 0
6.6172 8.2277 -3.1077 0.461 -0.846 0.267 217 217 217 0 0
6.6336 8.2375 -3.1051 0.461 -0.846 0.267 216 216 216 0 0
6.6353 8.0481 -3.0434 0.302 -0.951 0.070 215 215 215 0 0
7.1891 8.1756 -2.8874 0.428 -0.585 0.689 189 186 185 0 0
7.2084 8.1979 -2.8877 0.290 -0.583 0.759 187 185 183 0 0
7.2945 8.2540 -2.8752 -0.293 -0.808 0.511 181 180 178 0 0
7.3113 8.2628 -2.8721 -0.231 -0.671 0.705 178 178 176 0 0
7.3243 8.2539 -2.8646 -0.312 -0.578 0.754 178 178 176 0 0
7.3390 8.2528 -2.8590 -0.303 -0.543 0.783 176 176 174 0 0
7.5782 8.0145 -2.6970 -0.174 -0.884 -0.433 158 158 158 0 0
7.5909 8.0070 -2.6901 -0.243 -0.825 -0.509 158 158 158 0 0
7.5993 7.9826 -2.6792 -0.374 -0.920 -0.120 157 157 157 0 0
7.7546 8.3658 -2.7476 -0.735 -0.608 0.302 158 158 158 0 0
8.4206 8.2498 -2.4731 -0.884 -0.350 -0.311 209 208 206 0 0
8.4378 8.2122 -2.4549 0.276 -0.935 0.222 210 209 207 0 0
8.6255 8.5548 -2.4987 -0.650 -0.441 0.619 213 213 211 0 0
8.6182 8.3986 -2.4508 0.806 -0.462 0.370 215 215 213 0 0
8.6217 8.3212 -2.4246 -0.707 -0.694 -0.133 217 217 216 0 0
4.1468 5.6375 -3.1639 0.151 -0.864 -0.480 181 164 135 0 0
4.3056 5.6480 -3.1108 0.014 -0.836 -0.548 182 165 137 0 0
4.3744 5.6456 -3.0856 0.004 -0.946 -0.326 179 162 133 0 0
4.4523 5.6668 -3.0647 0.278 -0.855 -0.438 179 160 130 0 0
4.4633 5.6718 -3.0624 0.181 -0.857 -0.483 181 162 132 0 0
4.6407 5.7523 -3.0254 0.285 -0.924 -0.255 182 163 133 0 0
4.6527 5.7447 -3.0186 -0.190 -0.980 0.053 182 165 135 0 0
4.7851 5.8654 -3.0106 0.239 -0.863 -0.446 184 163 134 0 0
4.9574 5.9787 -2.9861 0.595 -0.760 -0.263 188 169 140 0 0
4.9807 5.9948 -2.9830 0.550 -0.761 -0.344 186 166 136 0 0
5.1342 6.1690 -2.9849 0.540 -0.840 -0.049 190 167 136 0 0
5.1584 6.1760 -2.9786 0.494 -0.859 -0.139 189 168 139 0 0
5.2444 6.2982 -2.9876 0.388 -0.811 -0.437 190 169 142 0 0
5.2568 6.3057 -2.9857 0.378 -0.810 -0.449 190 170 143 0 0
5.4384 6.6011 -3.0168 0.650 -0.688 -0.322 192 171 144 0 0
5.4515 6.6123 -3.0158 0.618 -0.722 -0.312 193 172 145 0 0
5.4647 6.6252 -3.0153 0.839 -0.528 -0.135 193 173 146 0 0
5.8175 8.1056 -3.3700 0.975 -0.048 0.217 206 196 185 0 0
5.9562 7.9795 -3.2797 -0.485 -0.470 0.737 211 208 201 0 0
5.9699 7.9674 -3.2709 -0.521 -0.431 0.736 212 208 202 0 0
6.0025 8.0049 -3.2715 -0.795 -0.276 0.540 213 209 203 0 0
6.5986 8.1658 -3.1115 0.720 -0.686 0.107 217 217 217 0 0
6.6190 8.2037 -3.1165 0.598 -0.800 0.050 217 217 217 0 0
6.6331 8.1974 -3.1095 0.853 -0.466 0.235 216 216 216 0 0
6.6550 8.2447 -3.1170 0.786 -0.615 0.063 215 215 215 0 0
6.6724 8.2609 -3.1161 0.811 -0.585 0.015 215 215 215 0 0
7.1922 8.1646 -2.8998 0.080 -0.865 0.496 190 188 186 0 0
7.2067 8.1634 -2.8943 0.289 -0.807 0.514 187 185 183 0 0
7.2228 8.1695 -2.8905 0.130 -0.741 0.659 185 185 183 0 0
7.2388 8.1756 -2.8868 0.130 -0.741 0.659 184 184 182 0 0
7.3276 8.2443 -2.8775 -0.482 -0.589 0.649 179 179 177 0 0
7.3416 8.2399 -2.8711 -0.482 -0.589 0.649 179 179 177 0 0
7.7517 8.3329 -2.7553 0.576 -0.495 -0.650 158 158 158 0 0
7.7701 8.3461 -2.7530 0.513 -0.509 -0.691 160 160 160 0 0
8.5253 8.3272 -2.4781 0.762 -0.643 -0.075 210 212 209 0 0
8.6258 8.5845 -2.5258 0.425 -0.780 0.459 211 212 209 0 0
8.6413 8.5853 -2.5205 0.363 -0.846 0.390 213 213 211 0 0
8.6730 8.5892 -2.5105 -0.245 -0.904 0.351 216 214 212 0 0
8.7109 8.6562 -2.5187 0.148 -0.791 0.593 215 215 213 0 0
8.6158 8.3313 -2.4472 -0.688 -0.708 -0.158 217 217 215 0 0
8.6265 8.3192 -2.4394 -0.688 -0.708 -0.158 218 218 216 0 0
3.0726 6.8787 -3.9642 -0.690 -0.510 -0.514 209 196 180 0 0
3.1402 6.7060 -3.8838 -0.690 -0.510 -0.514 208 193 171 0 0
3.6603 5.8583 -3.4222 -0.410 -0.888 -0.207 190 171 143 0 0
4.1705 5.6599 -3.1758 -0.010 -0.943 -0.333 180 163 137 0 0
4.2966 5.6601 -3.1309 -0.053 -0.852 -0.520 180 163 135 0 0
4.3422 5.6621 -3.1154 0.460 -0.823 -0.332 179 162 134 0 0
4.3773 5.6544 -3.1004 0.219 -0.839 -0.498 182 163 135 0 0
4.3999 5.6572 -3.0932 0.275 -0.894 -0.355 182 166 138 0 0
4.4664 5.6795 -3.0768 0.234 -0.849 -0.473 180 161 131 0 0
4.7885 5.8770 -3.0265 0.293 -0.928 -0.229 182 161 133 0 0
4.9612 5.9868 -3.0009 0.595 -0.760 -0.263 181 161 134 0 0
4.9728 5.9977 -3.0003 0.586 -0.783 -0.209 187 168 138 0 0
4.9845 6.0060 -2.9989 0.586 -0.783 -0.209 186 167 137 0 0
5.1263 6.1601 -2.9986 0.599 -0.751 -0.276 187 165 134 0 0
5.1383 6.1728 -2.9985 0.431 -0.802 -0.412 190 167 136 0 0
5.4425 6.5915 -3.0268 0.727 -0.586 -0.358 194 173 146 0 0
5.4558 6.6097 -3.0280 0.729 -0.601 -0.329 194 173 146 0 0
6.1346 8.0981 -3.2717 0.400 -0.895 0.199 217 213 209 0 0
6.6394 8.2043 -3.1267 0.755 -0.544 0.367 215 216 215 0 0
7.2325 10.9360 -3.8064 -0.661 -0.637 -0.396 212 212 211 0 0
7.3833 9.4864 -3.2800 0.622 -0.588 -0.518 194 194 192 0 0
7.4373 9.5892 -3.2943 0.737 -0.570 -0.364 193 192 192 0 0
7.4953 9.7939 -3.3404 0.919 -0.355 0.174 191 190 190 0 0
7.5235 9.8482 -3.3480 0.844 -0.191 0.502 191 190 188 0 0
7.1896 8.1259 -2.9052 -0.256 -0.931 -0.261 191 190 188 0 0
7.2217 8.1388 -2.8980 -0.173 -0.695 0.698 188 187 185 0 0
7.2368 8.1403 -2.8931 -0.107 -0.664 0.740 186 185 183 0 0
7.2507 8.1364 -2.8868 -0.617 -0.543 0.569 185 185 183 0 0
7.3109 8.2106 -2.8897 -0.429 -0.280 0.859 182 182 180 0 0
7.5246 8.1732 -2.8014 -0.579 -0.797 -0.169 166 166 166 0 0
7.5385 8.1696 -2.7952 -0.265 -0.787 -0.557 166 166 166 0 0
7.5510 8.1600 -2.7877 -0.265 -0.787 -0.557 164 164 164 0 0
7.7678 8.3747 -2.7805 0.312 -0.565 -0.764 161 161 161 0 0
7.7828 8.3744 -2.7751 0.424 -0.640 -0.641 161 161 161 0 0
8.5115 8.3135 -2.4958 0.754 -0.653 -0.072 212 212 211 0 0
8.5356 8.3415 -2.4963 0.762 -0.643 -0.075 212 212 210 0 0
8.6420 8.5705 -2.5331 0.265 -0.791 0.551 214 214 212 0 0
8.6611 8.5822 -2.5301 0.127 -0.882 0.454 215 214 212 0 0
8.6711 8.5667 -2.5215 -0.637 -0.769 -0.046 216 215 213 0 0
8.6975 8.5998 -2.5229 -0.240 -0.952 0.190 217 216 214 0 0
8.6906 8.3171 -2.4332 0.101 -0.676 0.730 221 221 221 0 0
3.0697 6.9089 -3.9903 -0.690 -0.510 -0.514 210 197 182 0 0
4.2636 5.6803 -3.1623 0.070 -0.860 -0.506 180 163 135 0 0
4.5675 5.7543 -3.0784 0.176 -0.934 -0.311 187 170 142 0 0
4.7016 5.8294 -3.0552 0.272 -0.889 -0.369 184 163 135 0 0
4.7807 5.8797 -3.0436 0.333 -0.855 -0.397 184 163 135 0 0
4.9884 6.0127 -3.0132 0.585 -0.797 -0.150 184 165 135 0 0
5.9793 7.9574 -3.2979 -0.516 -0.304 0.801 213 208 202 0 0
5.9957 7.9770 -3.2986 -0.477 -0.343 0.809 212 207 201 0 0
6.1849 8.1032 -3.2725 0.324 -0.943 -0.079 215 214 211 0 0
6.1999 8.1043 -3.2676 0.442 -0.886 -0.137 216 215 212 0 0
6.2138 8.0954 -3.2597 0.612 -0.772 -0.169 216 216 213 0 0
6.6087 8.1627 -3.1411 0.596 -0.700 -0.394 216 218 217 0 0
7.3111 9.4282 -3.3059 0.308 -0.502 0.808 199 199 197 0 0
7.3317 9.4485 -3.3053 0.713 -0.459 0.531 197 198 196 0 0
7.4869 9.7211 -3.3394 0.813 -0.230 0.535 192 192 192 0 0
7.5250 9.8246 -3.3597 0.809 -0.190 0.556 192 192 190 0 0
7.2175 8.1641 -2.9248 -0.647 -0.676 0.353 189 188 185 0 0
7.2286 8.1463 -2.9150 -0.572 -0.703 0.422 188 187 184 0 0
7.2534 8.1239 -2.8988 -0.535 -0.502 0.680 187 186 182 0 0
7.4394 8.2300 -2.8674 -0.568 -0.487 -0.664 178 176 177 0 0
7.4722 8.3086 -2.8815 0.017 -0.504 0.863 175 173 174 0 0
7.4589 8.1854 -2.8458 -0.779 -0.573 0.255 173 173 173 0 0
7.5337 8.1891 -2.8204 0.185 -0.838 -0.513 169 169 169 0 0
7.5440 8.1703 -2.8106 0.160 -0.913 -0.375 168 168 168 0 0
7.5574 8.1645 -2.8039 0.017 -0.934 -0.356 168 168 168 0 0
7.6147 8.0980 -2.7617 -0.187 -0.964 -0.187 165 165 165 0 0
7.6259 8.0845 -2.7532 -0.519 -0.804 -0.292 165 165 165 0 0
7.7427 8.3135 -2.7868 0.903 -0.405 -0.145 164 164 164 0 0
7.7788 8.3961 -2.8010 0.291 -0.705 -0.646 165 165 165 0 0
7.7942 8.3973 -2.7959 0.270 -0.688 -0.673 164 164 164 0 0
7.8152 8.1370 -2.7031 -0.198 -0.977 -0.075 166 166 166 0 0
8.6841 8.5886 -2.5417 -0.320 -0.811 0.489 216 216 214 0 0
8.7243 8.3554 -2.4509 0.805 -0.395 0.443 222 222 220 0 0
2.4037 7.6819 -4.4976 -0.470 -0.705 -0.530 234 234 232 0 0
3.3657 6.2045 -3.6680 -0.449 -0.732 -0.513 205 189 163 0 0
4.2312 5.6947 -3.1916 0.086 -0.873 -0.480 182 165 137 0 0
4.4056 5.6766 -3.1236 0.226 -0.948 -0.224 181 164 138 0 0
4.5165 5.7202 -3.0985 0.405 -0.841 -0.359 176 159 130 0 0
4.5502 5.7307 -3.0899 0.487 -0.872 -0.043 183 166 138 0 0
4.5722 5.7431 -3.0861 0.447 -0.889 -0.101 183 166 137 0 0
4.5832 5.7506 -3.0847 0.457 -0.881 -0.119 181 163 133 0 0
4.6941 5.8264 -3.0702 0.101 -0.982 0.158 180 159 129 0 0
