ply
format ascii 1.0
element vertex 828
property float x
property float y
property float z
property float nx
property float ny
property float nz
property uchar diffuse_red
property uchar diffuse_green
property uchar diffuse_blue
property uchar class
property uchar detection
end_header
3.1622 6.9621 -2.4722 -0.102 -0.674 0.732 232 212 184 0 0
3.2395 6.8821 -2.4914 -0.186 -0.934 0.304 232 215 187 0 0
3.2569 6.8811 -2.4951 -0.568 -0.640 0.517 235 217 189 0 0
3.2664 6.8710 -2.4975 -0.527 -0.554 0.645 232 212 185 0 0
3.2777 6.8628 -2.5002 -0.380 -0.675 0.633 232 212 185 0 0
3.3568 6.8268 -2.5183 -0.547 -0.691 0.472 231 211 184 0 0
3.3733 6.8245 -2.5219 -0.200 -0.932 0.303 228 208 181 0 0
3.3806 6.8118 -2.5239 -0.274 -0.809 0.519 232 212 185 0 0
3.4097 6.8026 -2.5305 -0.356 -0.580 0.733 232 214 186 0 0
3.4209 6.7943 -2.5331 -0.405 -0.535 0.741 231 211 184 0 0
3.4273 6.7807 -2.5350 -0.341 -0.585 0.736 234 214 187 0 0
3.4491 6.7635 -2.5402 -0.227 -0.758 0.611 229 209 182 0 0
3.4584 6.7531 -2.5426 -0.226 -0.837 0.498 234 214 187 0 0
3.4662 6.7411 -2.5446 -0.493 -0.769 0.406 233 214 187 0 0
3.4821 6.7380 -2.5481 -0.455 -0.754 0.473 232 213 185 0 0
3.6461 6.6089 -2.5876 -0.439 -0.625 0.645 231 211 184 0 0
3.8479 6.4203 -2.6371 -0.239 -0.865 0.442 229 212 184 0 0
3.9764 6.3526 -2.6669 -0.136 -0.803 0.580 227 207 180 0 0
4.6245 5.7593 -2.8255 -0.143 -0.772 0.619 227 207 180 0 0
4.9162 5.8116 -2.8860 0.375 -0.927 0.021 227 227 225 0 0
0.5070 11.0511 -1.7819 -0.980 0.077 -0.185 242 242 240 0 0
0.9144 9.8010 -1.9106 -0.472 -0.580 0.664 171 123 102 0 0
1.2361 9.4043 -1.9927 -0.520 -0.853 -0.054 179 127 105 0 0
1.2497 9.3997 -1.9958 -0.455 -0.839 0.300 177 125 104 0 0
1.3311 9.2976 -2.0166 -0.241 -0.791 0.562 181 134 118 0 0
1.4306 9.2024 -2.0411 -0.311 -0.652 0.691 186 140 122 0 0
1.4671 9.1782 -2.0497 -0.271 -0.810 0.520 192 148 130 0 0
1.8026 8.9380 -2.1296 -0.215 -0.708 0.673 171 114 91 0 0
1.9586 8.7942 -2.1678 -0.310 -0.579 0.754 151 94 75 0 0
2.3274 8.6073 -2.2531 -0.209 -0.943 0.261 160 109 91 0 0
2.3426 8.6037 -2.2565 -0.508 -0.834 0.216 168 116 97 0 0
2.3600 8.6039 -2.2602 -0.795 -0.557 0.240 164 110 90 0 0
2.4092 8.6285 -2.2699 -0.297 -0.910 -0.290 173 121 101 0 0
2.4233 8.6227 -2.2731 -0.477 -0.748 -0.462 170 117 96 0 0
2.4376 8.6175 -2.2764 -0.556 -0.711 -0.430 169 115 94 0 0
2.4497 8.6085 -2.2793 -0.741 -0.660 0.120 155 100 79 0 0
2.6239 8.6327 -2.3158 0.367 -0.895 -0.255 121 71 54 0 0
3.0173 8.9053 -2.3912 0.436 -0.845 -0.310 117 71 56 0 0
3.5033 9.2248 -2.4848 0.415 -0.795 -0.442 111 71 59 0 0
3.5386 9.2470 -2.4917 0.477 -0.791 -0.382 104 64 50 0 0
3.5756 9.2713 -2.4988 0.504 -0.785 -0.360 111 70 54 0 0
3.6253 9.3142 -2.5080 0.466 -0.830 -0.305 108 67 50 0 0
3.6607 9.3355 -2.5149 0.407 -0.773 -0.487 108 66 50 0 0
3.6911 9.3496 -2.5210 0.398 -0.844 -0.359 107 66 50 0 0
3.7320 9.3787 -2.5288 0.538 -0.818 -0.203 98 57 40 0 0
2.7136 7.8739 -2.3602 0.123 -0.984 -0.132 117 76 58 0 0
2.7251 7.8650 -2.3629 -0.520 -0.798 -0.306 118 75 58 0 0
2.6804 7.2703 -2.3730 -0.708 -0.588 0.391 229 209 181 0 0
2.6943 7.2659 -2.3762 -0.533 -0.613 0.583 231 211 183 0 0
2.6976 7.2473 -2.3775 -0.331 -0.856 0.397 230 210 182 0 0
2.7261 7.2394 -2.3838 -0.098 -0.839 0.535 229 210 180 0 0
2.7384 7.2328 -2.3867 -0.293 -0.819 0.492 229 210 180 0 0
2.7509 7.2266 -2.3896 -0.293 -0.819 0.492 232 213 183 0 0
2.7682 7.2265 -2.3933 -0.207 -0.949 0.237 232 213 184 0 0
3.0160 7.0501 -2.4523 -0.200 -0.806 0.557 232 215 185 0 0
3.0353 7.0519 -2.4564 -0.104 -0.773 0.626 230 213 185 0 0
3.1101 6.9903 -2.4744 -0.498 -0.444 0.745 231 211 184 0 0
3.2000 6.9038 -2.4966 0.014 -0.866 0.500 232 215 187 0 0
3.2108 6.8952 -2.4992 -0.054 -0.985 0.161 231 214 186 0 0
3.2531 6.8597 -2.5094 -0.573 -0.489 0.658 233 213 186 0 0
3.4372 6.7543 -2.5524 -0.159 -0.777 0.608 231 211 184 0 0
3.4476 6.7451 -2.5549 -0.352 -0.741 0.572 232 212 185 0 0
3.4610 6.7392 -2.5580 -0.326 -0.667 0.670 232 212 185 0 0
3.5041 6.7043 -2.5684 -0.235 -0.614 0.753 230 210 183 0 0
3.6062 6.6310 -2.5927 -0.657 -0.434 0.617 231 212 184 0 0
3.6287 6.5946 -2.5987 -0.558 -0.392 0.731 231 212 184 0 0
3.6310 6.5771 -2.5998 -0.085 -0.823 0.562 232 212 185 0 0
3.6487 6.5756 -2.6037 -0.033 -0.800 0.599 228 208 181 0 0
3.6648 6.5723 -2.6072 -0.033 -0.800 0.599 227 210 182 0 0
3.7506 6.5020 -2.6279 -0.335 -0.826 0.454 235 215 188 0 0
3.8049 6.4782 -2.6404 -0.274 -0.577 0.769 235 216 189 0 0
4.1136 6.2024 -2.7157 -0.380 -0.438 0.815 229 212 186 0 0
4.5948 5.7393 -2.8342 -0.168 -0.759 0.629 226 206 177 0 0
4.8426 5.7762 -2.8861 0.236 -0.966 0.106 228 228 226 0 0
0.7121 10.1875 -1.8704 -0.759 -0.456 -0.464 184 132 113 0 0
1.4498 9.1817 -2.0613 -0.498 -0.709 0.499 142 99 82 0 0
1.4732 9.1635 -2.0670 -0.368 -0.785 0.497 190 144 128 0 0
1.7029 8.9727 -2.1225 -0.458 -0.697 0.552 179 124 103 0 0
1.7143 8.9630 -2.1253 -0.458 -0.697 0.552 191 135 114 0 0
1.7407 8.9508 -2.1314 -0.307 -0.876 0.371 183 126 106 0 0
1.8351 8.8794 -2.1540 -0.481 -0.462 0.746 182 125 105 0 0
2.3567 8.6040 -2.2751 -0.816 -0.503 0.285 167 113 93 0 0
2.4283 8.6075 -2.2904 -0.467 -0.803 0.370 169 116 95 0 0
2.6238 8.6381 -2.3316 0.337 -0.890 -0.306 122 73 57 0 0
3.5048 9.2328 -2.5024 0.487 -0.864 -0.125 111 71 59 0 0
3.5390 9.2532 -2.5091 0.486 -0.858 -0.169 107 68 55 0 0
3.5801 9.2837 -2.5170 0.551 -0.823 -0.142 105 64 48 0 0
3.6208 9.3133 -2.5249 0.560 -0.813 -0.159 111 70 53 0 0
3.6567 9.3355 -2.5319 0.559 -0.791 -0.247 104 64 47 0 0
3.6969 9.3639 -2.5396 0.421 -0.858 -0.296 111 72 55 0 0
3.7353 9.3892 -2.5471 0.451 -0.841 -0.298 104 64 48 0 0
2.7215 7.8903 -2.3764 0.034 -0.967 -0.252 109 67 50 0 0
2.7269 7.8726 -2.3782 -0.573 -0.721 -0.389 114 72 54 0 0
2.8148 7.8714 -2.3971 0.077 -0.724 -0.685 201 171 134 0 0
2.5413 7.3637 -2.3544 -0.507 -0.708 0.492 227 203 167 0 0
2.6829 7.2549 -2.3883 -0.544 -0.683 0.488 230 211 181 0 0
2.6921 7.2443 -2.3907 -0.320 -0.881 0.348 232 213 183 0 0
2.7391 7.2153 -2.4017 -0.360 -0.649 0.670 231 212 182 0 0
2.7530 7.2108 -2.4048 -0.313 -0.819 0.481 230 210 181 0 0
2.9798 7.0534 -2.4587 -0.384 -0.581 0.718 232 214 186 0 0
3.0243 7.0425 -2.4686 -0.169 -0.731 0.662 229 212 184 0 0
3.0317 7.0080 -2.4713 -0.189 -0.657 0.730 232 215 187 0 0
3.1278 6.9509 -2.4939 -0.460 -0.388 0.799 230 209 180 0 0
3.1480 6.9321 -2.4988 -0.267 -0.649 0.713 228 208 180 0 0
3.1607 6.9044 -2.5024 -0.551 -0.512 0.659 231 214 185 0 0
3.1740 6.8987 -2.5055 -0.481 -0.863 0.155 229 212 184 0 0
3.2132 6.8808 -2.5145 -0.278 -0.864 0.419 232 213 185 0 0
3.2291 6.8781 -2.5180 -0.279 -0.870 0.408 229 209 182 0 0
3.3807 6.7577 -2.5545 -0.505 -0.782 0.364 233 215 187 0 0
3.7536 6.4892 -2.6434 -0.256 -0.675 0.692 232 211 184 0 0
3.7976 6.4166 -2.6552 -0.139 -0.881 0.452 230 210 183 0 0
3.8129 6.4125 -2.6586 -0.139 -0.881 0.452 231 212 185 0 0
4.0260 6.2370 -2.7101 -0.406 -0.765 0.501 231 210 182 0 0
4.5247 5.7897 -2.8318 -0.454 -0.669 0.588 230 210 183 0 0
4.8338 5.7727 -2.8989 0.196 -0.980 0.047 228 228 226 0 0
0.5363 10.6499 -1.8341 -0.900 -0.424 -0.101 176 125 104 0 0
0.5446 10.6268 -1.8366 -0.719 -0.631 -0.292 170 119 98 0 0
0.6946 10.2356 -1.8811 -0.653 -0.630 -0.421 197 144 123 0 0
0.7500 10.0396 -1.8991 -0.844 -0.535 0.039 194 139 119 0 0
1.4124 9.2107 -2.0678 -0.342 -0.811 0.474 178 133 113 0 0
1.4666 9.1557 -2.0812 -0.324 -0.778 0.537 191 143 127 0 0
1.5882 9.0410 -2.1110 -0.345 -0.517 0.783 186 135 114 0 0
1.6951 8.9632 -2.1366 -0.201 -0.673 0.712 172 115 94 0 0
1.7300 8.9355 -2.1449 -0.500 -0.553 0.667 192 135 114 0 0
1.8257 8.8671 -2.1677 -0.481 -0.462 0.746 181 123 103 0 0
3.4698 9.2167 -2.5129 0.418 -0.889 -0.187 105 66 51 0 0
3.5022 9.2348 -2.5194 0.445 -0.869 -0.216 110 71 57 0 0
3.5377 9.2571 -2.5264 0.457 -0.863 -0.217 106 66 52 0 0
3.7046 9.3808 -2.5587 0.340 -0.809 -0.479 101 63 45 0 0
3.0177 6.9951 -2.4830 -0.241 -0.615 0.751 230 212 185 0 0
3.1517 6.8979 -2.5150 -0.551 -0.512 0.659 232 213 184 0 0
3.1706 6.8987 -2.5191 -0.392 -0.875 0.283 232 214 186 0 0
3.2063 6.8767 -2.5275 -0.278 -0.864 0.419 231 212 185 0 0
3.3861 6.7469 -2.5703 -0.072 -0.754 0.653 228 209 180 0 0
3.3960 6.7374 -2.5728 0.093 -0.828 0.553 229 209 179 0 0
3.5125 6.6400 -2.6010 -0.442 -0.658 0.610 231 213 186 0 0
3.5324 6.6210 -2.6059 -0.507 -0.546 0.667 235 215 188 0 0
3.5547 6.6045 -2.6112 -0.312 -0.533 0.786 232 213 183 0 0
3.7597 6.4600 -2.6600 -0.212 -0.558 0.802 231 213 183 0 0
4.0190 6.2154 -2.7236 -0.024 -0.942 0.336 228 207 181 0 0
4.1461 6.0920 -2.7549 -0.327 -0.714 0.619 230 210 181 0 0
4.3146 5.9691 -2.7951 -0.670 -0.578 0.466 231 211 184 0 0
4.3261 5.9611 -2.7978 -0.835 -0.545 0.082 230 209 182 0 0
4.5567 5.7327 -2.8547 -0.158 -0.711 0.686 225 205 175 0 0
4.6028 5.7177 -2.8652 -0.074 -0.963 0.259 212 191 158 0 0
0.5453 10.6393 -1.8528 -0.752 -0.659 -0.026 174 122 101 0 0
0.5567 10.6265 -1.8556 -0.752 -0.659 -0.026 171 119 98 0 0
0.5675 10.6119 -1.8584 -0.886 -0.446 0.128 174 122 100 0 0
0.5776 10.5948 -1.8611 -0.729 -0.648 -0.221 179 127 106 0 0
0.9431 9.7380 -1.9657 -0.739 -0.615 0.274 184 135 112 0 0
0.9982 9.6416 -1.9805 -0.512 -0.752 0.416 183 133 112 0 0
1.0104 9.6334 -1.9834 -0.383 -0.924 0.008 184 134 114 0 0
1.1331 9.5155 -2.0136 -0.732 -0.630 0.260 206 158 138 0 0
1.4053 9.2017 -2.0820 -0.332 -0.913 0.238 183 135 117 0 0
1.4152 9.1885 -2.0845 -0.707 -0.682 0.190 178 128 111 0 0
1.4241 9.1734 -2.0869 -0.653 -0.689 0.314 172 123 103 0 0
1.4487 9.1580 -2.0927 -0.291 -0.790 0.540 146 95 77 0 0
1.4629 9.1543 -2.0959 -0.396 -0.841 0.369 155 104 86 0 0
1.4615 9.1168 -2.0967 -0.587 -0.522 0.619 154 102 84 0 0
1.6879 8.9547 -2.1506 -0.241 -0.802 0.547 177 121 98 0 0
1.6986 8.9437 -2.1533 -0.463 -0.585 0.666 178 122 99 0 0
1.7089 8.9319 -2.1559 -0.585 -0.534 0.610 186 130 107 0 0
1.7223 8.9263 -2.1590 -0.675 -0.487 0.554 174 118 95 0 0
1.9191 8.7688 -2.2064 -0.258 -0.587 0.768 193 137 114 0 0
1.9298 8.7579 -2.2090 -0.377 -0.554 0.742 176 119 97 0 0
1.9586 8.7191 -2.2164 -0.697 -0.374 0.612 161 110 91 0 0
2.1768 8.5998 -2.2674 -0.084 -0.836 0.542 170 117 93 0 0
2.4197 8.5751 -2.3209 -0.328 -0.767 0.552 189 138 118 0 0
3.5000 9.2371 -2.5364 0.426 -0.854 -0.300 104 65 48 0 0
3.5372 9.2621 -2.5437 0.376 -0.821 -0.430 105 66 49 0 0
3.6636 9.3571 -2.5684 0.515 -0.741 -0.431 111 70 52 0 0
3.7096 9.3940 -2.5773 0.340 -0.809 -0.479 99 59 42 0 0
2.5281 7.3542 -2.3803 -0.697 -0.513 0.500 221 196 161 0 0
2.6204 7.2715 -2.4028 -0.076 -0.760 0.646 226 206 179 0 0
3.1494 6.8779 -2.5294 -0.240 -0.656 0.716 228 208 181 0 0
3.5054 6.6362 -2.6139 -0.434 -0.590 0.680 230 210 183 0 0
3.5135 6.6248 -2.6160 -0.528 -0.555 0.643 231 211 184 0 0
3.5231 6.6149 -2.6184 -0.499 -0.582 0.642 231 211 184 0 0
3.5329 6.6053 -2.6208 -0.380 -0.638 0.670 230 210 183 0 0
3.5386 6.5913 -2.6224 -0.421 -0.612 0.669 232 212 183 0 0
3.5535 6.5871 -2.6258 -0.362 -0.533 0.765 232 213 183 0 0
3.8745 6.3266 -2.7032 -0.281 -0.672 0.685 229 209 184 0 0
4.1761 6.0675 -2.7764 -0.193 -0.666 0.721 230 210 183 0 0
4.2417 5.9991 -2.7927 -0.201 -0.805 0.558 227 209 182 0 0
4.2697 5.9698 -2.7996 -0.380 -0.628 0.679 229 211 183 0 0
4.2980 5.9760 -2.8056 -0.030 -0.988 0.151 228 208 181 0 0
4.3122 5.9703 -2.8088 -0.379 -0.787 0.487 227 207 180 0 0
0.5252 11.1028 -1.8517 -0.973 0.075 -0.216 242 242 240 0 0
0.5340 10.6624 -1.8660 -0.900 -0.424 -0.101 177 125 104 0 0
0.5443 10.6459 -1.8687 -0.755 -0.598 -0.269 171 119 98 0 0
0.5646 10.6122 -1.8741 -0.837 -0.534 0.124 182 130 109 0 0
0.5767 10.6017 -1.8770 -0.634 -0.770 -0.065 172 120 99 0 0
0.9686 9.6519 -1.9893 -0.541 -0.795 -0.275 190 142 122 0 0
0.9781 9.6368 -1.9918 -0.718 -0.696 0.021 178 127 108 0 0
0.9892 9.6258 -1.9946 -0.460 -0.888 -0.007 179 127 106 0 0
1.0026 9.6211 -1.9976 -0.240 -0.964 -0.113 181 129 108 0 0
1.1403 9.5024 -2.0310 -0.650 -0.758 0.053 188 139 120 0 0
1.4012 9.1994 -2.0965 -0.332 -0.913 0.238 183 134 117 0 0
1.4129 9.1902 -2.0993 -0.642 -0.766 0.036 178 126 112 0 0
1.4361 9.1369 -2.1059 -0.542 -0.667 0.512 167 116 95 0 0
1.6907 8.9340 -2.1672 -0.463 -0.585 0.666 153 96 74 0 0
1.7857 8.8330 -2.1908 -0.520 -0.508 0.687 173 118 97 0 0
1.9190 8.7435 -2.2225 -0.311 -0.628 0.713 183 131 110 0 0
1.9303 8.7337 -2.2252 -0.503 -0.576 0.644 189 137 117 0 0
1.9403 8.7216 -2.2277 -0.555 -0.529 0.641 192 144 124 0 0
1.9508 8.7104 -2.2303 -0.536 -0.534 0.654 205 159 138 0 0
1.9614 8.6994 -2.2330 -0.488 -0.567 0.664 166 119 100 0 0
2.0270 8.6374 -2.2490 -0.043 -0.844 0.534 178 123 103 0 0
2.0425 8.6352 -2.2525 -0.351 -0.800 0.487 148 93 72 0 0
2.0551 8.6279 -2.2554 -0.351 -0.800 0.487 154 97 77 0 0
2.2345 8.5879 -2.2958 -0.587 -0.810 0.006 176 124 103 0 0
3.4683 9.2259 -2.5473 0.465 -0.826 -0.319 100 58 42 0 0
3.5056 9.2512 -2.5547 0.398 -0.814 -0.422 83 42 26 0 0
3.5410 9.2735 -2.5619 0.323 -0.801 -0.503 102 62 45 0 0
3.6717 9.3748 -2.5876 0.538 -0.752 -0.381 107 66 48 0 0
3.7088 9.3985 -2.5950 0.356 -0.788 -0.502 103 62 45 0 0
3.7479 9.4250 -2.6028 0.372 -0.771 -0.517 93 54 37 0 0
2.5342 7.3202 -2.3968 -0.412 -0.698 0.586 223 199 165 0 0
3.4947 6.6286 -2.6261 -0.489 -0.503 0.712 231 211 183 0 0
3.5040 6.6184 -2.6284 -0.467 -0.517 0.717 229 210 182 0 0
3.5235 6.5991 -2.6332 -0.354 -0.624 0.696 230 210 182 0 0
3.5271 6.5830 -2.6344 -0.379 -0.557 0.739 230 211 182 0 0
3.5374 6.5739 -2.6369 -0.431 -0.550 0.715 233 214 184 0 0
3.5557 6.5732 -2.6410 -0.269 -0.706 0.655 229 210 180 0 0
3.5677 6.5659 -2.6438 -0.269 -0.706 0.655 228 208 181 0 0
3.8006 6.3537 -2.7006 -0.328 -0.520 0.789 231 211 184 0 0
3.8102 6.3441 -2.7030 -0.328 -0.520 0.789 228 211 183 0 0
3.9652 6.2282 -2.7401 -0.280 -0.715 0.641 230 210 183 0 0
3.9825 6.2257 -2.7440 -0.069 -0.798 0.598 230 210 183 0 0
4.0908 6.1040 -2.7710 -0.401 -0.604 0.689 231 211 184 0 0
4.1496 6.0656 -2.7849 -0.284 -0.677 0.679 229 209 183 0 0
4.3019 5.9649 -2.8211 -0.114 -0.908 0.403 229 209 181 0 0
4.3117 5.9555 -2.8235 -0.772 -0.301 0.559 228 208 181 0 0
1.4054 9.1804 -2.1134 -0.681 -0.729 0.069 136 83 69 0 0
1.5593 8.9997 -2.1520 -0.444 -0.690 0.571 190 139 118 0 0
1.6222 8.9646 -2.1668 -0.485 -0.576 0.658 188 137 117 0 0
1.6328 8.9535 -2.1694 -0.490 -0.571 0.658 192 140 119 0 0
1.6829 8.9246 -2.1812 -0.632 -0.627 0.456 187 130 109 0 0
1.6918 8.9100 -2.1835 -0.778 -0.460 0.429 177 122 101 0 0
1.9100 8.7324 -2.2361 -0.311 -0.628 0.713 184 133 113 0 0
1.9222 8.7245 -2.2390 -0.491 -0.569 0.660 181 130 111 0 0
1.9314 8.7108 -2.2414 -0.455 -0.538 0.709 181 132 112 0 0
1.9421 8.7002 -2.2441 -0.427 -0.579 0.694 205 157 137 0 0
1.9569 8.6970 -2.2474 -0.214 -0.774 0.596 203 154 135 0 0
2.0175 8.6258 -2.2626 -0.027 -0.913 0.408 173 118 98 0 0
2.0320 8.6221 -2.2659 -0.222 -0.937 0.269 157 102 81 0 0
2.0449 8.6153 -2.2689 -0.378 -0.883 0.279 152 95 75 0 0
3.5036 9.2541 -2.5718 0.374 -0.749 -0.547 93 51 35 0 0
3.5453 9.2856 -2.5801 0.308 -0.758 -0.575 103 61 45 0 0
3.5855 9.3146 -2.5882 0.546 -0.754 -0.364 104 62 46 0 0
3.6762 9.3872 -2.6061 0.548 -0.758 -0.354 107 66 48 0 0
3.7136 9.4114 -2.6137 0.391 -0.851 -0.351 108 67 49 0 0
3.7520 9.4368 -2.6214 0.394 -0.846 -0.360 88 48 32 0 0
2.9289 8.0531 -2.4780 0.643 -0.666 -0.378 200 169 131 0 0
2.7596 7.1014 -2.4664 -0.317 -0.591 0.742 230 210 183 0 0
2.8901 7.0243 -2.4971 -0.573 -0.484 0.661 230 211 181 0 0
2.9039 6.9978 -2.5008 -0.473 -0.643 0.602 233 214 185 0 0
2.9331 6.9688 -2.5080 -0.600 -0.667 0.442 231 212 185 0 0
3.4826 6.6195 -2.6380 -0.485 -0.548 0.681 228 209 179 0 0
3.4929 6.6104 -2.6405 -0.402 -0.628 0.666 228 209 179 0 0
3.5133 6.5920 -2.6454 -0.486 -0.544 0.684 230 211 181 0 0
3.5157 6.5748 -2.6464 -0.511 -0.596 0.620 229 208 179 0 0
3.5268 6.5665 -2.6491 -0.431 -0.550 0.715 232 212 183 0 0
3.5749 6.5375 -2.6604 -0.648 -0.275 0.710 231 210 183 0 0
3.5948 6.5187 -2.6653 -0.378 -0.689 0.618 229 210 180 0 0
3.6040 6.5086 -2.6676 -0.269 -0.790 0.551 231 212 182 0 0
3.6087 6.4938 -2.6690 -0.576 -0.538 0.615 231 212 182 0 0
3.6178 6.4836 -2.6713 -0.126 -0.737 0.665 228 208 180 0 0
3.7885 6.3455 -2.7125 -0.370 -0.535 0.759 235 215 188 0 0
4.0661 6.1034 -2.7799 -0.470 -0.621 0.628 232 212 185 0 0
4.0780 6.0959 -2.7827 -0.459 -0.650 0.606 231 211 184 0 0
4.1234 6.0639 -2.7935 -0.309 -0.652 0.692 233 213 187 0 0
4.2120 5.9802 -2.8152 -0.260 -0.719 0.644 227 210 184 0 0
4.3249 5.8646 -2.8431 -0.381 -0.730 0.567 231 214 186 0 0
4.4115 5.8145 -2.8634 -0.264 -0.631 0.730 230 213 186 0 0
4.5735 5.7043 -2.9019 -0.179 -0.980 -0.087 208 184 148 0 0
0.6920 10.3569 -1.9414 -0.666 -0.588 -0.459 185 134 114 0 0
0.7197 10.2554 -1.9501 -0.504 -0.859 -0.089 171 119 101 0 0
1.5076 9.0311 -2.1551 -0.229 -0.806 0.545 211 158 134 0 0
1.8751 8.7345 -2.2437 -0.278 -0.603 0.747 169 121 101 0 0
1.9461 8.6827 -2.2607 -0.514 -0.657 0.552 166 114 94 0 0
2.0256 8.6161 -2.2799 -0.335 -0.818 0.467 178 123 102 0 0
2.3616 8.5526 -2.3556 -0.045 -0.918 0.395 178 130 107 0 0
2.4130 8.5517 -2.3670 0.110 -0.974 0.199 156 106 87 0 0
3.5118 9.2719 -2.5908 0.374 -0.749 -0.547 100 58 42 0 0
3.5534 9.3033 -2.5991 0.291 -0.789 -0.541 102 60 44 0 0
3.5773 9.3084 -2.6043 0.408 -0.768 -0.493 103 61 45 0 0
3.6814 9.4006 -2.6248 0.538 -0.752 -0.381 111 69 52 0 0
3.7168 9.4219 -2.6321 0.366 -0.859 -0.358 107 65 48 0 0
3.7492 9.4385 -2.6388 0.366 -0.859 -0.358 98 56 40 0 0
2.7282 7.1094 -2.4734 -0.544 -0.797 0.263 232 212 184 0 0
2.7356 7.0968 -2.4754 -0.364 -0.754 0.547 232 212 184 0 0
2.7459 7.0878 -2.4779 -0.403 -0.757 0.514 230 210 183 0 0
2.8347 7.0246 -2.4991 -0.465 -0.445 0.765 229 210 180 0 0
3.2856 6.7124 -2.6065 -0.290 -0.688 0.665 230 210 183 0 0
3.4291 6.6062 -2.6408 -0.211 -0.746 0.632 231 211 184 0 0
3.5114 6.5739 -2.6598 -0.433 -0.532 0.727 230 209 181 0 0
3.5247 6.5680 -2.6629 -0.412 -0.692 0.594 232 213 183 0 0
3.5762 6.5032 -2.6759 -0.553 -0.518 0.652 228 209 180 0 0
3.5931 6.5010 -2.6796 -0.440 -0.703 0.558 229 210 181 0 0
3.6005 6.4890 -2.6816 -0.702 -0.531 0.475 230 212 183 0 0
3.8963 6.2265 -2.7535 -0.456 -0.690 0.561 231 214 186 0 0
3.9066 6.2177 -2.7560 -0.226 -0.865 0.449 232 214 186 0 0
4.2064 5.9786 -2.8282 -0.097 -0.765 0.636 229 212 186 0 0
4.2567 5.8981 -2.8414 -0.311 -0.663 0.680 228 210 182 0 0
4.3149 5.8595 -2.8552 -0.281 -0.685 0.673 230 211 184 0 0
0.8513 9.9372 -2.0030 -0.879 -0.473 -0.057 184 135 118 0 0
1.1507 9.4363 -2.0815 -0.676 -0.689 0.260 180 126 104 0 0
1.4540 9.0582 -2.1579 -0.589 -0.794 0.150 195 135 113 0 0
1.4874 9.0283 -2.1660 -0.450 -0.769 0.454 189 135 112 0 0
1.7723 8.7618 -2.2356 -0.340 -0.670 0.660 155 104 82 0 0
1.7865 8.7579 -2.2389 -0.060 -0.892 0.449 153 101 79 0 0
2.3529 8.5436 -2.3695 -0.033 -0.842 0.539 184 133 111 0 0
2.3694 8.5422 -2.3732 -0.051 -0.864 0.500 186 135 113 0 0
2.3797 8.5305 -2.3758 -0.168 -0.856 0.489 165 112 94 0 0
2.4076 8.5481 -2.3815 0.110 -0.974 0.199 136 84 65 0 0
3.4802 9.2609 -2.6016 0.421 -0.775 -0.471 100 59 42 0 0
3.5177 9.2865 -2.6093 0.395 -0.777 -0.490 99 59 41 0 0
3.5517 9.3067 -2.6164 0.316 -0.796 -0.516 104 64 46 0 0
3.5946 9.3398 -2.6251 0.415 -0.716 -0.561 90 49 32 0 0
3.6862 9.4136 -2.6435 0.538 -0.752 -0.381 110 68 50 0 0
3.7127 9.4218 -2.6492 0.485 -0.848 -0.212 108 67 50 0 0
3.7562 9.4546 -2.6580 0.404 -0.876 -0.262 100 58 42 0 0
2.5127 7.2801 -2.4357 -0.696 -0.341 0.632 219 195 161 0 0
2.6089 7.1815 -2.4594 -0.323 -0.640 0.697 229 208 181 0 0
2.6197 7.1732 -2.4620 -0.323 -0.640 0.697 230 211 182 0 0
2.7007 7.1002 -2.4817 -0.371 -0.533 0.760 230 210 183 0 0
2.7288 7.1145 -2.4876 -0.920 -0.239 0.310 229 210 180 0 0
2.7241 7.0861 -2.4872 -0.471 -0.652 0.594 231 212 182 0 0
2.7314 7.0733 -2.4891 -0.419 -0.789 0.450 232 212 185 0 0
2.7480 7.0725 -2.4928 -0.473 -0.688 0.550 231 211 184 0 0
3.2120 6.7361 -2.6038 -0.267 -0.677 0.686 231 211 182 0 0
3.5679 6.4984 -2.6884 -0.569 -0.533 0.627 230 211 183 0 0
3.6980 6.3782 -2.7201 -0.347 -0.621 0.703 234 214 187 0 0
3.8946 6.2098 -2.7677 -0.246 -0.850 0.466 231 213 185 0 0
3.9056 6.2016 -2.7704 -0.188 -0.853 0.486 230 210 183 0 0
3.9197 6.1962 -2.7736 -0.108 -0.877 0.468 229 210 181 0 0
4.0177 6.1029 -2.7976 -0.536 -0.589 0.604 230 210 183 0 0
4.1636 5.9805 -2.8329 -0.462 -0.672 0.578 230 211 184 0 0
4.5697 5.7074 -2.9295 -0.179 -0.980 -0.087 208 184 148 0 0
4.5902 5.7065 -2.9341 -0.375 -0.897 0.234 199 174 140 0 0
4.6030 5.6995 -2.9371 -0.500 -0.715 0.488 190 171 144 0 0
4.8370 5.8110 -2.9862 -0.156 -0.718 -0.678 228 229 225 0 0
0.8559 9.9587 -2.0194 -0.873 -0.416 -0.254 193 144 128 0 0
1.1930 9.3592 -2.1082 -0.532 -0.834 -0.146 175 120 98 0 0
1.2051 9.3511 -2.1111 -0.526 -0.850 -0.035 168 113 92 0 0
1.2174 9.3436 -2.1140 -0.526 -0.850 -0.035 177 121 101 0 0
1.7652 8.7539 -2.2495 -0.352 -0.531 0.771 196 148 126 0 0
1.7801 8.7514 -2.2528 -0.250 -0.706 0.663 197 149 127 0 0
2.0661 8.5511 -2.3211 -0.216 -0.876 0.430 163 106 85 0 0
2.3146 8.5425 -2.3766 -0.042 -0.982 0.184 188 141 118 0 0
2.5498 8.6729 -2.4259 0.124 -0.795 -0.594 123 75 56 0 0
2.7736 8.8015 -2.4727 0.334 -0.903 -0.271 106 60 44 0 0
3.5259 9.3044 -2.6284 0.509 -0.787 -0.349 114 72 56 0 0
3.5625 9.3283 -2.6360 0.424 -0.799 -0.426 106 65 48 0 0
3.6055 9.3616 -2.6448 0.507 -0.768 -0.390 105 66 48 0 0
3.6922 9.4281 -2.6625 0.511 -0.768 -0.386 94 56 37 0 0
3.7228 9.4423 -2.6690 0.427 -0.865 -0.266 105 67 49 0 0
3.7557 9.4597 -2.6759 0.404 -0.876 -0.262 99 60 43 0 0
2.6155 7.1718 -2.4752 -0.480 -0.603 0.637 229 208 181 0 0
2.6160 7.1499 -2.4758 -0.373 -0.658 0.655 231 210 183 0 0
2.6829 7.1259 -2.4912 -0.464 -0.726 0.508 231 212 183 0 0
2.6798 7.0994 -2.4912 -0.169 -0.790 0.589 230 211 181 0 0
2.6908 7.0914 -2.4938 -0.270 -0.702 0.659 230 211 181 0 0
2.7246 7.0909 -2.5013 -0.928 -0.339 0.152 229 208 178 0 0
3.2160 6.7240 -2.6191 -0.158 -0.794 0.587 227 207 180 0 0
3.2943 6.6888 -2.6373 -0.300 -0.791 0.533 230 209 182 0 0
3.3043 6.6796 -2.6398 -0.237 -0.737 0.634 233 212 185 0 0
3.3822 6.6033 -2.6589 -0.341 -0.623 0.704 229 209 182 0 0
3.4769 6.5450 -2.6813 -0.206 -0.626 0.752 231 211 184 0 0
3.5399 6.5122 -2.6960 -0.471 -0.603 0.644 232 214 185 0 0
3.5508 6.5040 -2.6987 -0.388 -0.565 0.728 231 211 184 0 0
3.6321 6.4120 -2.7189 -0.147 -0.790 0.596 229 209 182 0 0
3.6801 6.3641 -2.7307 -0.391 -0.605 0.694 229 209 182 0 0
3.7579 6.3075 -2.7493 -0.281 -0.678 0.679 232 211 184 0 0
3.7696 6.2999 -2.7520 -0.281 -0.678 0.679 230 209 182 0 0
3.8226 6.2383 -2.7653 -0.191 -0.896 0.401 229 212 184 0 0
3.8889 6.2079 -2.7807 -0.351 -0.920 0.174 230 210 185 0 0
3.8964 6.1965 -2.7827 -0.310 -0.750 0.584 229 209 182 0 0
4.1555 5.9767 -2.8454 -0.456 -0.774 0.440 231 213 185 0 0
4.1666 5.9686 -2.8480 -0.456 -0.774 0.440 230 212 184 0 0
4.3267 5.7894 -2.8878 -0.413 -0.748 0.519 229 210 185 0 0
4.4200 5.7113 -2.9103 -0.279 -0.798 0.533 229 209 181 0 0
4.5690 5.7100 -2.9435 -0.198 -0.962 -0.188 203 179 144 0 0
4.5813 5.7026 -2.9464 -0.310 -0.950 -0.027 193 170 139 0 0
4.5919 5.6940 -2.9490 -0.341 -0.936 0.086 198 181 159 0 0
4.8321 5.8103 -2.9997 -0.462 -0.525 -0.715 229 229 227 0 0
1.1896 9.3582 -2.1229 -0.595 -0.758 0.265 157 101 78 0 0
1.6658 8.8177 -2.2411 -0.142 -0.692 0.707 189 138 117 0 0
2.0599 8.5457 -2.3351 -0.379 -0.773 0.509 158 103 82 0 0
2.0708 8.5354 -2.3378 -0.333 -0.928 0.166 165 109 89 0 0
2.0882 8.5368 -2.3416 -0.293 -0.941 0.168 172 119 98 0 0
3.4488 9.2557 -2.6299 0.508 -0.789 -0.346 105 64 49 0 0
3.5273 9.3123 -2.6462 0.549 -0.785 -0.286 107 67 50 0 0
3.5677 9.3419 -2.6546 0.476 -0.814 -0.333 103 64 47 0 0
3.6097 9.3736 -2.6633 0.500 -0.785 -0.366 101 62 45 0 0
3.6963 9.4400 -2.6812 0.510 -0.778 -0.367 103 64 47 0 0
3.7250 9.4515 -2.6873 0.369 -0.834 -0.410 109 70 53 0 0
3.7554 9.4650 -2.6938 0.293 -0.819 -0.494 102 63 46 0 0
2.5261 7.1920 -2.4689 -0.125 -0.728 0.674 224 201 170 0 0
2.6944 7.0780 -2.5090 -0.496 -0.700 0.514 229 208 180 0 0
3.0277 6.8218 -2.5891 -0.197 -0.621 0.759 230 209 180 0 0
3.0524 6.8089 -2.5949 -0.312 -0.584 0.749 230 211 181 0 0
3.3707 6.5946 -2.6707 -0.291 -0.586 0.756 224 204 177 0 0
3.4371 6.5265 -2.6870 -0.058 -0.810 0.583 230 210 183 0 0
3.6589 6.3657 -2.7401 -0.033 -0.875 0.482 230 210 183 0 0
3.8297 6.2299 -2.7812 -0.449 -0.558 0.698 234 214 187 0 0
3.8748 6.1798 -2.7924 -0.426 -0.664 0.614 231 210 183 0 0
3.8986 6.1834 -2.7976 -0.402 -0.786 0.469 230 210 182 0 0
3.9102 6.1758 -2.8004 -0.402 -0.786 0.469 229 210 180 0 0
4.1640 5.9343 -2.8624 -0.195 -0.638 0.745 230 210 183 0 0
4.2964 5.8020 -2.8948 -0.515 -0.478 0.712 228 211 183 0 0
4.3039 5.7910 -2.8967 -0.515 -0.478 0.712 228 211 183 0 0
4.3252 5.7913 -2.9015 -0.337 -0.447 0.829 229 210 184 0 0
4.3264 5.7751 -2.9021 -0.310 -0.686 0.659 227 207 181 0 0
4.5647 5.7097 -2.9568 -0.343 -0.848 -0.405 201 178 145 0 0
4.5837 5.7076 -2.9611 -0.652 -0.731 -0.201 193 172 144 0 0
4.7051 5.7845 -2.9865 0.398 -0.781 -0.480 210 195 177 0 0
0.6150 10.6355 -1.9830 -0.780 -0.619 -0.089 157 106 89 0 0
1.1850 9.3544 -2.1373 -0.603 -0.666 0.439 159 101 81 0 0
1.7156 8.7636 -2.2686 -0.168 -0.748 0.642 179 127 106 0 0
2.0689 8.5377 -2.3525 -0.131 -0.927 0.352 181 129 108 0 0
2.0843 8.5355 -2.3560 -0.293 -0.941 0.168 169 117 96 0 0
3.4884 9.2904 -2.6556 0.571 -0.808 -0.147 95 53 37 0 0
3.5303 9.3227 -2.6643 0.558 -0.803 -0.210 109 68 51 0 0
3.5708 9.3523 -2.6728 0.470 -0.792 -0.389 97 58 42 0 0
3.6130 9.3843 -2.6816 0.490 -0.768 -0.412 92 53 38 0 0
3.6583 9.4206 -2.6910 0.510 -0.745 -0.430 100 61 47 0 0
3.7036 9.4566 -2.7005 0.508 -0.749 -0.426 102 63 48 0 0
3.7279 9.4615 -2.7058 0.281 -0.733 -0.620 103 63 47 0 0
3.7630 9.4821 -2.7133 0.261 -0.732 -0.630 100 59 42 0 0
2.5261 7.1734 -2.4833 -0.183 -0.636 0.749 224 201 171 0 0
2.6634 7.0862 -2.5159 -0.261 -0.860 0.438 229 210 181 0 0
2.6846 7.0694 -2.5210 -0.638 -0.770 0.003 228 208 182 0 0
2.6950 7.0607 -2.5235 -0.638 -0.770 0.003 230 210 184 0 0
2.7760 7.0105 -2.5427 -0.303 -0.804 0.512 230 211 181 0 0
2.8261 6.9647 -2.5549 -0.273 -0.750 0.602 228 208 179 0 0
2.8878 6.9117 -2.5699 -0.093 -0.725 0.682 228 208 181 0 0
3.0289 6.7851 -2.6041 -0.444 -0.524 0.727 229 210 180 0 0
3.0381 6.7752 -2.6064 -0.443 -0.639 0.628 233 214 187 0 0
3.4073 6.5183 -2.6946 -0.473 -0.724 0.503 229 209 181 0 0
3.4236 6.5158 -2.6983 -0.299 -0.807 0.509 228 209 181 0 0
4.1427 5.9192 -2.8720 -0.221 -0.604 0.766 228 208 181 0 0
4.1572 5.8967 -2.8757 -0.346 -0.658 0.668 226 207 177 0 0
4.5674 5.7149 -2.9715 -0.305 -0.845 -0.439 198 177 146 0 0
4.5811 5.7086 -2.9747 -0.674 -0.693 -0.256 198 180 156 0 0
0.9486 9.7763 -2.0913 -0.920 -0.374 -0.120 176 129 113 0 0
0.9575 9.7590 -2.0936 -0.914 -0.405 -0.020 178 131 115 0 0
0.9774 9.7303 -2.0986 -0.808 -0.413 -0.419 192 143 127 0 0
1.3511 9.1346 -2.1944 -0.543 -0.782 0.306 180 122 103 0 0
1.3958 9.0951 -2.2053 -0.641 -0.715 0.279 148 87 68 0 0
1.4137 9.0654 -2.2099 -0.575 -0.799 0.178 162 101 82 0 0
1.8809 8.5904 -2.3244 -0.210 -0.758 0.617 185 137 118 0 0
1.8939 8.5843 -2.3275 -0.210 -0.758 0.617 169 121 101 0 0
1.9600 8.5555 -2.3429 -0.292 -0.739 0.607 166 112 90 0 0
2.0827 8.5384 -2.3709 -0.305 -0.952 -0.020 164 110 90 0 0
2.4439 8.6019 -2.4511 0.192 -0.945 -0.266 122 72 55 0 0
2.7027 8.7630 -2.5063 -0.056 -0.984 0.171 120 72 54 0 0
3.4494 9.2683 -2.6649 0.520 -0.821 -0.237 102 61 45 0 0
3.5284 9.3256 -2.6816 0.532 -0.807 -0.256 111 69 53 0 0
3.5655 9.3503 -2.6894 0.427 -0.875 -0.229 105 64 48 0 0
3.6184 9.3982 -2.7004 0.468 -0.787 -0.401 92 51 37 0 0
3.6581 9.4261 -2.7088 0.550 -0.758 -0.350 103 63 50 0 0
3.7437 9.4905 -2.7269 0.229 -0.666 -0.710 92 50 35 0 0
3.7737 9.5035 -2.7334 0.254 -0.714 -0.653 100 58 42 0 0
2.6965 7.0670 -2.5378 -0.258 -0.843 0.472 230 210 184 0 0
2.8743 6.8991 -2.5811 -0.252 -0.678 0.691 232 212 185 0 0
2.9262 6.8559 -2.5937 -0.359 -0.622 0.696 228 209 179 0 0
2.9390 6.8502 -2.5967 -0.195 -0.715 0.671 231 212 182 0 0
3.0079 6.7853 -2.6135 -0.488 -0.576 0.656 229 210 178 0 0
3.0170 6.7751 -2.6157 -0.488 -0.576 0.656 230 211 181 0 0
3.3795 6.5319 -2.7021 -0.389 -0.592 0.706 224 203 174 0 0
3.7124 6.2738 -2.7822 -0.188 -0.823 0.536 231 214 186 0 0
3.7579 6.2428 -2.7931 -0.430 -0.426 0.796 230 211 183 0 0
3.9798 6.0640 -2.8465 -0.413 -0.621 0.667 230 210 183 0 0
3.9896 6.0548 -2.8489 -0.413 -0.621 0.667 227 207 182 0 0
4.1264 5.8910 -2.8829 -0.491 -0.498 0.715 228 208 181 0 0
4.1346 5.8805 -2.8850 -0.410 -0.604 0.684 228 209 180 0 0
4.5752 5.7240 -2.9873 -0.388 -0.761 -0.519 191 173 144 0 0
4.5843 5.7142 -2.9896 -0.366 -0.753 -0.546 201 186 167 0 0
0.8413 10.0813 -2.0771 -0.437 -0.833 -0.340 189 138 116 0 0
0.9730 9.7673 -2.1126 -0.849 -0.448 -0.280 184 135 119 0 0
0.9822 9.7512 -2.1150 -0.849 -0.448 -0.280 182 133 116 0 0
0.9915 9.7352 -2.1174 -0.849 -0.448 -0.280 190 140 123 0 0
1.2958 9.1926 -2.1961 -0.692 -0.685 0.227 181 129 108 0 0
1.3978 9.0715 -2.2214 -0.458 -0.875 0.158 169 108 88 0 0
1.6250 8.7861 -2.2781 -0.378 -0.850 0.367 175 120 100 0 0
3.5309 9.3351 -2.6997 0.530 -0.800 -0.280 101 59 43 0 0
3.5743 9.3692 -2.7089 0.540 -0.797 -0.270 104 62 46 0 0
3.7394 9.4900 -2.7441 0.304 -0.790 -0.532 102 60 43 0 0
2.7289 6.9806 -2.5608 -0.379 -0.548 0.746 230 212 184 0 0
2.7338 6.9651 -2.5622 -0.321 -0.593 0.738 229 211 184 0 0
2.7433 6.9554 -2.5645 -0.352 -0.602 0.717 232 212 185 0 0
2.7533 6.9462 -2.5669 -0.446 -0.438 0.780 231 212 184 0 0
2.7977 6.9373 -2.5771 -0.348 -0.501 0.793 229 210 180 0 0
2.8928 6.8618 -2.6000 -0.461 -0.448 0.766 231 211 183 0 0
2.9052 6.8557 -2.6030 -0.455 -0.601 0.658 229 210 180 0 0
2.9381 6.8319 -2.6108 -0.321 -0.547 0.773 230 211 181 0 0
2.9810 6.7992 -2.6211 -0.184 -0.829 0.529 228 209 181 0 0
2.9923 6.7916 -2.6238 -0.320 -0.643 0.696 228 208 178 0 0
2.9965 6.7756 -2.6251 -0.483 -0.445 0.754 224 205 174 0 0
3.0158 6.7568 -2.6298 -0.519 -0.525 0.675 231 211 184 0 0
3.3544 6.5285 -2.7106 -0.186 -0.606 0.774 227 206 177 0 0
3.3794 6.5157 -2.7165 -0.641 -0.271 0.719 229 209 179 0 0
3.3949 6.5125 -2.7201 -0.244 -0.799 0.549 229 210 180 0 0
3.7030 6.2681 -2.7943 -0.188 -0.823 0.536 230 213 185 0 0
3.9675 6.0562 -2.8580 -0.217 -0.579 0.786 230 210 185 0 0
3.9619 6.0333 -2.8571 -0.228 -0.679 0.698 226 206 180 0 0
4.0572 5.9397 -2.8804 -0.645 -0.761 -0.070 230 211 184 0 0
4.0676 5.9312 -2.8829 -0.645 -0.761 -0.070 231 212 186 0 0
4.0861 5.9121 -2.8875 -0.192 -0.970 -0.151 230 212 186 0 0
4.1231 5.8739 -2.8965 -0.388 -0.615 0.686 229 209 182 0 0
4.5546 5.7280 -2.9969 -0.206 -0.765 -0.611 190 171 140 0 0
5.0217 6.0212 -3.0973 0.382 -0.761 -0.525 230 230 227 0 0
0.6050 11.3117 -2.0186 -0.975 0.168 -0.148 243 242 241 0 0
0.5511 11.0193 -2.0112 -0.979 -0.044 -0.201 225 210 206 0 0
1.1128 9.3876 -2.1665 -0.750 -0.654 -0.105 178 132 116 0 0
1.1209 9.3699 -2.1687 -0.601 -0.790 -0.122 182 139 123 0 0
1.2244 9.2495 -2.1943 -0.626 -0.535 0.568 179 127 107 0 0
1.2347 9.2374 -2.1968 -0.432 -0.611 0.663 176 124 103 0 0
1.2482 9.2329 -2.2000 -0.367 -0.848 0.383 162 109 89 0 0
1.3952 9.0726 -2.2361 -0.477 -0.832 0.283 154 96 76 0 0
2.1841 8.4924 -2.4253 -0.126 -0.934 0.333 170 114 93 0 0
2.1991 8.4893 -2.4288 -0.141 -0.856 0.497 173 118 98 0 0
2.2161 8.4895 -2.4326 -0.083 -0.837 0.541 183 129 109 0 0
2.2308 8.4855 -2.4360 -0.018 -0.831 0.557 177 123 103 0 0
3.5326 9.3434 -2.7176 0.526 -0.796 -0.299 95 55 38 0 0
3.5745 9.3754 -2.7266 0.540 -0.797 -0.270 92 50 34 0 0
3.7460 9.5056 -2.7634 0.399 -0.824 -0.403 108 66 49 0 0
2.7879 8.0196 -2.5706 -0.400 -0.296 -0.867 95 54 38 0 0
2.7985 8.0090 -2.5732 -0.196 -0.408 -0.891 102 62 45 0 0
2.8767 8.0699 -2.5900 0.414 -0.609 -0.676 191 159 132 0 0
2.9266 8.1156 -2.6006 0.414 -0.609 -0.676 192 163 128 0 0
2.9773 8.1619 -2.6113 0.414 -0.609 -0.676 195 167 130 0 0
2.5621 7.0990 -2.5348 -0.312 -0.736 0.600 227 205 175 0 0
2.7142 6.9659 -2.5717 -0.387 -0.537 0.749 231 212 184 0 0
2.7228 6.9552 -2.5738 -0.437 -0.526 0.730 230 210 183 0 0
2.7464 6.9417 -2.5794 -0.418 -0.405 0.813 232 212 184 0 0
2.9322 6.8078 -2.6239 -0.046 -0.889 0.456 231 214 185 0 0
3.0098 6.7536 -2.6425 -0.527 -0.557 0.642 229 211 184 0 0
3.1550 6.6335 -2.6775 -0.351 -0.654 0.670 229 209 181 0 0
3.1671 6.6268 -2.6804 -0.283 -0.784 0.552 227 207 180 0 0
3.3645 6.5035 -2.7274 -0.047 -0.680 0.731 231 211 183 0 0
3.8215 6.1436 -2.8374 -0.490 -0.839 0.239 228 208 178 0 0
3.8336 6.1365 -2.8402 -0.262 -0.884 0.387 228 209 179 0 0
3.8417 6.1258 -2.8423 -0.585 -0.776 0.236 228 209 179 0 0
3.9410 6.0356 -2.8664 -0.455 -0.459 0.763 228 209 182 0 0
3.9497 6.0256 -2.8685 -0.411 -0.500 0.762 228 207 181 0 0
4.0586 5.9266 -2.8950 -0.418 -0.745 -0.520 230 212 187 0 0
4.0725 5.9211 -2.8982 -0.418 -0.745 -0.520 229 211 186 0 0
4.5997 5.6816 -3.0222 -0.884 -0.108 -0.456 229 229 227 0 0
0.8884 10.0575 -2.1202 -0.888 -0.374 -0.267 176 125 108 0 0
1.4236 9.0044 -2.2589 -0.474 -0.792 0.386 171 115 93 0 0
1.7048 8.6719 -2.3283 -0.128 -0.898 0.422 177 122 101 0 0
1.7181 8.6667 -2.3315 -0.387 -0.701 0.599 173 120 98 0 0
2.1782 8.4878 -2.4394 -0.219 -0.846 0.486 174 120 98 0 0
2.1921 8.4827 -2.4426 -0.362 -0.769 0.527 176 121 100 0 0
2.2065 8.4784 -2.4460 -0.221 -0.761 0.610 189 134 113 0 0
2.2229 8.4776 -2.4497 -0.086 -0.841 0.534 159 104 83 0 0
2.2425 8.4821 -2.4541 0.108 -0.908 0.404 145 90 72 0 0
2.7294 8.7937 -2.5605 0.024 -0.759 -0.651 117 68 51 0 0
3.5369 9.3557 -2.7362 0.509 -0.787 -0.348 86 47 32 0 0
3.8650 9.6236 -2.8069 0.562 -0.826 0.047 101 59 43 0 0
2.8729 8.0694 -2.6046 -0.272 -0.304 -0.913 187 158 131 0 0
2.8915 8.0700 -2.6088 -0.191 -0.378 -0.906 190 161 126 0 0
2.5955 7.0582 -2.5571 -0.254 -0.727 0.638 231 212 183 0 0
2.7053 6.9587 -2.5837 -0.526 -0.547 0.651 231 211 184 0 0
2.9041 6.8200 -2.6313 -0.181 -0.676 0.715 231 211 184 0 0
2.9299 6.7879 -2.6377 -0.072 -0.770 0.634 230 213 185 0 0
2.9991 6.7449 -2.6541 -0.302 -0.739 0.602 234 217 189 0 0
3.0467 6.6972 -2.6658 -0.393 -0.659 0.641 232 213 185 0 0
3.0598 6.6918 -2.6688 -0.328 -0.646 0.689 233 213 186 0 0
3.1264 6.6253 -2.6851 -0.161 -0.880 0.447 232 212 186 0 0
3.1470 6.6282 -2.6898 -0.473 -0.832 0.290 226 206 179 0 0
3.1568 6.6191 -2.6921 -0.350 -0.662 0.663 227 207 180 0 0
3.1786 6.6032 -2.6974 -0.093 -0.868 0.487 228 208 181 0 0
3.1957 6.6021 -2.7013 -0.462 -0.526 0.714 227 207 180 0 0
3.2151 6.5834 -2.7060 -0.416 -0.512 0.752 227 210 182 0 0
3.2294 6.5792 -2.7093 -0.272 -0.540 0.796 230 213 185 0 0
3.3279 6.5075 -2.7330 -0.305 -0.607 0.734 233 213 186 0 0
3.3586 6.4813 -2.7404 -0.442 -0.492 0.750 232 212 185 0 0
3.3832 6.4682 -2.7462 -0.496 -0.584 0.643 231 211 184 0 0
3.4978 6.3934 -2.7736 -0.288 -0.464 0.838 230 211 181 0 0
3.5340 6.3536 -2.7825 -0.534 -0.481 0.695 226 207 179 0 0
3.8563 6.0520 -2.8608 -0.745 -0.644 -0.172 227 207 179 0 0
3.9504 5.9938 -2.8832 -0.128 -0.672 0.730 227 207 180 0 0
4.0922 5.9238 -2.9167 -0.544 -0.803 -0.244 230 210 184 0 0
4.6260 5.6881 -3.0423 -0.925 0.098 0.367 231 231 227 0 0
0.5481 11.1919 -2.0417 -0.897 -0.068 -0.436 244 240 239 0 0
0.8703 10.1022 -2.1314 -0.861 -0.508 -0.022 173 124 106 0 0
1.1041 9.4951 -2.1937 -0.627 -0.684 -0.372 190 137 117 0 0
1.1161 9.4865 -2.1966 -0.469 -0.780 -0.415 178 123 104 0 0
1.2600 9.2023 -2.2337 -0.635 -0.719 0.282 186 134 113 0 0
1.2700 9.1898 -2.2362 -0.718 -0.621 0.314 174 122 101 0 0
1.2828 9.1835 -2.2392 -0.760 -0.604 0.240 174 123 102 0 0
1.2911 9.1669 -2.2414 -0.673 -0.584 0.454 192 142 122 0 0
1.4646 8.9305 -2.2846 -0.397 -0.908 0.132 182 126 106 0 0
1.7103 8.6574 -2.3449 -0.792 -0.519 0.323 179 123 103 0 0
1.9534 8.5066 -2.4028 -0.337 -0.772 0.540 149 102 83 0 0
2.1281 8.4938 -2.4431 -0.675 -0.679 0.288 181 125 102 0 0
2.1731 8.4846 -2.4536 -0.239 -0.680 0.693 168 113 91 0 0
2.1847 8.4756 -2.4564 -0.364 -0.595 0.717 194 139 119 0 0
2.1983 8.4699 -2.4595 -0.221 -0.761 0.610 169 115 94 0 0
2.2125 8.4653 -2.4629 -0.185 -0.806 0.563 146 93 71 0 0
2.2259 8.4592 -2.4660 -0.357 -0.755 0.550 136 83 65 0 0
3.5399 9.3660 -2.7545 0.352 -0.706 -0.614 87 48 34 0 0
3.5725 9.3839 -2.7617 0.314 -0.724 -0.615 101 58 45 0 0
3.6176 9.4203 -2.7715 0.499 -0.782 -0.374 106 62 49 0 0
3.6548 9.4447 -2.7797 0.426 -0.763 -0.486 98 55 42 0 0
3.8284 9.6072 -2.8172 0.496 -0.868 0.023 99 57 41 0 0
3.8608 9.6234 -2.8244 0.508 -0.859 0.061 99 57 41 0 0
3.9669 9.7467 -2.8469 -0.695 0.325 0.641 96 54 39 0 0
2.8932 8.1036 -2.6242 -0.362 -0.174 -0.916 183 159 132 0 0
2.9048 8.0941 -2.6271 -0.362 -0.174 -0.916 193 161 128 0 0
2.9193 8.0888 -2.6305 -0.269 -0.289 -0.919 200 169 132 0 0
2.5519 7.0714 -2.5608 -0.168 -0.753 0.636 227 204 172 0 0
2.5640 7.0651 -2.5637 -0.230 -0.721 0.654 227 205 174 0 0
2.5754 7.0580 -2.5664 -0.301 -0.765 0.569 230 209 180 0 0
2.7403 6.9204 -2.6062 -0.582 -0.408 0.703 233 213 185 0 0
2.8350 6.8669 -2.6287 -0.459 -0.528 0.715 233 213 186 0 0
2.9888 6.7367 -2.6659 -0.425 -0.606 0.672 228 210 183 0 0
3.0353 6.6879 -2.6773 -0.379 -0.629 0.678 229 209 181 0 0
3.0455 6.6791 -2.6797 -0.379 -0.629 0.678 232 212 185 0 0
3.1469 6.6117 -2.7039 -0.293 -0.618 0.729 228 208 181 0 0
3.1955 6.5855 -2.7155 -0.392 -0.516 0.762 229 211 184 0 0
3.2049 6.5758 -2.7178 -0.389 -0.454 0.802 228 211 183 0 0
3.4691 6.3868 -2.7811 -0.201 -0.637 0.744 230 211 181 0 0
3.7580 6.1456 -2.8509 -0.583 -0.759 0.289 232 212 184 0 0
3.7686 6.1373 -2.8534 -0.754 -0.547 0.364 231 211 184 0 0
3.8248 6.1169 -2.8666 -0.449 -0.732 0.512 227 209 182 0 0
3.8486 6.0663 -2.8728 -0.937 -0.154 0.313 228 209 179 0 0
3.8540 6.0532 -2.8742 -0.791 -0.594 -0.147 226 207 177 0 0
3.8622 6.0427 -2.8763 -0.366 -0.874 0.321 231 212 182 0 0
4.0317 5.9272 -2.9168 -0.635 -0.546 0.547 229 210 183 0 0
4.0620 5.9185 -2.9239 -0.205 -0.675 0.709 229 210 181 0 0
4.0634 5.9021 -2.9244 -0.363 -0.681 0.636 228 208 181 0 0
4.2773 5.6692 -2.9769 -0.207 -0.894 0.398 223 204 175 0 0
4.3771 5.6650 -2.9998 -0.083 -0.988 0.129 196 170 133 0 0
5.0554 6.0750 -3.1495 0.401 -0.775 -0.489 230 231 226 0 0
4.6640 5.7543 -3.0644 -0.455 -0.497 -0.739 231 231 229 0 0
4.5977 5.6862 -3.0501 -0.952 0.299 -0.057 230 231 227 0 0
0.5542 11.2240 -2.0598 -0.895 -0.084 -0.439 243 242 240 0 0
1.0994 9.4908 -2.2082 -0.629 -0.733 -0.260 188 136 115 0 0
1.1127 9.4855 -2.2113 -0.592 -0.780 -0.204 175 123 103 0 0
1.2859 9.1619 -2.2555 -0.673 -0.584 0.454 183 130 108 0 0
1.3565 9.0759 -2.2729 -0.685 -0.668 0.289 170 113 93 0 0
1.4364 8.9774 -2.2926 -0.308 -0.936 -0.169 177 125 103 0 0
1.4485 8.9698 -2.2955 -0.433 -0.900 0.041 167 116 93 0 0
1.5650 8.7853 -2.3248 -0.655 -0.714 0.246 170 118 97 0 0
1.7870 8.5644 -2.3788 -0.798 -0.523 0.301 185 136 114 0 0
1.9466 8.5000 -2.4165 -0.337 -0.772 0.540 147 100 82 0 0
1.9611 8.4966 -2.4198 -0.002 -0.983 0.182 169 120 102 0 0
2.2462 8.4996 -2.4855 0.397 -0.911 -0.113 131 79 61 0 0
2.6890 8.7986 -2.5836 0.252 -0.734 -0.631 118 69 54 0 0
3.4504 9.3292 -2.7521 0.363 -0.832 -0.420 106 64 49 0 0
3.5485 9.3847 -2.7740 0.374 -0.732 -0.569 98 59 47 0 0
3.5824 9.4045 -2.7815 0.284 -0.711 -0.643 103 60 48 0 0
3.6173 9.4257 -2.7893 0.353 -0.738 -0.575 94 50 37 0 0
3.6606 9.4591 -2.7988 0.434 -0.770 -0.467 95 53 40 0 0
3.8230 9.6053 -2.8343 0.433 -0.898 -0.082 94 55 40 0 0
3.8555 9.6217 -2.8416 0.433 -0.898 -0.082 93 55 40 0 0
3.8878 9.6374 -2.8488 -0.087 -0.767 0.636 90 52 39 0 0
2.9437 8.1550 -2.6508 -0.274 -0.199 -0.941 192 159 127 0 0
2.8849 6.7418 -2.6558 -0.640 -0.556 0.531 231 214 186 0 0
2.9018 6.7412 -2.6597 -0.320 -0.766 0.558 228 211 183 0 0
2.9094 6.7295 -2.6616 -0.219 -0.796 0.565 229 210 181 0 0
2.9501 6.7157 -2.6712 0.092 -0.942 0.323 227 208 181 0 0
3.1542 6.5834 -2.7200 0.141 -0.945 0.295 230 212 186 0 0
3.1828 6.5752 -2.7267 -0.408 -0.545 0.732 229 210 183 0 0
3.1922 6.5656 -2.7289 -0.470 -0.601 0.647 231 213 185 0 0
3.2269 6.5440 -2.7372 -0.138 -0.605 0.784 230 212 184 0 0
3.7508 6.1423 -2.8632 -0.393 -0.622 0.677 229 209 181 0 0
3.7709 6.1246 -2.8681 -0.478 -0.661 0.578 225 206 178 0 0
3.7890 6.0869 -2.8727 -0.300 -0.537 0.789 229 212 184 0 0
3.8295 6.0701 -2.8823 -0.835 -0.460 0.302 230 211 183 0 0
3.8368 6.0587 -2.8841 -0.815 -0.575 0.070 231 212 183 0 0
3.8449 6.0482 -2.8862 -0.779 -0.583 0.233 229 211 181 0 0
4.0220 5.9219 -2.9286 -0.501 -0.568 0.653 228 208 181 0 0
4.0915 5.8251 -2.9459 -0.332 -0.544 0.771 229 209 182 0 0
4.1122 5.8082 -2.9509 -0.321 -0.460 0.828 229 210 180 0 0
4.1494 5.7879 -2.9597 -0.318 -0.671 0.670 227 207 179 0 0
4.3717 5.6638 -3.0126 -0.083 -0.988 0.129 203 177 142 0 0
5.1079 6.1190 -3.1762 0.405 -0.775 -0.485 230 231 226 0 0
4.6743 5.7654 -3.0810 -0.530 -0.403 -0.746 230 230 228 0 0
4.6479 5.7280 -3.0754 -0.664 -0.490 0.564 231 231 227 0 0
0.5606 11.2569 -2.0780 -0.854 -0.137 -0.502 242 241 239 0 0
1.3898 8.9844 -2.2969 -0.767 -0.636 0.085 171 115 92 0 0
1.4447 8.9682 -2.3098 -0.539 -0.798 0.269 175 121 99 0 0
1.5589 8.8114 -2.3381 -0.692 -0.715 0.101 173 120 98 0 0
1.8463 8.5002 -2.4083 -0.262 -0.861 0.436 173 124 101 0 0
2.1718 8.4644 -2.4841 -0.153 -0.786 0.599 144 92 72 0 0
2.1936 8.4729 -2.4891 0.310 -0.944 0.111 134 83 63 0 0
3.2384 9.1945 -2.7223 0.365 -0.871 -0.329 110 70 58 0 0
3.4535 9.3398 -2.7703 0.363 -0.832 -0.420 101 60 47 0 0
3.5538 9.3984 -2.7928 0.391 -0.745 -0.541 90 51 38 0 0
3.5913 9.4236 -2.8012 0.382 -0.746 -0.546 101 59 46 0 0
3.6275 9.4468 -2.8093 0.365 -0.739 -0.567 97 55 40 0 0
3.6806 9.4947 -2.8210 0.326 -0.700 -0.636 97 57 41 0 0
3.8303 9.6220 -2.8542 0.295 -0.954 -0.060 87 51 35 0 0
3.8600 9.6342 -2.8609 0.287 -0.957 0.035 77 44 31 0 0
3.8754 9.6253 -2.8646 -0.080 -0.749 0.658 78 49 37 0 0
2.8786 6.7381 -2.6682 -0.781 -0.506 0.366 231 214 186 0 0
2.8842 6.7240 -2.6697 -0.306 -0.891 0.336 229 212 184 0 0
2.8993 6.7214 -2.6732 -0.597 -0.442 0.670 228 210 181 0 0
2.9414 6.7092 -2.6831 0.037 -0.910 0.413 232 213 185 0 0
3.7601 6.0814 -2.8801 -0.520 -0.561 0.644 229 212 185 0 0
3.8140 6.0591 -2.8928 -0.423 -0.545 0.724 230 213 185 0 0
3.8283 6.0543 -2.8962 -0.417 -0.585 0.696 230 213 185 0 0
3.8377 6.0448 -2.8985 -0.425 -0.538 0.728 227 210 181 0 0
3.8503 6.0384 -2.9015 -0.366 -0.874 0.321 226 209 180 0 0
4.0983 5.7996 -2.9617 -0.656 -0.365 0.661 227 208 178 0 0
4.1383 5.7817 -2.9712 -0.318 -0.671 0.670 228 209 180 0 0
4.1860 5.7361 -2.9827 -0.500 -0.513 0.698 231 211 184 0 0
4.6765 5.7702 -3.0959 -0.624 -0.200 -0.755 231 231 229 0 0
4.6381 5.7235 -3.0875 -0.980 -0.043 -0.194 230 231 227 0 0
1.6987 8.6216 -2.3878 -0.675 -0.679 0.289 168 112 90 0 0
1.7104 8.6135 -2.3906 -0.494 -0.791 0.361 175 121 99 0 0
1.8404 8.4951 -2.4220 -0.262 -0.861 0.436 166 114 92 0 0
2.1681 8.4634 -2.4985 -0.029 -0.958 0.284 128 77 59 0 0
3.2434 9.2081 -2.7405 0.323 -0.857 -0.402 113 73 59 0 0
3.2725 9.2225 -2.7472 0.366 -0.871 -0.329 108 67 52 0 0
3.4602 9.3558 -2.7894 0.375 -0.885 -0.275 101 61 50 0 0
3.5597 9.4131 -2.8119 0.444 -0.749 -0.492 95 56 43 0 0
3.5961 9.4367 -2.8201 0.444 -0.767 -0.463 102 59 45 0 0
3.6607 9.5020 -2.8344 0.416 -0.702 -0.579 101 58 43 0 0
3.6943 9.5209 -2.8420 0.324 -0.690 -0.647 103 64 47 0 0
3.7898 9.5997 -2.8634 0.304 -0.779 -0.549 100 60 45 0 0
3.8261 9.6218 -2.8716 0.295 -0.954 -0.060 74 38 23 0 0
3.8570 9.6357 -2.8786 0.122 -0.976 0.180 91 63 51 0 0
2.6032 6.9524 -2.6158 -0.086 -0.756 0.648 231 211 183 0 0
2.7300 6.8125 -2.6467 -0.104 -0.886 0.452 230 210 183 0 0
2.8154 6.7912 -2.6668 -0.360 -0.449 0.818 230 213 185 0 0
2.8724 6.7346 -2.6807 -0.709 -0.467 0.528 231 213 186 0 0
2.8773 6.7197 -2.6820 -0.695 -0.564 0.446 229 211 183 0 0
2.8956 6.7209 -2.6862 -0.334 -0.798 0.502 227 209 180 0 0
2.9056 6.7120 -2.6886 -0.443 -0.795 0.414 233 214 184 0 0
3.3647 6.3663 -2.7990 -0.056 -0.736 0.675 230 210 183 0 0
3.6015 6.2086 -2.8557 -0.153 -0.684 0.713 227 209 182 0 0
3.7631 6.0694 -2.8948 -0.503 -0.473 0.724 228 211 184 0 0
3.7856 6.0543 -2.9002 -0.211 -0.701 0.681 226 208 180 0 0
4.3802 5.6599 -3.0426 -0.277 -0.957 -0.090 188 168 138 0 0
5.0617 6.0897 -3.1964 0.345 -0.805 -0.483 231 231 227 0 0
0.5741 11.2705 -2.1153 -0.883 -0.065 -0.464 242 241 239 0 0
0.9166 10.0926 -2.2064 -0.652 -0.627 -0.427 170 120 101 0 0
1.3249 9.0601 -2.3114 -0.625 -0.775 -0.094 184 133 111 0 0
1.3672 9.0164 -2.3217 -0.510 -0.813 0.281 166 112 91 0 0
1.5559 8.7855 -2.3679 -0.581 -0.792 0.186 185 130 108 0 0
2.7584 8.8688 -2.6478 0.313 -0.802 -0.509 116 69 53 0 0
3.3889 9.3147 -2.7908 0.247 -0.705 -0.664 99 58 44 0 0
3.5673 9.4304 -2.8313 0.444 -0.749 -0.492 93 54 40 0 0
3.6147 9.4705 -2.8420 0.373 -0.696 -0.614 100 58 43 0 0
3.6772 9.5326 -2.8560 0.314 -0.768 -0.558 97 55 39 0 0
3.7104 9.5507 -2.8636 0.285 -0.768 -0.574 95 54 37 0 0
3.7480 9.5752 -2.8722 0.345 -0.780 -0.522 93 52 36 0 0
3.7939 9.6116 -2.8825 0.337 -0.854 -0.396 99 58 45 0 0
3.8253 9.6266 -2.8897 0.270 -0.882 -0.387 95 61 48 0 0
3.8446 9.6234 -2.8943 -0.200 -0.816 0.542 125 103 91 0 0
2.6521 6.8893 -2.6416 -0.283 -0.584 0.761 231 210 183 0 0
2.7034 6.8257 -2.6542 -0.556 -0.575 0.600 231 211 183 0 0
2.7127 6.8161 -2.6565 -0.585 -0.635 0.505 231 213 183 0 0
2.7241 6.8092 -2.6592 -0.659 -0.547 0.516 233 213 186 0 0
2.7307 6.7961 -2.6608 -0.585 -0.635 0.505 230 210 183 0 0
2.8736 6.7192 -2.6949 -0.746 -0.406 0.528 229 209 182 0 0
2.8886 6.7164 -2.6985 -0.443 -0.795 0.414 231 212 184 0 0
2.8996 6.7088 -2.7011 -0.443 -0.795 0.414 234 215 183 0 0
3.2542 6.4662 -2.7862 -0.207 -0.739 0.642 231 211 184 0 0
3.2743 6.4292 -2.7912 -0.620 -0.549 0.561 229 210 182 0 0
3.3383 6.3616 -2.8068 -0.749 -0.405 0.524 230 213 186 0 0
3.5234 6.2470 -2.8511 -0.702 -0.417 0.577 231 211 181 0 0
4.0789 5.7552 -2.9854 -0.616 -0.586 0.526 226 207 177 0 0
4.0960 5.7525 -2.9894 -0.159 -0.858 0.488 224 205 175 0 0
0.5812 11.3060 -2.1339 -0.883 -0.065 -0.464 241 240 238 0 0
0.5814 11.2517 -2.1344 -0.953 -0.031 -0.300 242 241 239 0 0
0.8429 10.2896 -2.2035 -0.861 -0.379 -0.338 176 128 110 0 0
1.6988 8.6028 -2.4180 -0.435 -0.900 0.016 151 91 70 0 0
1.7113 8.5963 -2.4209 -0.524 -0.842 0.132 171 113 92 0 0
1.7517 8.5513 -2.4308 -0.580 -0.696 0.424 142 94 74 0 0
1.7628 8.5419 -2.4334 -0.610 -0.667 0.428 150 100 79 0 0
3.4005 9.3383 -2.8109 0.208 -0.696 -0.688 99 59 44 0 0
3.5724 9.4440 -2.8503 0.454 -0.736 -0.502 95 54 40 0 0
3.6151 9.4769 -2.8601 0.454 -0.749 -0.482 96 54 38 0 0
3.6823 9.5461 -2.8753 0.299 -0.718 -0.628 100 58 42 0 0
3.7182 9.5683 -2.8835 0.299 -0.718 -0.628 93 51 35 0 0
3.7608 9.6001 -2.8932 0.301 -0.825 -0.479 91 49 36 0 0
3.7962 9.6210 -2.9013 0.139 -0.977 -0.161 99 65 53 0 0
3.8224 9.6283 -2.9074 -0.427 -0.360 0.829 127 103 90 0 0
2.4906 7.0548 -2.6162 -0.878 -0.400 0.262 220 198 165 0 0
2.6477 6.8662 -2.6546 -0.138 -0.673 0.727 223 203 176 0 0
2.8712 6.7201 -2.7082 -0.422 -0.602 0.678 230 210 183 0 0
2.8878 6.6987 -2.7123 -0.544 -0.528 0.652 229 210 180 0 0
3.0242 6.5722 -2.7452 -0.181 -0.721 0.669 231 210 183 0 0
3.0349 6.5643 -2.7478 -0.146 -0.856 0.496 231 211 185 0 0
3.2337 6.4674 -2.7952 -0.133 -0.711 0.691 232 211 183 0 0
3.2468 6.4619 -2.7983 -0.133 -0.711 0.691 234 213 185 0 0
3.2365 6.4118 -2.7963 -0.053 -0.880 0.472 228 208 181 0 0
3.3135 6.3583 -2.8148 -0.468 -0.445 0.763 227 208 179 0 0
3.3347 6.3614 -2.8198 -0.712 -0.548 0.439 229 209 181 0 0
3.7340 6.0490 -2.9159 -0.311 -0.685 0.659 227 209 182 0 0
3.8646 5.9542 -2.9473 -0.447 -0.625 0.640 229 209 182 0 0
3.8933 5.9270 -2.9543 -0.495 -0.497 0.713 225 205 178 0 0
4.0671 5.7655 -2.9963 -0.438 -0.679 0.590 224 204 175 0 0
4.7608 5.8449 -3.1583 -0.151 -0.715 -0.682 231 231 229 0 0
0.5862 11.2791 -2.1525 -0.953 -0.031 -0.300 241 240 238 0 0
0.9093 10.1327 -2.2365 -0.910 -0.409 -0.069 187 140 123 0 0
1.3581 9.0094 -2.3499 -0.617 -0.785 0.054 183 130 109 0 0
1.5328 8.8152 -2.3924 -0.383 -0.924 -0.011 181 128 105 0 0
1.8414 8.4544 -2.4675 -0.505 -0.682 0.528 175 125 105 0 0
1.8860 8.4772 -2.4779 -0.250 -0.815 0.522 169 121 99 0 0
3.5826 9.4652 -2.8705 0.497 -0.736 -0.460 97 55 40 0 0
3.7813 9.6365 -2.9161 -0.228 -0.594 0.771 92 56 44 0 0
3.7910 9.6193 -2.9185 -0.314 -0.392 0.865 107 83 73 0 0
2.7149 6.7844 -2.6847 -0.486 -0.541 0.686 227 206 179 0 0
2.8697 6.7015 -2.7218 -0.542 -0.600 0.588 227 208 180 0 0
2.8781 6.6909 -2.7238 -0.518 -0.576 0.632 230 210 182 0 0
2.9116 6.6484 -2.7320 -0.268 -0.663 0.700 231 212 182 0 0
3.3293 6.3593 -2.8323 -0.804 -0.497 0.327 227 207 178 0 0
3.3332 6.3442 -2.8334 -0.416 -0.680 0.604 226 207 178 0 0
3.3416 6.3338 -2.8354 -0.535 -0.615 0.579 226 206 179 0 0
3.3501 6.3235 -2.8375 -0.401 -0.806 0.435 229 210 183 0 0
3.3576 6.3123 -2.8393 -0.820 -0.499 0.280 231 213 185 0 0
3.7004 6.0570 -2.9218 -0.318 -0.787 0.529 229 209 182 0 0
3.7134 6.0512 -2.9249 -0.344 -0.649 0.679 230 210 183 0 0
3.8717 5.9285 -2.9630 -0.592 -0.493 0.638 230 212 184 0 0
4.0572 5.7603 -3.0079 -0.534 -0.682 0.499 230 210 183 0 0
4.0672 5.7516 -3.0103 -0.499 -0.475 0.725 230 210 183 0 0
4.5483 5.8022 -3.1232 0.396 -0.793 -0.463 200 185 160 0 0
4.7959 5.8753 -3.1810 0.037 -0.792 -0.609 231 231 229 0 0
0.5910 11.3067 -2.1707 -0.953 -0.031 -0.300 241 240 238 0 0
