ply
format ascii 1.0
element vertex 814
property float x
property float y
property float z
property float nx
property float ny
property float nz
property uchar diffuse_red
property uchar diffuse_green
property uchar diffuse_blue
property uchar class
property uchar detection
end_header
0.9869 10.4491 -3.1939 -0.364 -0.722 -0.589 227 223 220 0 0
1.0042 10.4525 -3.1999 -0.668 -0.514 -0.539 227 224 219 0 0
1.1103 10.3214 -3.2306 -0.625 -0.743 -0.242 224 220 217 0 0
1.1299 10.3296 -3.2377 -0.315 -0.876 -0.365 225 220 217 0 0
1.1595 10.2105 -3.2429 -0.045 -0.790 -0.611 225 219 216 0 0
1.3116 10.2222 -3.2950 -0.383 -0.055 0.922 222 217 214 0 0
1.4119 10.0799 -3.3233 -0.709 -0.594 -0.379 223 215 212 0 0
1.4402 10.0693 -3.3325 -0.464 -0.871 -0.162 220 215 211 0 0
1.4569 10.0694 -3.3382 -0.520 -0.756 -0.397 220 215 211 0 0
1.4818 10.0867 -3.3474 -0.954 -0.296 0.047 219 214 210 0 0
1.4999 10.0895 -3.3536 -0.834 -0.069 0.548 220 215 211 0 0
1.5932 9.7314 -3.3708 -0.819 -0.574 0.014 181 147 138 0 0
1.9112 8.9805 -3.4485 -0.686 -0.559 -0.465 170 123 111 0 0
2.1559 8.9852 -3.5318 0.164 -0.842 -0.515 143 103 91 0 0
2.4389 9.1804 -3.6359 0.516 -0.770 -0.375 202 191 184 0 0
2.6414 8.9228 -3.6943 -0.383 -0.872 0.304 221 216 210 0 0
2.8828 8.8058 -3.7715 -0.704 -0.553 -0.446 223 218 212 0 0
2.9592 8.6976 -3.7931 -0.300 -0.833 -0.465 225 220 214 0 0
3.0324 8.7710 -3.8210 -0.026 -0.936 0.350 225 220 214 0 0
2.9847 8.6795 -3.8011 -0.574 -0.420 0.703 223 219 213 0 0
3.0079 8.6846 -3.8092 -0.678 -0.435 0.593 223 218 213 0 0
2.8545 8.1007 -3.7333 -0.968 -0.038 -0.247 211 186 156 0 0
2.8263 7.1203 -3.6840 -0.882 -0.330 0.336 209 187 155 0 0
2.8412 7.0955 -3.6881 -0.471 -0.875 -0.110 214 191 159 0 0
2.8945 6.9297 -3.6995 -0.717 -0.557 -0.420 204 180 149 0 0
2.9293 6.8273 -3.7071 -0.776 -0.533 -0.336 205 182 150 0 0
2.9631 6.7450 -3.7153 -0.599 -0.734 -0.322 199 176 144 0 0
2.9744 6.7373 -3.7188 -0.599 -0.734 -0.322 202 179 148 0 0
2.9903 6.7344 -3.7241 -0.730 -0.671 -0.130 199 176 145 0 0
2.9987 6.7236 -3.7265 -0.698 -0.640 -0.322 199 176 144 0 0
3.0705 6.6237 -3.7469 -0.749 -0.480 -0.457 199 178 148 0 0
3.1060 6.5830 -3.7573 -0.924 -0.371 -0.091 201 178 147 0 0
3.1075 6.5657 -3.7571 -0.731 -0.676 -0.094 201 178 149 0 0
3.1105 6.5497 -3.7575 -0.629 -0.744 0.227 201 178 147 0 0
3.1335 6.5348 -3.7647 -0.633 -0.760 0.151 197 174 143 0 0
3.1504 6.5326 -3.7703 -0.524 -0.844 -0.115 199 177 146 0 0
3.1605 6.5237 -3.7734 -0.548 -0.778 -0.308 196 175 146 0 0
3.1763 6.4830 -3.7771 -0.826 -0.437 -0.356 194 172 146 0 0
3.3582 6.3968 -3.8355 -0.746 -0.655 -0.117 184 164 133 0 0
3.3669 6.3865 -3.8380 -0.795 -0.606 0.024 190 171 141 0 0
3.3749 6.3756 -3.8403 -0.880 -0.471 -0.066 198 178 148 0 0
3.4065 6.3499 -3.8499 -0.670 -0.702 -0.243 189 169 137 0 0
3.4195 6.3436 -3.8541 -0.530 -0.792 -0.304 191 171 140 0 0
5.1954 6.8106 -4.4766 0.392 -0.838 -0.380 214 214 207 0 0
5.2687 6.8276 -4.5021 0.362 -0.902 -0.233 217 218 213 0 0
5.3418 6.8639 -4.5285 0.359 -0.896 -0.261 218 218 215 0 0
5.2437 6.7691 -4.4913 0.336 -0.925 -0.175 217 218 213 0 0
5.1665 6.6907 -4.4619 0.106 -0.963 0.247 218 219 214 0 0
5.1956 6.6935 -4.4719 0.064 -0.875 0.480 220 219 216 0 0
5.2330 6.6637 -4.4834 -0.647 -0.460 0.608 220 221 217 0 0
5.2070 6.5676 -4.4706 -0.477 -0.002 0.879 224 224 222 0 0
0.9398 10.7425 -3.2067 0.457 -0.619 0.638 230 226 223 0 0
0.8113 10.3743 -3.1476 -0.661 -0.666 0.346 229 225 222 0 0
0.8260 10.3719 -3.1525 -0.491 -0.789 0.370 229 225 221 0 0
0.8298 10.3421 -3.1525 -0.796 -0.340 0.501 228 225 220 0 0
0.9852 10.4544 -3.2102 -0.104 -0.817 -0.568 228 224 221 0 0
1.0045 10.4625 -3.2171 -0.644 -0.595 -0.481 227 224 220 0 0
1.0164 10.4526 -3.2208 -0.644 -0.595 -0.481 228 225 220 0 0
1.0042 10.3840 -3.2137 -0.611 -0.756 0.233 228 224 221 0 0
1.1557 10.2480 -3.2597 -0.136 -0.605 -0.784 225 220 217 0 0
1.1774 10.2607 -3.2676 -0.237 -0.864 -0.443 225 220 217 0 0
1.4583 10.1880 -3.3603 -0.491 -0.747 -0.449 223 215 212 0 0
1.5264 9.9778 -3.3748 -0.321 -0.848 -0.421 222 214 212 0 0
1.5314 9.9536 -3.3755 -0.334 -0.918 -0.215 220 213 211 0 0
1.6110 9.7412 -3.3937 -0.659 -0.749 -0.071 191 171 166 0 0
1.6289 9.7434 -3.4000 -0.744 -0.654 0.137 190 169 161 0 0
1.6435 9.7389 -3.4047 -0.717 -0.670 0.189 190 165 156 0 0
1.6776 9.5759 -3.4096 -0.815 -0.442 -0.376 169 127 115 0 0
1.8106 9.2273 -3.4404 -0.850 -0.487 -0.204 174 136 121 0 0
1.9138 8.9917 -3.4657 -0.686 -0.559 -0.465 159 112 101 0 0
2.4106 9.1714 -3.6426 0.452 -0.758 -0.471 189 178 170 0 0
2.4427 9.1933 -3.6544 0.491 -0.773 -0.402 203 198 190 0 0
2.4819 9.2261 -3.6692 0.522 -0.770 -0.366 205 199 193 0 0
2.4942 8.9028 -3.6598 -0.935 -0.315 0.165 217 212 206 0 0
2.6145 8.9448 -3.7026 -0.197 -0.974 0.110 220 217 210 0 0
2.6204 8.9257 -3.7038 -0.196 -0.925 0.326 220 217 210 0 0
2.8855 8.7888 -3.7885 -0.998 -0.037 -0.048 224 219 215 0 0
2.9010 8.7568 -3.7924 -0.999 0.027 0.038 225 220 215 0 0
2.9545 8.6972 -3.8082 -0.113 -0.967 -0.228 224 221 214 0 0
2.8287 7.1069 -3.6989 -0.787 -0.590 -0.181 209 186 154 0 0
2.9327 6.8354 -3.7230 -0.712 -0.538 -0.451 205 182 150 0 0
2.9658 6.7523 -3.7308 -0.605 -0.668 -0.432 197 174 142 0 0
2.9771 6.7445 -3.7343 -0.774 -0.488 -0.403 201 178 146 0 0
3.1502 6.5366 -3.7847 -0.435 -0.885 -0.168 194 172 141 0 0
3.1615 6.5289 -3.7882 -0.548 -0.778 -0.308 194 173 142 0 0
3.1746 6.5229 -3.7924 -0.755 -0.603 -0.259 193 172 143 0 0
3.1820 6.5114 -3.7945 -0.548 -0.804 -0.230 195 172 145 0 0
3.3572 6.3999 -3.8495 -0.717 -0.690 -0.104 190 169 138 0 0
3.3667 6.3904 -3.8524 -0.717 -0.690 -0.104 193 172 143 0 0
3.3773 6.3819 -3.8557 -0.855 -0.497 -0.147 194 174 144 0 0
5.2684 6.8317 -4.5191 0.357 -0.898 -0.259 217 218 213 0 0
5.1589 6.7085 -4.4767 -0.660 -0.751 -0.033 218 219 214 0 0
5.1935 6.7155 -4.4887 -0.362 -0.765 0.532 219 219 216 0 0
5.2079 6.7070 -4.4933 -0.709 -0.700 0.090 220 219 217 0 0
5.2162 6.6939 -4.4956 -0.631 -0.602 0.490 220 220 218 0 0
5.2257 6.6817 -4.4983 -0.631 -0.602 0.490 221 221 219 0 0
0.8342 10.4023 -3.1730 -0.790 -0.541 0.288 229 225 223 0 0
0.9907 10.4774 -3.2297 -0.211 -0.811 -0.545 228 224 221 0 0
1.0083 10.4031 -3.2325 -0.353 -0.742 -0.569 227 224 220 0 0
1.2597 9.9095 -3.2973 -0.940 -0.137 0.311 223 218 215 0 0
1.2586 9.8023 -3.2923 -0.923 -0.377 0.081 222 217 213 0 0
1.5255 9.9497 -3.3900 -0.292 -0.954 -0.069 221 215 212 0 0
1.5403 9.9455 -3.3948 -0.292 -0.954 -0.069 222 215 210 0 0
1.5958 9.7522 -3.4055 -0.783 -0.599 0.170 218 211 208 0 0
1.6090 9.7450 -3.4097 -0.538 -0.824 -0.180 217 209 206 0 0
1.6429 9.7123 -3.4199 -0.576 -0.798 0.178 207 192 186 0 0
1.6935 9.5494 -3.4302 -0.769 -0.610 -0.192 175 136 121 0 0
1.8180 9.2476 -3.4598 -0.809 -0.538 -0.238 168 129 114 0 0
1.8274 9.2342 -3.4625 -0.839 -0.493 -0.228 160 121 106 0 0
2.4424 8.8305 -3.6554 -0.352 -0.481 0.803 216 213 206 0 0
2.9678 8.7216 -3.8305 -0.412 -0.847 -0.335 224 221 215 0 0
3.0664 8.7494 -3.8654 -0.958 0.264 0.116 225 218 215 0 0
3.1235 8.8000 -3.8871 -0.902 0.430 -0.033 222 219 213 0 0
2.9688 6.7597 -3.7465 -0.605 -0.668 -0.432 201 178 146 0 0
2.9799 6.7518 -3.7499 -0.637 -0.704 -0.312 200 178 146 0 0
3.1495 6.5401 -3.7989 -0.422 -0.903 0.082 195 172 140 0 0
3.1624 6.5340 -3.8030 -0.322 -0.945 -0.050 195 173 142 0 0
3.1756 6.5281 -3.8073 -0.755 -0.603 -0.259 194 172 141 0 0
3.2202 6.5152 -3.8220 -0.593 -0.768 -0.242 194 173 142 0 0
3.2274 6.5034 -3.8239 -0.633 -0.659 -0.406 195 174 143 0 0
3.3568 6.4036 -3.8639 -0.746 -0.655 -0.117 189 166 135 0 0
3.3632 6.3912 -3.8655 -0.494 -0.864 -0.100 193 172 141 0 0
3.3796 6.3881 -3.8710 -0.769 -0.543 -0.336 193 174 144 0 0
3.3957 6.3846 -3.8764 -0.335 -0.888 -0.316 187 167 136 0 0
3.5826 6.3168 -3.9374 -0.477 -0.761 -0.440 189 171 146 0 0
3.6929 6.2871 -3.9738 -0.528 -0.716 -0.456 185 166 139 0 0
5.2758 6.8417 -4.5390 0.339 -0.888 -0.310 217 217 213 0 0
5.1567 6.7111 -4.4927 -0.660 -0.751 -0.033 217 217 215 0 0
5.1755 6.7061 -4.4989 -0.524 -0.804 -0.282 219 219 217 0 0
5.1904 6.6980 -4.5036 -0.524 -0.804 -0.282 220 219 217 0 0
5.2077 6.6917 -4.5093 -0.631 -0.602 0.490 221 221 219 0 0
0.8439 10.2017 -3.1839 -0.517 -0.853 0.074 228 225 220 0 0
0.8565 10.1944 -3.1878 -0.404 -0.865 -0.297 229 226 221 0 0
1.0072 10.4097 -3.2491 -0.494 -0.738 -0.460 228 225 220 0 0
1.2588 9.9158 -3.3136 -0.824 -0.434 0.365 224 218 215 0 0
1.2527 9.8673 -3.3093 -0.971 -0.194 0.137 222 217 213 0 0
1.3037 9.8380 -3.3255 -0.795 -0.602 -0.073 224 216 212 0 0
1.4601 10.0307 -3.3877 -0.215 -0.749 -0.627 221 217 214 0 0
1.5237 9.9541 -3.4062 -0.932 -0.268 -0.244 221 216 213 0 0
1.5925 9.7871 -3.4224 -0.963 -0.259 -0.076 218 214 209 0 0
1.6003 9.7690 -3.4242 -0.723 -0.691 -0.007 220 213 208 0 0
1.6082 9.7515 -3.4262 -0.595 -0.776 -0.210 220 212 208 0 0
1.6440 9.7223 -3.4372 -0.603 -0.796 -0.049 217 211 206 0 0
1.6849 9.5726 -3.4446 -0.887 -0.456 -0.067 179 143 131 0 0
1.6944 9.5586 -3.4472 -0.811 -0.563 -0.162 179 144 129 0 0
1.8179 9.2547 -3.4762 -0.624 -0.757 -0.194 165 126 110 0 0
1.8276 9.2416 -3.4789 -0.839 -0.493 -0.228 161 122 107 0 0
1.8476 9.2470 -3.4860 -0.785 -0.568 -0.246 176 134 120 0 0
1.8568 9.2331 -3.4886 -0.636 -0.725 0.266 168 126 112 0 0
2.4471 8.8440 -3.6739 -0.362 -0.630 0.687 218 215 208 0 0
2.4589 8.8344 -3.6775 -0.369 -0.602 0.708 218 215 208 0 0
2.8804 8.8755 -3.8240 -0.881 -0.155 -0.446 226 221 216 0 0
3.0814 8.8296 -3.8909 -0.919 0.092 0.384 225 222 217 0 0
3.0687 8.7854 -3.8846 -0.983 0.175 0.060 225 220 215 0 0
3.0660 8.7550 -3.8823 -0.954 0.272 0.124 226 220 215 0 0
2.9717 6.7672 -3.7621 -0.605 -0.668 -0.432 203 182 150 0 0
3.0356 6.7751 -3.7844 -0.749 -0.628 -0.211 204 181 150 0 0
3.2680 6.4720 -3.8508 -0.784 -0.603 0.149 192 173 143 0 0
3.2737 6.4588 -3.8521 -0.859 -0.488 -0.153 195 176 146 0 0
3.3675 6.3993 -3.8817 -0.348 -0.847 -0.401 192 172 141 0 0
3.7108 6.3067 -3.9954 -0.229 -0.933 -0.277 185 165 138 0 0
5.2065 6.8124 -4.5309 0.339 -0.888 -0.310 216 216 212 0 0
5.2822 6.8510 -4.5585 0.339 -0.888 -0.310 217 216 213 0 0
5.1817 6.7150 -4.5181 -0.730 -0.398 -0.556 219 219 217 0 0
5.1719 6.6688 -4.5127 -0.384 -0.860 0.336 220 220 218 0 0
5.1597 6.6019 -4.5055 -0.513 -0.139 0.847 222 223 218 0 0
0.8552 10.2005 -3.2039 -0.404 -0.865 -0.297 229 226 222 0 0
0.8675 10.1925 -3.2078 -0.441 -0.816 -0.374 229 225 223 0 0
1.1144 10.1790 -3.2921 -0.827 -0.221 0.517 226 222 219 0 0
1.1228 10.1244 -3.2926 -0.644 -0.765 0.030 225 221 218 0 0
1.2316 10.1149 -3.3295 -0.817 -0.547 0.183 224 220 217 0 0
1.2445 9.9638 -3.3271 -0.981 -0.183 -0.059 224 220 217 0 0
1.2403 9.8838 -3.3221 -0.784 -0.311 -0.538 223 218 215 0 0
1.2527 9.8757 -3.3260 -0.952 -0.220 0.215 223 218 215 0 0
1.2575 9.8164 -3.3249 -0.809 -0.358 0.466 224 219 215 0 0
1.5035 9.9552 -3.4159 -0.612 -0.730 -0.305 221 217 212 0 0
1.5261 9.9672 -3.4242 -0.976 -0.214 -0.039 222 216 212 0 0
1.5313 9.9434 -3.4249 -0.976 -0.214 -0.039 223 215 213 0 0
1.8837 9.1074 -3.5083 -0.840 -0.458 -0.292 159 116 99 0 0
1.9016 9.0793 -3.5131 -0.865 -0.382 -0.326 163 117 101 0 0
3.0735 8.7981 -3.9037 -0.953 0.283 0.110 225 222 216 0 0
3.0616 8.7551 -3.8977 -0.964 0.252 0.083 225 222 215 0 0
2.9975 6.7987 -3.7868 -0.638 -0.720 -0.275 199 178 147 0 0
3.0097 6.7918 -3.7907 -0.465 -0.847 -0.256 203 182 150 0 0
3.0229 6.7859 -3.7949 -0.465 -0.847 -0.256 200 179 148 0 0
3.0359 6.7798 -3.7991 -0.749 -0.628 -0.211 199 176 145 0 0
3.0544 6.7209 -3.8029 -0.524 -0.726 -0.445 196 173 142 0 0
3.0811 6.6707 -3.8098 -0.191 -0.967 -0.167 201 178 147 0 0
3.1162 6.6677 -3.8217 -0.471 -0.838 -0.277 200 177 145 0 0
3.1307 6.6632 -3.8265 -0.504 -0.825 -0.255 195 172 141 0 0
3.1555 6.6304 -3.8335 -0.645 -0.720 -0.256 196 173 142 0 0
3.2265 6.5296 -3.8534 -0.445 -0.784 -0.434 197 176 149 0 0
3.2647 6.4730 -3.8640 -0.784 -0.603 0.149 191 170 143 0 0
5.3525 6.8895 -4.6014 0.415 -0.884 -0.217 218 218 216 0 0
5.5003 6.9828 -4.6565 0.398 -0.862 -0.314 218 218 217 0 0
0.8787 10.4640 -3.2405 -0.999 0.038 -0.021 232 228 225 0 0
1.2537 9.8863 -3.3431 -0.942 -0.210 -0.263 224 220 217 0 0
1.3272 9.8354 -3.3661 -0.469 -0.868 -0.162 223 218 214 0 0
1.5057 9.9679 -3.4339 -0.858 -0.376 -0.351 222 217 213 0 0
1.5141 9.9507 -3.4360 -0.858 -0.376 -0.351 223 217 213 0 0
1.5295 9.9478 -3.4411 -0.999 -0.021 0.038 224 216 213 0 0
1.5640 9.8131 -3.4468 -0.739 -0.604 0.298 221 216 213 0 0
1.5799 9.8114 -3.4522 -0.502 -0.752 0.426 220 215 212 0 0
1.6461 9.7754 -3.4734 -0.610 -0.678 0.410 221 213 210 0 0
1.6590 9.7676 -3.4775 -0.278 -0.959 0.044 221 213 210 0 0
1.6745 9.7646 -3.4827 -0.879 -0.160 -0.449 219 211 208 0 0
1.8848 9.1162 -3.5250 -0.840 -0.458 -0.292 161 118 101 0 0
1.8948 9.1041 -3.5279 -0.892 -0.383 -0.240 172 127 111 0 0
1.9158 9.0814 -3.5341 -0.700 -0.610 -0.371 172 124 110 0 0
1.9846 8.9940 -3.5538 -0.627 -0.719 -0.301 163 120 107 0 0
2.0636 8.9817 -3.5805 -0.499 -0.819 -0.283 146 104 93 0 0
2.4391 9.2439 -3.7224 0.411 -0.726 -0.552 207 200 194 0 0
2.4459 9.0806 -3.7171 -0.791 -0.564 0.238 217 211 205 0 0
2.6043 8.7897 -3.7582 -0.250 -0.962 -0.106 225 220 214 0 0
2.8641 8.7567 -3.8464 -0.973 -0.214 -0.088 227 224 219 0 0
2.8652 8.7315 -3.8456 -0.657 -0.603 0.452 227 223 219 0 0
2.8741 8.7172 -3.8480 -0.425 -0.257 0.868 227 223 220 0 0
2.8698 8.1484 -3.8200 -0.996 0.082 -0.035 207 181 150 0 0
2.8508 7.8368 -3.7989 -0.843 -0.296 -0.449 212 189 158 0 0
2.8188 7.3916 -3.7672 -0.869 -0.450 -0.206 209 185 153 0 0
2.8552 7.2402 -3.7727 -0.761 -0.459 -0.459 206 182 149 0 0
2.8606 7.2252 -3.7738 -0.616 -0.615 -0.493 208 185 153 0 0
2.9282 6.9893 -3.7862 -0.551 -0.829 -0.096 209 186 154 0 0
2.9392 6.9810 -3.7896 -0.637 -0.769 -0.049 208 185 153 0 0
2.9559 6.9383 -3.7934 -0.895 -0.373 -0.245 203 177 144 0 0
2.9626 6.9254 -3.7951 -0.913 -0.341 -0.225 201 176 145 0 0
2.9857 6.8302 -3.7986 -0.680 -0.597 -0.426 203 181 150 0 0
2.9918 6.8169 -3.8001 -0.565 -0.649 -0.509 206 184 153 0 0
2.9997 6.8054 -3.8023 -0.640 -0.639 -0.427 205 184 153 0 0
3.0376 6.7860 -3.8145 -0.851 -0.442 -0.284 201 178 146 0 0
3.0345 6.7436 -3.8114 -0.616 -0.720 -0.320 199 175 141 0 0
3.0470 6.7370 -3.8154 -0.528 -0.802 -0.280 197 173 139 0 0
3.0592 6.7301 -3.8193 -0.623 -0.738 -0.259 201 178 146 0 0
3.0648 6.7164 -3.8206 -0.755 -0.571 -0.321 199 176 145 0 0
3.0742 6.7066 -3.8234 -0.707 -0.600 -0.375 198 175 143 0 0
3.0951 6.6700 -3.8289 -0.329 -0.930 -0.163 200 177 146 0 0
3.2128 6.5582 -3.8643 -0.713 -0.517 -0.474 199 177 148 0 0
3.5814 6.3642 -3.9825 -0.549 -0.689 -0.474 192 172 145 0 0
5.1059 6.7238 -4.5257 0.199 -0.917 0.346 216 216 214 0 0
5.1453 6.6571 -4.5362 0.167 -0.907 0.387 220 220 218 0 0
0.8754 10.5053 -3.2579 -0.982 -0.180 0.063 233 227 227 0 0
0.8795 10.4756 -3.2579 -0.999 0.038 -0.021 233 228 227 0 0
0.9823 10.3382 -3.2869 -0.400 -0.704 0.587 230 226 224 0 0
1.0011 10.3451 -3.2938 -0.888 -0.166 0.428 230 226 223 0 0
1.0615 10.2986 -3.3125 -0.363 -0.788 0.496 229 225 222 0 0
1.2780 10.0544 -3.3758 -0.651 -0.330 -0.684 225 221 218 0 0
1.4032 10.2568 -3.4288 0.096 -0.572 -0.814 225 221 217 0 0
1.5319 9.9611 -3.4593 -0.882 -0.376 -0.286 224 216 213 0 0
1.5586 9.9124 -3.4662 -0.950 -0.152 -0.272 220 216 213 0 0
1.5603 9.8137 -3.4621 -0.923 -0.017 -0.385 221 216 213 0 0
1.9846 9.0008 -3.5701 -0.627 -0.719 -0.301 165 125 113 0 0
2.0111 8.9874 -3.5787 -0.370 -0.869 -0.328 164 120 108 0 0
2.0665 8.9932 -3.5981 -0.485 -0.730 -0.482 151 111 98 0 0
2.0801 8.9871 -3.6026 -0.485 -0.730 -0.482 159 119 106 0 0
2.4063 9.2276 -3.7270 0.391 -0.726 -0.566 207 201 195 0 0
2.4430 9.2570 -3.7411 0.427 -0.738 -0.522 209 202 196 0 0
2.4499 9.0935 -3.7357 -0.021 -0.978 0.208 218 213 207 0 0
2.4937 8.6333 -3.7289 -0.282 -0.572 -0.770 225 220 216 0 0
2.8572 8.7532 -3.8605 -0.873 -0.186 0.452 227 224 219 0 0
2.8678 8.7145 -3.8623 -0.801 -0.269 0.535 228 224 221 0 0
2.8268 8.6045 -3.8429 -0.447 -0.894 -0.039 227 224 218 0 0
2.8381 8.5939 -3.8463 -0.609 -0.582 -0.538 228 224 217 0 0
2.8499 8.5839 -3.8499 -0.498 -0.674 -0.546 228 223 217 0 0
2.8640 8.5772 -3.8544 -0.498 -0.674 -0.546 227 224 217 0 0
3.0794 8.7916 -3.9393 -0.746 0.050 0.664 226 223 216 0 0
3.0292 8.6969 -3.9174 -0.774 -0.055 -0.631 227 222 216 0 0
2.8591 7.2495 -3.7892 -0.723 -0.465 -0.510 207 183 149 0 0
2.8651 7.2351 -3.7906 -0.603 -0.519 -0.606 208 185 152 0 0
2.9698 6.9175 -3.8117 -0.895 -0.291 -0.339 201 178 146 0 0
3.0395 6.7923 -3.8299 -0.851 -0.442 -0.284 201 178 146 0 0
3.0635 6.7389 -3.8356 -0.385 -0.916 -0.117 200 177 145 0 0
3.0688 6.7249 -3.8368 -0.712 -0.566 -0.417 197 174 142 0 0
3.1408 6.6627 -3.8588 -0.558 -0.805 -0.201 196 172 144 0 0
3.2687 6.4851 -3.8946 -0.370 -0.896 -0.244 193 172 142 0 0
3.2833 6.4804 -3.8994 -0.370 -0.896 -0.244 190 170 141 0 0
3.4209 6.4427 -3.9452 -0.660 -0.549 -0.513 186 167 137 0 0
3.4511 6.4152 -3.9544 -0.563 -0.745 -0.357 191 171 142 0 0
3.5944 6.3799 -4.0023 -0.432 -0.706 -0.562 190 170 143 0 0
5.0166 6.6399 -4.5074 -0.119 -0.941 0.315 218 218 217 0 0
5.1554 6.6690 -4.5568 0.084 -0.923 0.375 220 220 218 0 0
5.1608 6.6153 -4.5561 -0.360 -0.873 0.329 221 221 219 0 0
0.8844 10.4977 -3.2773 -0.994 -0.077 -0.077 232 228 227 0 0
0.8800 10.4467 -3.2732 -0.991 0.132 -0.006 232 228 227 0 0
0.8720 10.3871 -3.2675 -0.991 0.132 -0.006 231 227 226 0 0
0.9341 10.3848 -3.2890 -0.973 0.083 -0.216 232 228 225 0 0
1.0028 10.3586 -3.3116 -0.468 -0.824 0.318 230 226 223 0 0
1.0117 10.3414 -3.3138 -0.802 -0.582 0.132 231 227 224 0 0
1.0219 10.3276 -3.3167 -0.636 -0.722 0.273 231 227 224 0 0
1.0914 10.3024 -3.3396 -0.605 -0.522 -0.601 229 225 223 0 0
1.0305 10.0106 -3.3041 -0.250 -0.923 0.292 228 224 221 0 0
1.2937 10.1703 -3.4034 -0.313 -0.845 -0.434 225 221 218 0 0
1.3126 10.1756 -3.4102 0.006 -0.975 -0.222 226 222 219 0 0
1.3319 9.8619 -3.4016 -0.594 -0.660 -0.459 224 219 216 0 0
1.5668 9.9373 -3.4869 -0.913 -0.027 -0.406 222 217 214 0 0
1.5649 9.8990 -3.4843 -0.936 -0.116 -0.333 221 217 214 0 0
1.5841 9.9039 -3.4913 -0.754 -0.089 -0.651 221 216 212 0 0
1.6067 9.7132 -3.4897 -0.744 -0.575 -0.342 222 214 211 0 0
1.6165 9.6995 -3.4925 -0.686 -0.698 -0.207 221 213 210 0 0
1.7061 9.5790 -3.5177 -0.838 -0.408 -0.363 217 209 207 0 0
1.7620 9.3980 -3.5283 -0.865 -0.473 0.167 183 148 135 0 0
1.8996 9.1263 -3.5627 -0.895 -0.437 -0.086 184 142 127 0 0
1.9127 9.1194 -3.5669 -0.806 -0.499 -0.320 183 140 126 0 0
2.5533 8.6465 -3.7663 -0.799 -0.226 0.557 227 224 219 0 0
2.8238 8.6328 -3.8596 0.005 -0.905 -0.426 228 225 219 0 0
2.8434 8.6073 -3.8652 -0.645 -0.764 -0.019 229 224 218 0 0
2.8449 8.5831 -3.8645 -0.898 -0.281 -0.338 229 224 218 0 0
2.8831 8.1770 -3.8579 -0.940 0.056 -0.336 210 183 153 0 0
2.8416 7.9541 -3.8325 -0.991 -0.034 0.130 210 185 154 0 0
2.8393 7.8801 -3.8281 -0.987 -0.133 -0.086 210 187 153 0 0
2.9058 7.0971 -3.8128 -0.875 -0.264 -0.405 205 182 150 0 0
3.0108 6.8260 -3.8360 -0.556 -0.657 -0.509 201 179 147 0 0
3.0251 6.8212 -3.8407 -0.649 -0.547 -0.528 201 180 149 0 0
3.3924 6.4574 -3.9505 -0.488 -0.751 -0.445 191 172 142 0 0
5.1108 6.6972 -4.5593 -0.066 -0.994 -0.090 219 219 216 0 0
5.1457 6.7045 -4.5718 0.095 -0.995 0.016 219 220 216 0 0
5.3888 6.6355 -4.6529 0.511 -0.856 0.079 225 224 222 0 0
0.7972 10.1314 -3.2451 0.057 -0.866 -0.497 232 228 225 0 0
0.8365 10.1524 -3.2598 -0.845 -0.370 0.386 232 228 225 0 0
0.8213 10.0769 -3.2507 -0.490 -0.609 0.623 232 228 225 0 0
0.8259 10.0505 -3.2510 -0.393 -0.916 0.081 231 227 224 0 0
0.8552 10.0470 -3.2610 -0.250 -0.940 0.233 231 227 224 0 0
1.0019 10.3271 -3.3263 -0.299 -0.884 0.359 231 227 224 0 0
1.0153 10.3209 -3.3306 -0.299 -0.884 0.359 231 227 224 0 0
1.0256 10.3075 -3.3335 -0.444 -0.852 0.278 230 226 223 0 0
1.0476 10.3219 -3.3419 -0.837 -0.536 0.112 230 226 223 0 0
1.0524 10.2950 -3.3422 -0.786 -0.618 -0.009 230 226 223 0 0
1.0902 10.3466 -3.3580 -0.618 -0.687 -0.382 230 226 223 0 0
1.5985 9.7715 -3.5063 -0.376 -0.884 -0.278 221 215 211 0 0
1.6150 9.7375 -3.5103 -0.684 -0.730 0.011 222 214 211 0 0
1.5796 9.5690 -3.4895 -0.343 -0.939 -0.005 222 215 212 0 0
1.7338 9.4790 -3.5387 -0.929 -0.342 -0.140 197 178 173 0 0
1.7379 9.4549 -3.5389 -0.892 -0.416 -0.177 179 157 150 0 0
1.7586 9.3990 -3.5433 -0.865 -0.473 0.167 191 158 149 0 0
2.2649 9.1300 -3.7063 0.403 -0.843 -0.357 189 180 174 0 0
2.7945 8.6245 -3.8655 0.025 -0.948 -0.318 230 227 221 0 0
2.8383 8.6063 -3.8798 -0.588 -0.683 -0.433 230 225 219 0 0
2.8508 8.5972 -3.8837 -0.608 -0.629 -0.485 230 225 219 0 0
2.8801 8.5850 -3.8933 -0.619 -0.784 -0.035 227 223 219 0 0
2.8969 8.5818 -3.8990 -0.564 -0.824 0.048 227 224 220 0 0
3.0689 8.7629 -3.9681 -0.622 -0.136 -0.771 227 222 216 0 0
3.0626 8.7277 -3.9641 -0.851 0.116 -0.512 227 222 216 0 0
3.0388 8.6428 -3.9515 -0.927 0.249 -0.282 227 222 217 0 0
2.8273 7.3946 -3.8151 -0.773 -0.471 -0.425 211 187 153 0 0
2.8388 7.3864 -3.8187 -0.704 -0.536 -0.466 209 185 151 0 0
2.8493 7.3770 -3.8219 -0.669 -0.541 -0.510 207 183 149 0 0
3.0152 6.8350 -3.8524 -0.556 -0.657 -0.509 197 174 143 0 0
3.0303 6.8312 -3.8575 -0.657 -0.599 -0.458 196 173 144 0 0
3.0391 6.8205 -3.8601 -0.514 -0.702 -0.493 200 177 146 0 0
3.1113 6.6801 -3.8782 -0.814 -0.536 -0.224 197 174 142 0 0
3.1193 6.6689 -3.8804 -0.814 -0.536 -0.224 197 174 142 0 0
3.5721 6.4047 -4.0249 -0.515 -0.683 -0.518 188 168 139 0 0
4.9877 6.7419 -4.5352 0.366 -0.821 -0.438 207 204 195 0 0
5.0282 6.6958 -4.5470 0.027 -0.762 0.647 216 217 213 0 0
5.1439 6.7074 -4.5879 0.170 -0.983 -0.068 218 219 214 0 0
5.3882 6.6973 -4.6726 -0.024 -0.882 0.471 222 222 220 0 0
1.0513 10.3015 -3.3587 -0.378 -0.873 -0.308 231 227 224 0 0
1.2921 9.8279 -3.4186 -0.496 -0.861 0.111 225 221 217 0 0
1.5015 9.8199 -3.4913 -0.044 -0.849 0.527 222 218 215 0 0
1.5232 9.5963 -3.4874 -0.546 -0.835 0.065 221 216 213 0 0
1.5503 9.5844 -3.4963 -0.705 -0.689 0.170 222 215 212 0 0
1.5610 9.5728 -3.4994 -0.705 -0.689 0.170 223 215 212 0 0
1.6617 9.5737 -3.5347 -0.699 -0.540 0.469 221 216 212 0 0
1.6697 9.5569 -3.5366 -0.578 -0.796 0.181 221 215 212 0 0
1.7323 9.4835 -3.5547 -0.948 -0.316 -0.036 215 209 204 0 0
1.7383 9.4632 -3.5558 -0.891 -0.437 -0.120 210 200 196 0 0
1.7424 9.4393 -3.5560 -0.933 -0.341 0.110 202 189 184 0 0
1.8965 9.3162 -3.6035 -0.748 -0.602 -0.280 172 135 122 0 0
2.2642 9.1355 -3.7228 0.329 -0.871 -0.366 203 197 192 0 0
2.2887 9.1463 -3.7319 0.330 -0.859 -0.391 208 202 198 0 0
2.4787 8.7105 -3.7759 -0.350 -0.883 -0.312 226 222 216 0 0
2.6763 8.8112 -3.8502 -0.948 -0.263 -0.181 228 225 218 0 0
2.7916 8.6796 -3.8837 0.178 -0.431 0.885 230 226 222 0 0
2.8149 8.6326 -3.8894 -0.070 -0.987 -0.145 230 227 222 0 0
2.8503 8.6289 -3.9016 -0.731 -0.681 0.034 230 226 221 0 0
2.8542 8.6080 -3.9019 -0.608 -0.629 -0.485 230 225 219 0 0
2.8802 8.5911 -3.9101 -0.347 -0.933 -0.097 228 224 219 0 0
3.0798 8.8106 -3.9912 -0.914 -0.202 -0.352 227 224 219 0 0
2.8427 7.3960 -3.8355 -0.704 -0.536 -0.466 210 186 154 0 0
2.8525 7.3857 -3.8384 -0.704 -0.536 -0.466 212 189 156 0 0
2.8731 7.2802 -3.8402 -0.779 -0.416 -0.469 207 184 150 0 0
3.0358 6.8414 -3.8745 -0.483 -0.652 -0.585 201 178 148 0 0
3.0481 6.8147 -3.8774 -0.827 -0.452 -0.335 204 181 149 0 0
3.1145 6.6876 -3.8941 -0.922 -0.386 -0.022 196 174 143 0 0
3.1246 6.6786 -3.8971 -0.813 -0.515 -0.272 193 170 139 0 0
3.3395 6.5843 -3.9674 -0.615 -0.780 0.114 194 174 144 0 0
3.4469 6.4606 -3.9986 -0.773 -0.482 -0.412 187 168 138 0 0
3.4688 6.4438 -4.0054 -0.732 -0.601 -0.321 189 169 140 0 0
3.4785 6.4342 -4.0083 -0.812 -0.547 -0.203 190 169 140 0 0
4.9898 6.6510 -4.5478 -0.286 -0.617 0.733 218 218 216 0 0
1.1044 10.3605 -3.3970 -0.398 -0.856 -0.330 231 227 224 0 0
1.1101 10.1479 -3.3878 -0.987 0.020 -0.162 230 226 224 0 0
1.2163 10.0962 -3.4224 0.274 -0.676 0.684 229 225 222 0 0
1.2429 10.0832 -3.4310 0.319 -0.592 0.740 228 224 220 0 0
1.5390 9.6026 -3.5095 -0.603 -0.756 -0.256 223 218 215 0 0
1.5465 9.5846 -3.5112 -0.705 -0.689 0.170 223 217 213 0 0
1.6247 9.7060 -3.5450 -0.814 -0.524 0.251 224 216 213 0 0
1.5907 9.5735 -3.5261 -0.544 -0.822 0.169 221 216 213 0 0
1.6028 9.5647 -3.5299 -0.544 -0.822 0.169 222 217 213 0 0
1.6091 9.5445 -3.5310 -0.661 -0.750 -0.012 221 216 212 0 0
1.6181 9.5296 -3.5334 -0.862 -0.496 0.102 221 215 211 0 0
1.6320 9.5243 -3.5380 -0.668 -0.622 0.408 223 215 212 0 0
1.6675 9.5602 -3.5523 -0.680 -0.699 0.220 223 215 212 0 0
1.6825 9.5567 -3.5574 -0.833 -0.525 0.174 222 214 211 0 0
1.7073 9.5719 -3.5669 -0.560 -0.826 -0.059 219 214 211 0 0
1.7187 9.5614 -3.5704 -0.591 -0.805 -0.040 218 213 210 0 0
1.7522 9.4020 -3.5737 -0.871 -0.480 0.104 212 204 201 0 0
1.8633 9.3562 -3.6103 -0.816 -0.575 -0.050 170 147 138 0 0
1.8730 9.3428 -3.6130 -0.816 -0.575 -0.050 146 124 113 0 0
2.3841 9.2488 -3.7873 0.028 -0.662 -0.749 216 211 206 0 0
2.4397 9.0469 -3.7961 0.220 -0.901 0.372 222 218 212 0 0
2.4520 8.7313 -3.7838 -0.271 -0.878 -0.395 227 222 218 0 0
2.4775 8.7422 -3.7933 -0.317 -0.624 -0.714 228 223 217 0 0
2.8394 8.6463 -3.9152 0.150 -0.978 -0.148 230 227 222 0 0
2.8258 8.6011 -3.9080 -0.649 -0.734 -0.197 230 227 222 0 0
2.8701 8.5833 -3.9226 -0.882 -0.027 0.471 229 225 220 0 0
3.0613 8.8184 -4.0021 -0.867 -0.497 -0.034 229 226 221 0 0
2.9006 8.5466 -3.9314 -0.683 -0.501 0.531 229 225 220 0 0
3.0613 8.6588 -3.9936 -0.885 0.221 -0.411 226 221 215 0 0
2.8774 7.2899 -3.8570 -0.726 -0.509 -0.462 205 182 148 0 0
2.8777 7.2690 -3.8561 -0.955 -0.261 -0.138 206 183 149 0 0
3.0660 6.8180 -3.8983 -0.650 -0.608 -0.455 204 181 150 0 0
3.1255 6.6838 -3.9121 -0.635 -0.707 -0.311 196 173 142 0 0
3.1682 6.6689 -3.9263 -0.512 -0.818 -0.261 196 173 141 0 0
3.1808 6.6622 -3.9304 -0.561 -0.820 -0.113 195 172 140 0 0
3.1952 6.6573 -3.9352 -0.750 -0.660 -0.038 195 172 140 0 0
3.2333 6.5994 -3.9455 -0.790 -0.562 -0.245 194 171 139 0 0
3.2473 6.5941 -3.9501 -0.618 -0.755 -0.220 189 168 137 0 0
3.3159 6.5848 -3.9737 -0.417 -0.885 -0.206 193 172 141 0 0
3.4460 6.4825 -4.0139 -0.646 -0.670 -0.364 193 174 144 0 0
3.4708 6.4497 -4.0209 -0.732 -0.601 -0.321 188 168 140 0 0
5.9799 7.2717 -4.9441 0.586 -0.785 0.203 220 221 218 0 0
1.2701 9.9724 -3.4511 -0.275 -0.487 -0.829 227 224 220 0 0
1.5233 9.6450 -3.5225 -0.830 -0.492 -0.263 223 218 215 0 0
1.5381 9.6085 -3.5258 -0.586 -0.727 -0.358 223 218 215 0 0
1.5496 9.5985 -3.5293 -0.686 -0.722 -0.091 223 218 214 0 0
1.5550 9.5764 -3.5300 -0.775 -0.632 0.001 225 217 214 0 0
1.5942 9.6208 -3.5461 -0.240 -0.971 -0.011 223 216 213 0 0
1.6147 9.5306 -3.5485 -0.743 -0.629 0.229 221 215 211 0 0
1.6741 9.5482 -3.5703 -0.680 -0.699 0.220 224 216 213 0 0
1.9958 9.0832 -3.6585 -0.520 -0.753 -0.403 181 143 133 0 0
2.3751 9.2411 -3.8004 -0.028 -0.647 -0.762 217 214 207 0 0
2.4666 8.7322 -3.8052 -0.957 -0.147 -0.251 228 223 218 0 0
2.4906 8.7408 -3.8141 -0.648 -0.664 -0.373 228 223 217 0 0
2.6089 8.6986 -3.8534 0.030 -0.774 0.632 230 226 221 0 0
2.8554 8.6481 -3.9374 -0.353 -0.651 -0.672 230 227 222 0 0
2.8886 8.6411 -3.9487 -0.699 -0.556 -0.449 230 225 221 0 0
2.8644 8.5816 -3.9370 -0.758 -0.249 0.603 229 226 221 0 0
2.8872 8.5867 -3.9453 -0.765 -0.381 0.519 228 225 220 0 0
3.0960 8.7913 -4.0298 -0.821 -0.463 -0.335 228 225 220 0 0
2.8746 7.2916 -3.8711 -0.823 -0.415 -0.387 211 187 153 0 0
3.0802 6.8174 -3.9178 -0.650 -0.608 -0.455 200 177 146 0 0
3.2473 6.5984 -3.9648 -0.618 -0.755 -0.220 192 169 138 0 0
3.3054 6.5978 -3.9852 -0.350 -0.934 0.068 191 169 138 0 0
3.3263 6.5991 -3.9926 -0.383 -0.863 0.331 188 166 135 0 0
3.3349 6.5884 -3.9951 -0.522 -0.825 0.215 194 171 140 0 0
3.3315 6.5661 -3.9927 -0.702 -0.602 -0.381 190 168 137 0 0
3.4483 6.4888 -4.0296 -0.646 -0.670 -0.364 192 171 142 0 0
3.4777 6.4417 -4.0374 -0.567 -0.742 -0.358 189 170 140 0 0
4.0910 6.4073 -4.2513 -0.287 -0.889 -0.358 182 166 140 0 0
4.1468 6.4170 -4.2714 -0.048 -0.978 -0.202 181 163 139 0 0
4.4512 6.4992 -4.3830 0.054 -0.965 -0.257 182 165 139 0 0
4.7431 6.6195 -4.4921 0.294 -0.854 -0.429 173 158 140 0 0
4.8177 6.6594 -4.5205 0.294 -0.854 -0.429 181 171 159 0 0
4.8966 6.7025 -4.5506 0.313 -0.848 -0.427 208 204 198 0 0
4.9826 6.7508 -4.5835 0.313 -0.848 -0.427 212 212 208 0 0
4.9049 6.6320 -4.5497 0.293 -0.854 0.431 215 215 213 0 0
4.9007 6.5905 -4.5460 -0.034 -0.902 0.431 217 217 215 0 0
5.4231 6.9143 -4.7472 0.535 -0.844 -0.026 219 219 217 0 0
6.0722 7.3462 -4.9988 0.540 -0.840 -0.049 220 220 218 0 0
1.0688 10.0699 -3.4018 -0.802 -0.444 -0.399 232 227 224 0 0
1.0783 10.0551 -3.4044 -0.802 -0.444 -0.399 231 227 224 0 0
1.1003 10.0690 -3.4129 -0.811 -0.569 -0.137 231 228 223 0 0
1.2485 10.0405 -3.4636 -0.139 -0.355 -0.924 229 225 221 0 0
1.3183 9.9089 -3.4810 -0.351 -0.896 0.272 227 223 222 0 0
1.4031 9.8803 -3.5093 -0.872 -0.008 0.490 226 222 218 0 0
1.5907 9.6217 -3.5613 -0.558 -0.805 -0.202 223 217 213 0 0
1.5911 9.4925 -3.5543 -0.688 -0.420 -0.592 221 217 214 0 0
2.3964 9.2823 -3.8269 -0.094 -0.854 -0.512 220 217 212 0 0
2.2791 9.0351 -3.7719 -0.693 -0.561 0.453 222 218 214 0 0
2.3781 9.0206 -3.8060 -0.056 -0.713 0.699 225 222 217 0 0
2.4229 9.0338 -3.8225 0.247 -0.929 0.277 226 223 217 0 0
2.4156 8.8816 -3.8116 -0.627 -0.250 -0.738 227 224 219 0 0
2.5031 8.7114 -3.8331 -0.100 -0.937 -0.335 228 225 221 0 0
2.5678 8.6986 -3.8552 -0.784 -0.302 0.543 230 225 222 0 0
2.5816 8.6651 -3.8582 -0.656 -0.270 0.705 231 226 222 0 0
2.8866 8.6709 -3.9662 -0.901 -0.189 -0.391 231 227 222 0 0
2.8946 8.6555 -3.9682 -0.721 -0.416 -0.554 231 226 222 0 0
3.0547 8.6884 -4.0265 -0.232 -0.968 0.092 229 224 218 0 0
2.9626 8.4099 -3.9786 -0.977 0.214 0.018 223 220 215 0 0
2.9544 8.3737 -3.9737 -0.973 0.228 -0.036 218 212 203 0 0
2.8644 7.8679 -3.9141 -0.942 -0.098 -0.320 208 184 150 0 0
2.8780 7.3004 -3.8876 -0.823 -0.415 -0.387 207 183 150 0 0
2.9724 7.0495 -3.9071 -0.871 -0.449 -0.199 203 179 145 0 0
3.1868 6.6961 -3.9633 -0.805 -0.466 -0.367 198 175 143 0 0
3.1940 6.6840 -3.9652 -0.820 -0.394 -0.416 196 173 141 0 0
3.2754 6.5920 -3.9888 -0.446 -0.860 -0.249 189 168 137 0 0
3.2888 6.5860 -3.9932 -0.577 -0.797 -0.178 188 166 134 0 0
3.3144 6.5918 -4.0026 -0.523 -0.785 0.332 187 164 132 0 0
3.3248 6.5829 -4.0058 -0.585 -0.768 0.259 191 168 137 0 0
3.5370 6.4817 -4.0751 -0.609 -0.602 -0.517 187 168 138 0 0
3.8648 6.4033 -4.1864 -0.397 -0.780 -0.484 183 163 133 0 0
4.1566 6.4292 -4.2908 -0.221 -0.833 -0.507 184 166 142 0 0
4.6854 6.5969 -4.4866 0.294 -0.854 -0.429 174 159 137 0 0
4.7591 6.6364 -4.5148 0.294 -0.854 -0.429 166 155 138 0 0
4.8340 6.6766 -4.5435 0.294 -0.854 -0.429 193 190 177 0 0
4.9101 6.7174 -4.5726 0.294 -0.854 -0.429 210 208 204 0 0
4.9875 6.7589 -4.6022 0.294 -0.854 -0.429 212 212 210 0 0
4.8746 6.5744 -4.5522 -0.170 -0.643 0.747 217 217 215 0 0
5.3542 6.8660 -4.7375 0.526 -0.850 0.032 219 219 217 0 0
5.4799 6.9420 -4.7860 0.526 -0.850 0.032 220 220 218 0 0
1.0869 10.0838 -3.4253 -0.501 -0.378 0.779 232 228 224 0 0
1.0953 10.0665 -3.4273 -0.827 -0.448 0.341 230 228 224 0 0
1.2513 10.0915 -3.4839 -0.510 0.131 0.850 230 226 223 0 0
1.3655 9.8786 -3.5124 -0.679 -0.194 0.708 227 223 220 0 0
1.3840 9.8829 -3.5192 -0.682 -0.039 0.731 227 223 220 0 0
1.5950 9.8043 -3.5894 -0.693 -0.135 -0.708 224 219 216 0 0
1.6020 9.7178 -3.5870 -0.663 -0.089 -0.743 223 218 214 0 0
1.5793 9.5095 -3.5673 -0.554 -0.763 0.334 221 217 214 0 0
1.5910 9.5000 -3.5709 -0.474 -0.772 0.424 222 218 215 0 0
1.7265 9.3764 -3.6119 -0.889 -0.341 0.305 221 215 211 0 0
2.0946 9.1168 -3.7275 -0.235 -0.962 -0.142 164 147 141 0 0
2.4163 9.0588 -3.8382 -0.539 -0.373 -0.755 226 223 218 0 0
2.4152 9.0285 -3.8361 0.148 -0.778 0.610 227 224 219 0 0
2.4672 8.9393 -3.8494 -0.151 -0.520 -0.841 228 224 220 0 0
2.4787 8.9010 -3.8514 -0.894 0.312 -0.323 229 226 221 0 0
2.4589 8.7606 -3.8364 -0.364 -0.894 -0.260 231 226 222 0 0
2.5044 8.7467 -3.8517 -0.472 -0.869 -0.144 229 226 221 0 0
2.5568 8.6888 -3.8671 -0.994 -0.032 -0.100 229 225 222 0 0
2.5575 8.6630 -3.8658 -0.994 -0.032 -0.100 230 226 222 0 0
2.5717 8.6569 -3.8705 -0.656 -0.270 0.705 230 226 222 0 0
2.9144 8.6887 -3.9936 -0.778 -0.096 -0.621 231 226 223 0 0
2.8270 8.5162 -3.9529 -0.739 -0.645 -0.194 230 226 221 0 0
2.8615 8.5374 -3.9664 -0.660 -0.289 0.694 231 227 222 0 0
2.8458 8.4900 -3.9581 -0.609 -0.256 0.751 229 224 220 0 0
2.9856 8.6275 -4.0153 -0.177 -0.983 0.047 229 224 219 0 0
3.0486 8.6863 -4.0410 -0.207 -0.977 -0.045 229 224 218 0 0
3.0658 8.6829 -4.0469 -0.207 -0.977 -0.045 229 224 218 0 0
2.9553 8.3807 -3.9907 -0.982 0.186 -0.024 223 220 214 0 0
2.9488 8.3468 -3.9865 -0.982 0.186 -0.024 217 209 198 0 0
2.8651 7.9213 -3.9329 -0.962 -0.039 -0.271 213 190 158 0 0
2.8571 7.8876 -3.9282 -0.771 -0.267 -0.579 211 187 154 0 0
2.8911 7.3853 -3.9119 -0.878 -0.287 -0.384 213 189 156 0 0
2.9731 7.0549 -3.9224 -0.871 -0.449 -0.199 206 182 148 0 0
2.9771 7.0387 -3.9229 -0.904 -0.378 -0.198 204 180 147 0 0
2.9831 7.0248 -3.9242 -0.663 -0.748 -0.033 203 178 147 0 0
2.9898 7.0116 -3.9258 -0.313 -0.948 0.059 203 178 147 0 0
3.0040 7.0066 -3.9306 -0.313 -0.948 0.059 203 178 147 0 0
3.0108 6.9936 -3.9323 -0.531 -0.764 -0.367 201 176 144 0 0
3.0562 6.8807 -3.9420 -0.937 -0.347 0.042 198 175 143 0 0
3.0617 6.8666 -3.9431 -0.776 -0.561 -0.288 199 176 145 0 0
3.0704 6.8558 -3.9456 -0.776 -0.561 -0.288 203 180 149 0 0
3.0791 6.8450 -3.9481 -0.776 -0.561 -0.288 204 183 152 0 0
3.0867 6.8331 -3.9501 -0.819 -0.465 -0.336 202 181 150 0 0
3.2950 6.5962 -4.0105 -0.555 -0.631 -0.543 189 166 135 0 0
3.3048 6.5867 -4.0134 -0.666 -0.681 -0.304 191 168 136 0 0
3.3402 6.5829 -4.0257 -0.675 -0.571 -0.467 188 165 134 0 0
3.5678 6.4768 -4.1003 -0.585 -0.752 -0.304 188 169 139 0 0
3.7242 6.4320 -4.1532 -0.411 -0.769 -0.489 185 165 138 0 0
3.8129 6.4175 -4.1837 -0.363 -0.824 -0.436 185 165 138 0 0
3.8827 6.4228 -4.2087 -0.684 -0.535 -0.496 184 165 135 0 0
3.8989 6.4183 -4.2142 -0.576 -0.617 -0.537 179 160 130 0 0
4.1679 6.4426 -4.3108 -0.345 -0.713 -0.610 183 165 140 0 0
4.1860 6.4392 -4.3170 -0.345 -0.713 -0.610 179 161 136 0 0
4.2068 6.4379 -4.3243 -0.317 -0.740 -0.594 179 163 137 0 0
4.7048 6.6166 -4.5106 0.278 -0.846 -0.455 171 157 137 0 0
4.7785 6.6560 -4.5389 0.278 -0.846 -0.455 173 166 150 0 0
4.8533 6.6961 -4.5677 0.278 -0.846 -0.455 203 203 193 0 0
4.9293 6.7368 -4.5969 0.278 -0.846 -0.455 211 211 207 0 0
5.0046 6.7766 -4.6257 0.294 -0.854 -0.429 214 213 211 0 0
4.9721 6.6350 -4.6063 0.390 -0.919 -0.050 218 218 216 0 0
5.1114 6.7037 -4.6595 0.334 -0.885 0.324 218 218 216 0 0
4.9341 6.5108 -4.5859 -0.323 -0.138 0.936 220 220 218 0 0
4.6814 6.2639 -4.4825 -0.009 -0.557 0.830 221 221 219 0 0
4.7198 6.2567 -4.4957 -0.079 -0.468 0.880 222 222 220 0 0
1.0331 9.8958 -3.4118 -0.960 -0.280 -0.025 230 227 224 0 0
1.0504 9.8636 -3.4160 -0.573 -0.762 0.302 231 228 224 0 0
1.6264 9.7740 -3.6154 -0.681 -0.137 -0.719 224 219 215 0 0
2.0703 9.1122 -3.7349 -0.574 -0.767 0.287 196 186 182 0 0
2.0833 9.1048 -3.7391 -0.499 -0.545 0.673 201 193 189 0 0
2.4294 9.0860 -3.8609 -0.539 -0.373 -0.755 228 225 220 0 0
2.4145 8.9489 -3.8477 -0.503 -0.600 -0.623 229 224 222 0 0
2.4911 9.0108 -3.8785 0.187 -0.690 -0.699 229 225 222 0 0
2.4917 8.9271 -3.8739 -0.885 0.198 -0.421 230 225 222 0 0
2.4741 8.7623 -3.8581 -0.596 -0.655 -0.464 231 226 221 0 0
2.4878 8.7555 -3.8626 -0.639 -0.703 0.313 230 227 221 0 0
2.5240 8.7550 -3.8754 -0.729 -0.527 0.437 229 227 221 0 0
2.5606 8.7006 -3.8853 -0.328 -0.482 0.812 230 226 222 0 0
2.5709 8.6887 -3.8883 -0.328 -0.482 0.812 230 227 223 0 0
2.5635 8.6511 -3.8835 -0.761 -0.249 0.599 230 226 222 0 0
2.9416 8.6002 -4.0148 -0.798 -0.563 0.217 230 226 221 0 0
2.9477 8.5822 -4.0159 -0.885 -0.447 -0.132 230 225 221 0 0
2.9507 8.5603 -4.0158 -0.610 -0.792 -0.009 229 225 219 0 0
2.9751 8.5671 -4.0248 -0.585 -0.810 -0.047 229 225 219 0 0
2.9574 8.3893 -4.0083 -0.975 0.217 -0.042 226 222 217 0 0
2.8744 7.8912 -3.9502 -0.883 -0.191 -0.429 208 183 150 0 0
2.8641 7.6699 -3.9338 -0.949 -0.246 -0.196 207 183 149 0 0
2.8675 7.5386 -3.9274 -0.953 -0.287 -0.094 204 181 148 0 0
2.8914 7.4124 -3.9286 -0.832 -0.376 -0.409 207 183 150 0 0
2.9537 7.1002 -3.9328 -0.938 -0.326 -0.120 205 180 147 0 0
2.9903 7.0168 -3.9410 -0.616 -0.600 -0.510 201 176 145 0 0
3.0045 7.0118 -3.9458 -0.511 -0.729 -0.456 202 178 146 0 0
3.0647 6.8742 -3.9592 -0.750 -0.579 -0.319 199 175 143 0 0
3.0739 6.8639 -3.9619 -0.689 -0.632 -0.354 198 175 144 0 0
3.0807 6.8511 -3.9635 -0.714 -0.591 -0.375 202 179 148 0 0
3.0892 6.8401 -3.9659 -0.819 -0.465 -0.336 200 178 147 0 0
3.6826 6.4545 -4.1544 -0.247 -0.848 -0.470 189 171 142 0 0
3.6984 6.4501 -4.1598 -0.357 -0.877 -0.322 184 165 136 0 0
3.7092 6.4412 -4.1631 -0.546 -0.787 -0.287 183 162 134 0 0
3.7343 6.4450 -4.1723 -0.389 -0.857 -0.337 186 165 136 0 0
3.7469 6.4376 -4.1763 -0.787 -0.610 -0.091 185 166 136 0 0
3.8029 6.4314 -4.1958 -0.546 -0.716 -0.434 183 163 136 0 0
3.8195 6.4274 -4.2015 -0.288 -0.827 -0.483 187 167 140 0 0
4.3481 6.4838 -4.3924 -0.708 -0.575 -0.409 179 163 137 0 0
4.6568 6.6015 -4.5088 0.255 -0.820 -0.513 174 158 138 0 0
4.7345 6.6445 -4.5389 0.255 -0.820 -0.513 168 157 140 0 0
4.7997 6.6771 -4.5639 0.265 -0.843 -0.469 193 189 175 0 0
4.8733 6.7163 -4.5923 0.270 -0.843 -0.464 208 209 201 0 0
4.9485 6.7563 -4.6212 0.278 -0.846 -0.455 212 212 208 0 0
4.9786 6.7605 -4.6322 0.257 -0.879 -0.402 214 214 211 0 0
5.0327 6.7835 -4.6527 0.265 -0.881 -0.391 215 216 211 0 0
5.0290 6.6639 -4.6445 0.377 -0.923 0.074 217 218 215 0 0
5.0293 6.6065 -4.6413 -0.317 -0.650 0.690 220 220 218 0 0
1.2171 10.0686 -3.5035 -0.548 0.176 0.818 230 227 222 0 0
1.5469 9.4938 -3.5872 -0.464 -0.580 0.670 224 219 215 0 0
1.7239 9.3862 -3.6439 -0.889 -0.459 -0.007 222 216 213 0 0
1.8249 9.3539 -3.6780 -0.505 -0.827 -0.249 219 215 212 0 0
1.8363 9.3436 -3.6814 -0.793 -0.412 0.449 219 215 212 0 0
1.8779 9.3260 -3.6952 -0.762 -0.603 0.238 223 215 213 0 0
2.3999 9.0177 -3.8630 0.323 -0.941 0.101 228 225 220 0 0
2.4123 9.0086 -3.8669 0.160 -0.799 0.580 229 226 221 0 0
2.4196 8.9917 -3.8685 -0.129 -0.615 0.778 228 225 220 0 0
2.4179 8.9608 -3.8660 0.152 -0.896 -0.417 227 225 222 0 0
2.4952 9.0521 -3.8990 -0.004 -0.603 -0.798 229 225 223 0 0
2.5176 8.7518 -3.8893 -0.661 -0.614 0.432 230 227 220 0 0
2.5184 8.6987 -3.8864 -0.233 -0.857 0.459 230 226 223 0 0
2.5324 8.6924 -3.8910 -0.233 -0.857 0.459 231 228 223 0 0
2.8367 8.4896 -3.9875 -0.810 -0.492 0.319 229 228 220 0 0
2.8492 8.4806 -3.9914 -0.636 -0.515 0.575 230 227 221 0 0
2.9665 8.5614 -4.0379 -0.270 -0.962 -0.038 229 226 221 0 0
2.8760 8.3887 -3.9956 -0.388 -0.480 0.787 229 224 219 0 0
2.9801 8.4762 -4.0378 -0.980 0.197 -0.008 229 224 217 0 0
2.9613 8.4002 -4.0266 -0.981 0.191 -0.029 229 224 218 0 0
2.8771 7.9473 -3.9700 -0.885 -0.197 -0.422 212 187 156 0 0
2.8843 7.9089 -3.9703 -0.872 -0.181 -0.455 206 182 149 0 0
2.8705 7.6828 -3.9522 -0.968 -0.186 0.166 204 180 146 0 0
2.8855 7.5206 -3.9479 -0.816 -0.377 -0.438 211 186 154 0 0
2.9810 7.0523 -3.9545 -0.856 -0.434 -0.279 206 183 151 0 0
2.9997 7.0316 -3.9599 -0.672 -0.701 -0.237 200 176 142 0 0
3.0035 7.0152 -3.9603 -0.532 -0.847 -0.010 200 176 142 0 0
3.0153 7.0077 -3.9641 -0.601 -0.767 -0.224 199 175 141 0 0
3.0191 6.9914 -3.9644 -0.839 -0.544 -0.027 200 176 142 0 0
3.0765 6.8711 -3.9778 -0.819 -0.465 -0.336 198 173 142 0 0
3.0917 6.8472 -3.9818 -0.819 -0.465 -0.336 205 181 149 0 0
3.3061 6.6155 -4.0446 -0.621 -0.577 -0.531 189 166 134 0 0
3.3156 6.6057 -4.0474 -0.792 -0.452 -0.410 197 174 143 0 0
3.3531 6.6038 -4.0606 -0.668 -0.569 -0.480 195 172 142 0 0
3.5349 6.5109 -4.1199 -0.582 -0.659 -0.477 188 169 139 0 0
3.6735 6.4691 -4.1668 -0.268 -0.864 -0.426 186 169 143 0 0
3.7110 6.4469 -4.1789 -0.660 -0.668 -0.344 188 168 140 0 0
3.7359 6.4504 -4.1879 -0.544 -0.735 -0.404 188 167 138 0 0
3.7473 6.4421 -4.1915 -0.809 -0.552 -0.200 184 164 134 0 0
3.7605 6.4352 -4.1958 -0.462 -0.823 -0.332 187 168 138 0 0
3.8455 6.4357 -4.2261 -0.167 -0.867 -0.470 184 165 136 0 0
4.4566 6.5389 -4.4498 -0.173 -0.790 -0.589 177 161 136 0 0
4.6261 6.6001 -4.5138 0.216 -0.844 -0.491 171 156 134 0 0
4.8398 6.7133 -4.5965 0.255 -0.820 -0.513 205 203 195 0 0
4.8923 6.7355 -4.6165 0.265 -0.843 -0.469 211 211 206 0 0
4.9678 6.7758 -4.6458 0.278 -0.846 -0.455 212 212 210 0 0
4.9526 6.7443 -4.6385 0.250 -0.910 -0.332 213 213 211 0 0
4.9856 6.7507 -4.6506 0.354 -0.916 -0.187 215 215 213 0 0
5.0054 6.6499 -4.6518 0.404 -0.868 0.290 218 219 214 0 0
5.0722 6.6820 -4.6774 0.103 -0.907 0.409 219 219 216 0 0
5.0201 6.6037 -4.6543 -0.507 -0.362 0.782 220 220 218 0 0
1.4299 9.5953 -3.5676 -0.569 -0.600 0.563 227 223 222 0 0
1.6142 9.6660 -3.6377 -0.990 -0.141 0.007 224 220 217 0 0
1.8240 9.3594 -3.6942 -0.505 -0.827 -0.249 221 217 214 0 0
1.9317 9.2761 -3.7277 -0.468 -0.603 0.646 220 215 213 0 0
1.9446 9.2684 -3.7318 -0.457 -0.633 0.624 220 215 212 0 0
2.0124 9.2355 -3.7541 -0.891 -0.319 0.321 219 215 210 0 0
2.1602 9.0710 -3.7970 -0.620 -0.682 -0.389 227 223 219 0 0
2.1355 9.0014 -3.7840 -0.295 -0.906 -0.304 227 224 219 0 0
2.3561 8.9557 -3.8601 -0.072 -0.982 -0.174 230 226 223 0 0
2.4007 8.9688 -3.8768 0.239 -0.923 0.302 229 226 222 0 0
2.4186 8.9683 -3.8832 0.343 -0.841 0.418 227 226 221 0 0
2.4838 9.0411 -3.9108 0.179 -0.684 -0.707 228 227 223 0 0
2.5165 9.0630 -3.9238 0.179 -0.684 -0.707 228 225 222 0 0
2.5136 9.0301 -3.9208 -0.059 -0.632 -0.772 230 226 223 0 0
2.4866 8.3944 -3.8730 -0.725 -0.376 -0.577 233 230 225 0 0
2.8206 8.4994 -3.9987 -0.772 -0.062 0.633 230 228 225 0 0
2.8072 8.4296 -3.9897 -0.518 -0.417 0.747 230 227 221 0 0
2.8553 8.3668 -4.0031 -0.408 -0.440 0.800 230 225 219 0 0
2.9635 8.4090 -4.0443 -0.981 0.191 -0.029 228 223 217 0 0
2.8906 7.9222 -3.9890 -0.970 -0.153 -0.188 206 182 151 0 0
2.8978 7.4738 -3.9647 -0.964 -0.213 -0.156 202 178 142 0 0
2.9423 7.3078 -3.9707 -0.708 -0.537 -0.458 205 182 149 0 0
2.9378 7.2814 -3.9675 -0.696 -0.634 -0.337 204 181 149 0 0
3.0253 7.0230 -3.9832 -0.678 -0.630 -0.378 203 179 145 0 0
3.0299 7.0076 -3.9839 -0.887 -0.432 -0.164 207 183 149 0 0
3.1055 6.8462 -4.0013 -0.574 -0.764 -0.296 203 180 148 0 0
3.1851 6.7506 -4.0240 -0.772 -0.462 -0.436 195 172 140 0 0
3.2775 6.6493 -4.0509 -0.768 -0.579 -0.275 191 170 139 0 0
3.4845 6.5434 -4.1185 -0.446 -0.794 -0.414 188 166 137 0 0
3.5010 6.5400 -4.1242 -0.686 -0.662 -0.304 189 168 140 0 0
3.5190 6.5379 -4.1305 -0.475 -0.875 -0.089 187 167 140 0 0
3.5319 6.5311 -4.1347 -0.557 -0.818 -0.143 185 165 138 0 0
3.7174 6.4567 -4.1965 -0.620 -0.746 -0.243 184 164 137 0 0
3.7487 6.4659 -4.2083 -0.717 -0.687 -0.119 187 167 139 0 0
3.7627 6.4598 -4.2129 -0.789 -0.460 -0.407 187 168 139 0 0
3.9007 6.4506 -4.2616 -0.425 -0.843 -0.329 184 164 137 0 0
4.3258 6.5112 -4.4171 -0.142 -0.946 -0.290 178 164 137 0 0
4.6429 6.6178 -4.5368 0.216 -0.844 -0.491 164 149 128 0 0
4.8661 6.7385 -4.6238 0.255 -0.820 -0.513 209 209 203 0 0
4.8986 6.7449 -4.6358 0.241 -0.838 -0.489 211 212 206 0 0
4.9872 6.7955 -4.6704 0.278 -0.846 -0.455 212 213 210 0 0
4.9577 6.7526 -4.6573 0.250 -0.910 -0.332 214 214 212 0 0
4.9829 6.7529 -4.6663 0.354 -0.916 -0.187 216 216 214 0 0
5.1136 6.6793 -4.7086 0.113 -0.729 0.676 221 221 219 0 0
1.3666 9.8100 -3.5742 -0.959 0.183 0.215 230 226 223 0 0
1.6346 9.6808 -3.6623 -0.909 0.171 0.381 225 222 217 0 0
1.8541 9.2064 -3.7119 -0.444 -0.835 -0.324 222 217 216 0 0
2.0359 9.0164 -3.7654 -0.320 -0.580 0.749 225 221 218 0 0
2.1348 9.0071 -3.8003 -0.295 -0.906 -0.304 229 226 221 0 0
2.1523 9.0069 -3.8065 -0.385 -0.841 -0.381 228 224 221 0 0
2.1224 8.8442 -3.7859 -0.817 -0.548 0.180 228 227 223 0 0
2.3511 8.9544 -3.8746 -0.327 -0.939 0.104 228 226 223 0 0
2.3779 8.9681 -3.8850 -0.090 -0.991 -0.095 228 226 223 0 0
2.4045 8.9813 -3.8953 -0.004 -0.986 -0.165 229 227 223 0 0
2.4106 8.9625 -3.8964 0.231 -0.972 0.047 228 227 221 0 0
2.4841 9.0481 -3.9280 -0.406 -0.544 -0.734 228 227 222 0 0
2.4961 8.4139 -3.8935 -0.928 -0.159 -0.337 233 229 225 0 0
2.7824 8.3762 -3.9937 -0.255 -0.886 0.386 230 227 222 0 0
2.8505 8.3662 -4.0175 -0.232 -0.515 0.825 230 225 219 0 0
2.8616 8.3304 -4.0193 -0.228 -0.790 0.569 229 224 218 0 0
2.8896 8.3423 -4.0301 -0.745 -0.188 0.640 229 224 218 0 0
2.9544 8.3019 -4.0508 -0.929 0.238 -0.283 223 220 210 0 0
2.8906 7.5368 -3.9811 -0.704 -0.461 -0.540 208 185 153 0 0
2.9128 7.3868 -3.9799 -0.924 -0.331 -0.190 209 182 152 0 0
2.9556 7.2638 -3.9878 -0.901 -0.276 -0.336 205 182 148 0 0
3.0054 7.0471 -3.9923 -0.578 -0.679 -0.452 198 174 140 0 0
3.0276 7.0301 -3.9992 -0.600 -0.625 -0.499 201 177 143 0 0
3.4049 6.6049 -4.1084 -0.630 -0.649 -0.427 188 165 135 0 0
3.4139 6.5945 -4.1110 -0.406 -0.793 -0.455 189 166 135 0 0
3.7479 6.4693 -4.2230 -0.717 -0.687 -0.119 189 169 142 0 0
3.7565 6.4584 -4.2254 -0.831 -0.507 -0.229 185 165 138 0 0
4.7195 6.6643 -4.5831 0.216 -0.844 -0.491 185 179 168 0 0
4.7800 6.6934 -4.6065 0.216 -0.844 -0.491 206 205 199 0 0
4.9189 6.7652 -4.6607 0.241 -0.838 -0.489 212 212 209 0 0
5.0070 6.8155 -4.6953 0.265 -0.843 -0.469 213 214 212 0 0
4.8352 6.5268 -4.6161 -0.364 -0.206 0.908 219 220 215 0 0
4.8393 6.4736 -4.6143 -0.190 -0.285 0.940 221 221 219 0 0
4.8505 6.4635 -4.6178 -0.291 -0.160 0.943 221 221 219 0 0
1.6658 9.3622 -3.6701 -0.867 -0.482 -0.129 223 219 216 0 0
1.8715 9.2444 -3.7366 -0.305 -0.808 0.504 222 218 217 0 0
1.9118 9.2856 -3.7537 -0.250 -0.628 -0.737 223 219 216 0 0
2.0204 9.0848 -3.7802 -0.262 -0.905 0.336 223 219 216 0 0
2.0420 9.0335 -3.7848 -0.574 -0.616 0.540 224 223 221 0 0
2.0486 9.0155 -3.7860 -0.626 -0.386 0.678 226 225 222 0 0
2.1023 8.8465 -3.7948 -0.703 -0.701 -0.121 228 227 223 0 0
2.3320 8.9877 -3.8862 -0.740 -0.326 0.589 228 227 223 0 0
2.3312 8.9581 -3.8840 -0.217 -0.952 -0.218 228 227 223 0 0
2.3468 8.9543 -3.8894 -0.327 -0.939 0.104 227 226 222 0 0
2.3737 8.9681 -3.8999 -0.379 -0.752 0.540 228 227 223 0 0
2.8787 8.3590 -4.0434 -0.265 -0.680 0.684 231 226 220 0 0
2.9210 8.3644 -4.0589 -0.912 -0.019 0.410 230 225 219 0 0
2.9213 8.3395 -4.0575 -0.865 0.011 0.502 229 224 218 0 0
2.8965 7.9882 -4.0267 -0.867 -0.441 -0.233 208 183 152 0 0
2.8973 7.9653 -4.0255 -0.958 -0.202 -0.205 208 184 153 0 0
2.9612 7.2535 -4.0041 -0.905 -0.331 -0.266 207 182 150 0 0
2.9803 7.1904 -4.0070 -0.742 -0.491 -0.456 207 182 151 0 0
3.1103 6.9000 -4.0356 -0.710 -0.507 -0.489 199 174 144 0 0
3.2496 6.7268 -4.0749 -0.782 -0.435 -0.446 194 171 140 0 0
3.3948 6.6185 -4.1203 -0.618 -0.690 -0.376 191 169 141 0 0
3.4083 6.6124 -4.1247 -0.630 -0.649 -0.427 189 167 137 0 0
3.7779 6.4628 -4.2482 -0.442 -0.684 -0.580 183 166 138 0 0
4.7627 6.7032 -4.6172 0.197 -0.802 -0.564 201 199 192 0 0
4.8322 6.7394 -4.6444 0.197 -0.802 -0.564 209 209 207 0 0
4.8992 6.7539 -4.6694 0.191 -0.871 -0.452 212 212 210 0 0
4.9514 6.7757 -4.6895 0.191 -0.871 -0.452 213 213 211 0 0
4.8079 6.4911 -4.6202 0.126 -0.445 0.887 220 220 217 0 0
4.8169 6.4792 -4.6227 -0.021 -0.371 0.929 220 220 218 0 0
4.8286 6.4695 -4.6263 -0.021 -0.371 0.929 221 221 219 0 0
1.9405 9.2824 -3.7801 -0.096 -0.940 -0.327 224 220 217 0 0
2.1520 9.0487 -3.8415 -0.879 -0.464 -0.112 230 226 223 0 0
2.1092 8.8642 -3.8143 -0.912 -0.275 -0.304 228 227 223 0 0
2.1507 8.8467 -3.8282 -0.959 -0.221 0.175 228 227 223 0 0
2.1557 8.8266 -3.8287 -0.798 -0.553 -0.241 228 227 223 0 0
2.3247 8.9828 -3.8996 -0.653 -0.511 0.559 229 228 223 0 0
2.3264 8.9570 -3.8985 -0.750 -0.268 0.604 228 227 223 0 0
2.3284 8.9320 -3.8977 -0.654 -0.235 0.719 228 227 223 0 0
2.9694 8.3834 -4.0938 -0.994 0.113 -0.001 229 224 220 0 0
2.8754 7.7326 -4.0186 -0.969 -0.086 -0.232 210 186 152 0 0
2.9850 7.2005 -4.0242 -0.743 -0.439 -0.505 205 180 149 0 0
3.1294 6.9045 -4.0574 -0.630 -0.589 -0.506 200 177 146 0 0
3.2705 6.7131 -4.0961 -0.673 -0.577 -0.462 193 172 141 0 0
3.2800 6.7032 -4.0989 -0.766 -0.464 -0.445 192 169 138 0 0
3.3991 6.6269 -4.1370 -0.611 -0.675 -0.414 188 167 138 0 0
3.4116 6.6198 -4.1411 -0.630 -0.649 -0.427 189 168 139 0 0
3.8937 6.4941 -4.3069 -0.223 -0.750 -0.623 185 168 143 0 0
3.9935 6.5058 -4.3436 -0.418 -0.893 -0.165 178 162 136 0 0
4.4406 6.5802 -4.5095 0.001 -0.817 -0.577 174 159 133 0 0
4.4824 6.5955 -4.5255 0.040 -0.829 -0.557 174 160 134 0 0
4.7836 6.7242 -4.6423 0.175 -0.802 -0.571 208 207 204 0 0
4.8602 6.7661 -4.6726 0.197 -0.802 -0.564 210 210 209 0 0
4.8905 6.7708 -4.6838 0.218 -0.857 -0.467 212 212 211 0 0
4.9283 6.7813 -4.6981 0.203 -0.872 -0.446 213 213 211 0 0
4.7846 6.6478 -4.6378 0.147 -0.736 0.660 214 214 212 0 0
4.8311 6.4382 -4.6412 -0.145 -0.231 0.962 222 222 220 0 0
1.5092 9.5226 -3.6561 -0.102 -0.978 -0.181 227 224 221 0 0
1.9662 9.0651 -3.7917 -0.269 -0.908 0.320 222 221 219 0 0
1.9822 9.0045 -3.7935 -0.077 -0.948 -0.309 226 225 223 0 0
2.1350 8.8561 -3.8391 -0.588 -0.694 -0.415 230 229 225 0 0
2.1584 8.8094 -3.8445 -0.874 -0.482 -0.067 229 228 224 0 0
2.1834 8.8213 -3.8544 -0.888 -0.460 0.020 228 227 223 0 0
2.1725 8.7762 -3.8475 -0.928 -0.360 -0.094 229 228 224 0 0
