ply
format ascii 1.0
element vertex 825
property float x
property float y
property float z
property float nx
property float ny
property float nz
property uchar diffuse_red
property uchar diffuse_green
property uchar diffuse_blue
property uchar class
property uchar detection
end_header
3.1279 6.0856 -3.0464 -0.200 -0.655 0.729 221 201 171 0 0
3.3503 6.1276 -2.9723 -0.367 -0.681 0.633 221 200 171 0 0
3.9596 6.2126 -2.7623 -0.278 -0.640 0.716 223 203 172 0 0
3.9846 6.2107 -2.7524 -0.090 -0.655 0.750 222 201 170 0 0
3.9962 6.2148 -2.7490 -0.176 -0.633 0.754 227 203 173 0 0
4.0220 6.2079 -2.7376 0.119 -0.815 0.567 224 205 175 0 0
4.0333 6.2132 -2.7345 0.335 -0.847 0.413 224 203 174 0 0
4.0448 6.2180 -2.7313 0.248 -0.863 0.440 224 203 174 0 0
4.0584 6.2105 -2.7244 0.210 -0.756 0.620 225 203 175 0 0
4.0704 6.2123 -2.7203 -0.527 -0.684 0.505 226 205 176 0 0
4.0839 6.2053 -2.7135 -0.544 -0.779 0.313 226 205 176 0 0
4.0960 6.2060 -2.7091 -0.214 -0.816 0.537 226 205 176 0 0
4.1076 6.2101 -2.7057 -0.376 -0.607 0.700 226 206 179 0 0
4.4601 6.2281 -2.5767 -0.483 -0.643 0.595 224 204 177 0 0
4.5569 6.2362 -2.5420 -0.171 -0.981 0.093 222 201 172 0 0
4.8608 6.2419 -2.4285 0.079 -0.664 0.743 222 200 168 0 0
5.0047 6.2728 -2.3815 0.167 -0.662 0.730 229 209 181 0 0
5.0907 6.2502 -2.3435 0.612 -0.629 0.481 222 201 172 0 0
5.2832 6.2913 -2.2806 0.155 -0.644 0.749 206 183 143 0 0
5.3429 6.3575 -2.2738 0.673 -0.656 0.341 197 173 140 0 0
5.3908 6.4698 -2.2826 0.848 -0.529 0.012 196 171 140 0 0
5.4031 6.4874 -2.2822 0.903 -0.395 0.168 194 170 137 0 0
5.4653 6.7081 -2.3115 0.951 -0.283 -0.127 195 171 138 0 0
6.3811 8.3093 -2.3484 0.202 -0.775 0.599 225 222 217 0 0
6.5375 8.1100 -2.2415 -0.783 -0.192 -0.592 223 219 212 0 0
6.5421 8.0195 -2.2181 -0.783 -0.192 -0.592 196 188 176 0 0
6.8821 7.0966 -1.8686 -0.475 -0.879 0.043 182 165 137 0 0
6.8942 7.0909 -1.8627 -0.455 -0.890 0.024 181 164 136 0 0
6.9637 7.0434 -1.8251 -0.332 -0.927 0.175 182 165 137 0 0
7.0073 6.9994 -1.7980 -0.243 -0.970 -0.005 178 164 138 0 0
7.0186 6.9912 -1.7918 -0.208 -0.936 0.284 180 166 140 0 0
7.0775 6.9648 -1.7632 -0.370 -0.923 -0.108 190 176 150 0 0
7.2432 6.9060 -1.6865 -0.192 -0.981 -0.001 173 159 133 0 0
7.4350 6.8658 -1.6043 0.298 -0.944 0.140 172 157 128 0 0
7.4622 6.8753 -1.5963 0.210 -0.967 0.143 177 161 135 0 0
7.4982 6.8690 -1.5812 -0.130 -0.990 -0.063 171 156 127 0 0
7.5092 6.8628 -1.5756 -0.010 -0.991 -0.132 174 159 130 0 0
7.5214 6.8620 -1.5707 -0.010 -0.991 -0.132 171 154 125 0 0
7.5834 6.8607 -1.5470 0.199 -0.980 -0.024 177 160 130 0 0
7.6347 6.8671 -1.5291 0.040 -0.984 -0.175 175 159 126 0 0
7.6467 6.8652 -1.5241 -0.016 -0.991 -0.133 177 161 128 0 0
7.6583 6.8621 -1.5190 -0.066 -0.982 -0.175 174 157 124 0 0
7.6722 6.8679 -1.5151 0.199 -0.979 0.039 179 162 130 0 0
7.7835 6.9126 -1.4837 -0.285 -0.957 -0.050 176 157 125 0 0
7.8329 6.9108 -1.4646 0.318 -0.948 -0.006 178 159 127 0 0
7.8895 6.9353 -1.4491 0.112 -0.965 0.239 184 165 135 0 0
7.9878 6.9733 -1.4210 -0.016 -0.988 0.157 182 163 131 0 0
7.9992 6.9694 -1.4158 -0.094 -0.902 0.423 187 168 137 0 0
8.2542 7.1466 -1.3617 0.564 -0.825 0.034 202 186 159 0 0
8.3358 7.2433 -1.3540 0.704 -0.710 -0.034 205 188 163 0 0
8.6641 7.8051 -1.3643 0.911 -0.398 0.110 236 230 222 0 0
8.7091 7.8989 -1.3698 0.893 -0.426 0.146 241 241 237 0 0
3.0951 6.0854 -3.0726 -0.258 -0.693 0.674 221 200 171 0 0
3.1084 6.0822 -3.0668 -0.415 -0.820 0.395 223 202 171 0 0
3.4031 6.1304 -2.9670 -0.129 -0.681 0.720 226 206 177 0 0
3.4149 6.1324 -2.9630 -0.129 -0.681 0.720 226 206 176 0 0
3.7047 6.1559 -2.8590 -0.271 -0.705 0.655 220 197 166 0 0
3.7547 6.1518 -2.8391 0.245 -0.784 0.570 223 202 171 0 0
3.7774 6.1605 -2.8326 0.065 -0.629 0.775 223 202 171 0 0
4.0390 6.2055 -2.7445 0.158 -0.800 0.579 225 204 175 0 0
4.0503 6.2114 -2.7417 0.120 -0.868 0.482 225 204 176 0 0
4.0639 6.2036 -2.7346 0.210 -0.756 0.620 226 205 177 0 0
4.0989 6.2145 -2.7240 -0.470 -0.828 0.304 225 205 177 0 0
4.4895 6.2227 -2.5782 -0.109 -0.671 0.733 223 202 174 0 0
4.6341 6.2392 -2.5275 -0.422 -0.816 0.395 225 204 173 0 0
4.6464 6.2388 -2.5228 -0.315 -0.745 0.588 226 203 173 0 0
5.2040 6.2488 -2.3142 -0.175 -0.618 0.767 220 197 165 0 0
5.2759 6.2711 -2.2924 0.319 -0.668 0.673 209 185 147 0 0
5.2878 6.2791 -2.2898 0.412 -0.699 0.584 205 182 142 0 0
6.3712 8.3028 -2.3678 -0.390 -0.595 0.703 226 222 219 0 0
6.5465 8.1419 -2.2627 -0.838 -0.187 -0.513 221 219 213 0 0
6.5517 8.0572 -2.2403 -0.838 -0.187 -0.513 216 211 200 0 0
6.5569 7.9755 -2.2187 -0.842 -0.190 -0.506 178 166 150 0 0
6.7547 7.2594 -1.9712 -0.393 -0.907 -0.148 179 164 135 0 0
7.0061 7.0375 -1.8226 -0.345 -0.937 -0.049 185 169 144 0 0
7.0236 6.9918 -1.8050 -0.189 -0.976 -0.108 179 165 139 0 0
7.1299 6.9472 -1.7540 -0.146 -0.985 -0.095 182 169 144 0 0
7.2481 6.9064 -1.6995 -0.035 -0.979 -0.200 179 165 141 0 0
7.5286 6.8718 -1.5850 -0.088 -0.988 -0.126 169 153 125 0 0
7.5538 6.8730 -1.5757 -0.024 -0.996 -0.089 168 151 121 0 0
7.6764 6.8654 -1.5275 0.192 -0.980 0.041 180 165 132 0 0
7.7616 6.9057 -1.5050 0.102 -0.989 -0.109 175 154 123 0 0
7.7762 6.9137 -1.5014 -0.113 -0.992 0.062 175 154 123 0 0
7.8006 6.9116 -1.4917 -0.113 -0.992 0.062 177 158 128 0 0
7.8128 6.9107 -1.4869 -0.061 -0.974 -0.216 179 162 132 0 0
7.9062 6.9329 -1.4569 -0.186 -0.960 0.207 184 165 135 0 0
8.1229 7.0740 -1.4089 0.443 -0.889 0.120 195 176 149 0 0
8.1908 7.0893 -1.3869 0.587 -0.805 -0.081 198 181 153 0 0
8.2440 7.1384 -1.3786 0.536 -0.773 0.338 202 186 160 0 0
8.2577 7.1417 -1.3742 0.406 -0.796 0.448 206 190 164 0 0
8.2779 7.1654 -1.3723 0.603 -0.774 0.193 202 185 160 0 0
8.3111 7.1899 -1.3657 0.519 -0.833 0.192 207 189 165 0 0
8.5189 7.5121 -1.3647 0.882 -0.471 0.026 214 199 178 0 0
8.6292 7.7249 -1.3743 0.903 -0.418 0.100 223 212 203 0 0
8.6747 7.8208 -1.3802 0.897 -0.427 0.116 241 237 230 0 0
8.7190 7.9123 -1.3855 0.897 -0.427 0.116 241 241 237 0 0
8.7642 8.0056 -1.3909 0.897 -0.427 0.116 242 241 240 0 0
3.6593 6.1581 -2.8907 -0.494 -0.748 0.444 223 202 171 0 0
3.9405 6.1635 -2.7856 -0.041 -0.689 0.724 224 201 172 0 0
4.0342 6.1872 -2.7559 -0.397 -0.845 0.357 225 206 175 0 0
4.0471 6.1836 -2.7501 -0.397 -0.845 0.357 225 205 175 0 0
4.0550 6.2085 -2.7531 0.077 -0.994 0.077 227 206 177 0 0
4.2426 6.1851 -2.6765 -0.384 -0.742 0.550 223 204 173 0 0
4.2822 6.1647 -2.6565 -0.031 -0.999 0.019 222 202 175 0 0
4.3629 6.1970 -2.6338 0.015 -0.604 0.797 225 204 174 0 0
4.3737 6.2071 -2.6322 0.054 -0.653 0.756 227 205 176 0 0
4.4487 6.1931 -2.6004 -0.494 -0.713 0.497 226 206 177 0 0
4.6392 6.2316 -2.5377 -0.422 -0.816 0.395 225 204 173 0 0
4.7868 6.2128 -2.4773 0.029 -0.596 0.803 226 206 178 0 0
4.8114 6.2086 -2.4669 -0.426 -0.703 0.570 227 206 178 0 0
4.8237 6.2064 -2.4617 0.093 -0.642 0.761 228 208 178 0 0
4.8473 6.2136 -2.4545 0.293 -0.803 0.519 225 206 176 0 0
4.8590 6.2190 -2.4514 0.238 -0.628 0.741 224 204 174 0 0
5.2804 6.2631 -2.3027 0.305 -0.700 0.646 204 180 142 0 0
5.3042 6.2865 -2.2994 0.298 -0.768 0.567 205 181 145 0 0
5.3161 6.2975 -2.2975 0.436 -0.827 0.356 205 181 146 0 0
6.3298 9.0110 -2.5727 -0.116 -0.821 -0.560 227 225 221 0 0
6.3466 9.0208 -2.5687 -0.264 -0.893 -0.365 226 225 220 0 0
6.2773 8.0045 -2.3482 0.164 -0.877 -0.452 225 224 219 0 0
6.3804 8.3436 -2.3915 -0.790 -0.503 0.351 225 222 217 0 0
6.5063 7.8565 -2.2256 0.823 -0.305 0.479 221 219 215 0 0
6.5553 8.1718 -2.2836 -0.826 -0.185 -0.532 219 219 214 0 0
6.5649 7.9984 -2.2379 -0.837 -0.184 -0.515 187 178 164 0 0
6.9290 7.0858 -1.8785 -0.365 -0.926 0.095 186 169 141 0 0
6.9957 7.0237 -1.8382 0.256 -0.966 -0.031 185 169 143 0 0
7.0172 6.9999 -1.8243 -0.180 -0.952 -0.247 180 165 139 0 0
7.0286 6.9923 -1.8181 -0.189 -0.976 -0.108 183 171 145 0 0
7.0535 6.9891 -1.8079 -0.174 -0.945 -0.275 183 169 143 0 0
7.2403 6.9063 -1.7171 -0.061 -0.985 -0.160 179 167 143 0 0
7.2528 6.9060 -1.7123 0.141 -0.974 -0.177 181 167 143 0 0
7.2656 6.9070 -1.7077 0.141 -0.974 -0.177 180 166 140 0 0
7.5591 6.8749 -1.5889 0.102 -0.971 -0.215 166 149 120 0 0
7.7671 6.9080 -1.5182 0.156 -0.984 -0.088 178 157 126 0 0
7.7885 6.8948 -1.5069 -0.030 -0.997 0.073 179 160 128 0 0
8.0049 6.9985 -1.4502 0.070 -0.956 0.284 190 171 141 0 0
8.0107 6.9755 -1.4424 0.287 -0.940 -0.186 190 171 141 0 0
8.1355 7.0572 -1.4150 0.260 -0.941 0.217 199 180 150 0 0
8.1481 7.0573 -1.4102 0.185 -0.913 0.363 195 176 146 0 0
8.2135 7.1058 -1.3973 0.586 -0.806 0.088 197 180 154 0 0
8.2493 7.1392 -1.3919 0.579 -0.798 0.170 203 187 162 0 0
8.2626 7.1413 -1.3873 0.487 -0.873 0.028 209 193 168 0 0
8.2765 7.1450 -1.3830 0.296 -0.952 -0.077 203 187 162 0 0
8.2997 7.1784 -1.3823 0.468 -0.881 0.071 203 186 162 0 0
8.3162 7.1900 -1.3789 0.519 -0.833 0.192 205 188 163 0 0
8.6892 7.8480 -1.3974 0.899 -0.433 0.060 242 239 234 0 0
8.7330 7.9375 -1.4026 0.897 -0.433 0.092 241 241 237 0 0
8.7776 8.0292 -1.4080 0.897 -0.427 0.116 241 240 238 0 0
3.8137 6.1447 -2.8429 -0.492 -0.670 0.556 224 202 173 0 0
3.8598 6.1593 -2.8290 -0.044 -0.613 0.788 225 202 171 0 0
3.8756 6.1412 -2.8186 -0.137 -0.673 0.727 223 202 171 0 0
4.0401 6.1782 -2.7654 -0.398 -0.914 -0.077 226 206 176 0 0
4.0524 6.1775 -2.7605 -0.121 -0.945 0.305 223 204 174 0 0
4.0605 6.2018 -2.7634 0.238 -0.944 0.227 222 203 173 0 0
4.1119 6.1877 -2.7405 -0.456 -0.843 0.286 227 207 181 0 0
4.2880 6.1537 -2.6655 -0.285 -0.777 0.561 224 203 174 0 0
4.3077 6.1860 -2.6660 -0.539 -0.760 0.363 225 204 175 0 0
4.3340 6.1725 -2.6527 0.069 -0.602 0.795 226 207 177 0 0
4.4030 6.2026 -2.6339 -0.653 -0.660 0.372 225 201 173 0 0
4.6579 6.2100 -2.5393 0.024 -0.700 0.713 224 203 174 0 0
4.7931 6.1889 -2.4829 -0.007 -0.562 0.827 224 204 176 0 0
4.8169 6.1934 -2.4750 0.178 -0.592 0.786 224 204 176 0 0
4.8281 6.2045 -2.4735 0.351 -0.669 0.655 227 208 178 0 0
4.8405 6.2012 -2.4680 0.011 -0.839 0.545 226 207 175 0 0
5.0572 6.2130 -2.3888 -0.475 -0.588 0.655 222 201 172 0 0
5.1773 6.2226 -2.3457 -0.201 -0.714 0.671 225 203 172 0 0
5.3442 6.3414 -2.3116 0.870 -0.431 0.239 200 175 144 0 0
6.3193 9.0047 -2.5936 0.315 -0.904 -0.288 229 225 222 0 0
6.3371 9.0272 -2.5924 0.280 -0.810 -0.514 227 224 221 0 0
6.3669 9.0026 -2.5751 -0.355 -0.795 -0.491 225 223 218 0 0
6.3847 8.3291 -2.4037 -0.776 -0.519 0.357 224 221 216 0 0
6.5679 8.1049 -2.2795 -0.711 -0.223 -0.666 219 217 211 0 0
6.5730 8.0226 -2.2574 -0.711 -0.223 -0.666 200 193 183 0 0
6.5783 7.9433 -2.2361 -0.720 -0.216 -0.660 177 165 149 0 0
7.0144 7.0290 -1.8474 0.213 -0.924 -0.318 182 166 140 0 0
7.0279 7.0330 -1.8433 0.319 -0.900 -0.298 182 167 141 0 0
7.2711 6.9102 -1.7212 0.141 -0.974 -0.177 176 160 135 0 0
7.2968 6.9124 -1.7120 -0.073 -0.996 -0.059 177 161 135 0 0
7.3557 6.8941 -1.6852 -0.220 -0.971 -0.096 178 162 136 0 0
7.5024 6.8784 -1.6259 0.115 -0.991 -0.069 170 153 124 0 0
7.5414 6.8851 -1.6127 0.215 -0.976 -0.032 174 158 132 0 0
7.6940 6.8962 -1.5577 0.086 -0.991 -0.103 178 159 126 0 0
7.7359 6.9136 -1.5460 0.083 -0.975 0.206 175 158 129 0 0
7.7614 6.9155 -1.5368 0.358 -0.925 0.124 175 158 126 0 0
7.7724 6.9097 -1.5313 0.102 -0.989 -0.109 181 161 129 0 0
7.7821 6.8992 -1.5251 0.046 -0.995 -0.092 180 159 128 0 0
7.7950 6.9010 -1.5206 0.081 -0.996 -0.043 181 161 129 0 0
7.9171 6.9368 -1.4831 0.223 -0.974 -0.029 184 165 135 0 0
8.0096 6.9978 -1.4630 0.212 -0.970 0.119 190 174 146 0 0
8.0560 7.0277 -1.4528 0.121 -0.969 -0.214 191 174 147 0 0
8.0694 7.0303 -1.4483 0.196 -0.947 -0.256 194 177 151 0 0
8.1528 7.0563 -1.4231 0.471 -0.870 0.142 198 179 149 0 0
8.1681 7.0652 -1.4195 0.471 -0.870 0.142 197 177 150 0 0
8.2364 7.1226 -1.4077 0.520 -0.846 -0.120 204 188 163 0 0
8.2546 7.1403 -1.4051 0.579 -0.798 0.170 206 190 164 0 0
8.2691 7.1459 -1.4010 0.513 -0.853 -0.089 206 190 165 0 0
8.2846 7.1548 -1.3973 0.513 -0.853 -0.089 204 188 163 0 0
8.3050 7.1792 -1.3955 0.519 -0.833 0.192 205 189 164 0 0
8.3221 7.1927 -1.3924 0.417 -0.825 0.382 208 192 167 0 0
8.4257 7.3551 -1.3928 0.748 -0.662 0.050 212 196 171 0 0
8.5446 7.5584 -1.3976 0.882 -0.471 0.026 216 203 185 0 0
3.1932 6.0449 -3.0672 0.089 -0.629 0.772 223 202 170 0 0
3.2744 6.0609 -3.0404 -0.169 -0.724 0.669 219 197 165 0 0
3.3798 6.0791 -3.0049 0.124 -0.652 0.748 222 200 169 0 0
3.4009 6.0925 -3.0003 -0.109 -0.705 0.701 226 204 173 0 0
4.2922 6.1547 -2.6781 -0.448 -0.689 0.569 226 205 174 0 0
4.3049 6.1505 -2.6722 -0.169 -0.751 0.638 225 205 175 0 0
4.3136 6.1751 -2.6750 -0.569 -0.669 0.478 224 205 175 0 0
4.3267 6.1683 -2.6683 -0.535 -0.651 0.538 223 204 174 0 0
4.5204 6.1733 -2.5962 -0.335 -0.661 0.672 224 203 174 0 0
4.5451 6.1699 -2.5860 -0.177 -0.631 0.755 227 206 177 0 0
4.7982 6.1793 -2.4925 0.146 -0.676 0.722 222 202 174 0 0
4.8348 6.1736 -2.4772 0.155 -0.810 0.565 227 208 178 0 0
4.8457 6.1900 -2.4771 0.259 -0.853 0.454 224 206 174 0 0
4.8569 6.2018 -2.4758 0.582 -0.742 0.333 225 207 174 0 0
4.8695 6.1942 -2.4691 0.125 -0.568 0.813 222 203 173 0 0
4.8932 6.2009 -2.4618 -0.233 -0.771 0.593 223 202 173 0 0
5.0127 6.2234 -2.4221 -0.222 -0.625 0.748 227 208 180 0 0
5.2420 6.2170 -2.3337 -0.002 -0.837 0.547 213 189 154 0 0
6.2090 8.7175 -2.5831 0.920 -0.383 -0.086 228 227 223 0 0
6.3051 9.3684 -2.7070 0.189 -0.369 0.910 229 226 223 0 0
6.3242 9.4024 -2.7081 0.132 -0.425 0.896 229 226 221 0 0
6.3133 9.0546 -2.6267 0.113 -0.994 -0.006 229 226 221 0 0
6.3562 8.9937 -2.5954 0.052 -0.987 -0.153 226 223 218 0 0
6.3728 9.0027 -2.5913 -0.100 -0.986 -0.135 226 223 218 0 0
7.0207 7.0372 -1.8620 0.289 -0.891 -0.350 180 164 138 0 0
7.1465 6.9581 -1.7949 -0.088 -0.910 -0.404 179 163 137 0 0
7.3017 6.9126 -1.7250 -0.245 -0.958 -0.146 177 161 135 0 0
7.3146 6.9140 -1.7204 0.141 -0.990 -0.022 178 162 136 0 0
7.3391 6.9110 -1.7104 -0.098 -0.984 -0.149 175 161 135 0 0
7.5958 6.8835 -1.6064 -0.037 -0.981 0.191 170 154 121 0 0
7.6071 6.8788 -1.6009 0.110 -0.993 -0.050 161 145 112 0 0
7.6324 6.8799 -1.5917 -0.006 -0.997 0.077 172 155 124 0 0
7.7011 6.9050 -1.5718 0.277 -0.956 0.093 179 159 126 0 0
7.7284 6.9140 -1.5637 -0.072 -0.985 -0.154 179 160 130 0 0
7.7523 6.9097 -1.5536 0.056 -0.998 -0.023 175 158 127 0 0
7.7668 6.9175 -1.5500 0.287 -0.954 0.081 174 158 125 0 0
7.9224 6.9384 -1.4962 0.223 -0.974 -0.029 187 167 137 0 0
8.0758 7.0353 -1.4620 0.196 -0.947 -0.256 197 180 154 0 0
8.0877 7.0331 -1.4569 0.008 -0.937 -0.349 195 177 153 0 0
8.2259 7.1135 -1.4244 0.587 -0.783 0.206 199 183 158 0 0
8.2939 7.1685 -1.4122 0.519 -0.833 0.192 206 190 164 0 0
8.3101 7.1793 -1.4087 0.519 -0.833 0.192 200 184 158 0 0
8.6797 7.8279 -1.4285 0.900 -0.433 -0.046 241 238 234 0 0
2.9440 6.0690 -3.1814 0.629 -0.713 0.309 235 232 229 0 0
2.9558 6.1101 -3.1871 -0.067 -0.907 -0.416 229 226 217 0 0
2.9687 6.1084 -3.1818 -0.157 -0.853 -0.498 216 205 190 0 0
3.2693 6.0501 -3.0535 -0.216 -0.766 0.605 222 201 171 0 0
3.2818 6.0493 -3.0486 -0.201 -0.740 0.642 220 199 168 0 0
3.2932 6.0523 -3.0450 -0.169 -0.724 0.669 217 198 167 0 0
3.5763 6.0939 -2.9481 0.097 -0.609 0.787 221 199 167 0 0
3.9252 6.1183 -2.8219 0.012 -0.710 0.704 223 203 174 0 0
4.2374 6.1429 -2.7097 -0.305 -0.621 0.722 225 204 175 0 0
4.2496 6.1425 -2.7050 -0.280 -0.627 0.727 227 208 178 0 0
4.2984 6.1408 -2.6861 0.050 -0.821 0.569 227 205 176 0 0
4.3106 6.1408 -2.6815 -0.107 -0.827 0.552 227 207 177 0 0
4.3595 6.1380 -2.6623 -0.333 -0.758 0.560 223 203 174 0 0
4.4055 6.1566 -2.6495 0.312 -0.649 0.694 227 207 179 0 0
4.5637 6.1504 -2.5880 -0.463 -0.637 0.616 223 202 173 0 0
4.8033 6.1699 -2.5021 0.089 -0.832 0.548 225 205 177 0 0
4.8141 6.1847 -2.5016 0.193 -0.665 0.722 227 206 180 0 0
4.8748 6.1809 -2.4777 -0.061 -0.665 0.744 223 201 170 0 0
4.8864 6.1874 -2.4749 0.058 -0.714 0.698 221 199 167 0 0
4.8991 6.1779 -2.4677 -0.209 -0.951 0.229 222 201 168 0 0
4.9102 6.1922 -2.4671 -0.306 -0.866 0.394 223 202 172 0 0
4.9349 6.1826 -2.4553 -0.413 -0.809 0.418 224 203 173 0 0
5.2586 6.2104 -2.3396 -0.007 -0.886 0.463 209 185 149 0 0
6.2223 9.0431 -2.6768 0.717 -0.528 0.455 229 228 223 0 0
6.2654 8.7705 -2.5929 0.350 -0.822 -0.450 229 225 222 0 0
6.2827 8.7922 -2.5918 0.261 -0.882 -0.393 229 225 222 0 0
6.3926 8.9790 -2.5964 0.406 -0.843 -0.352 222 222 216 0 0
6.7993 7.2470 -2.0129 0.022 -0.992 0.124 174 159 130 0 0
7.0365 7.0262 -1.8684 -0.325 -0.902 -0.285 182 168 142 0 0
7.0738 7.0203 -1.8527 0.101 -0.958 -0.267 186 172 146 0 0
7.3197 6.9157 -1.7336 -0.039 -0.947 -0.319 179 165 139 0 0
7.4074 6.9137 -1.7000 0.001 -0.947 0.322 175 160 128 0 0
7.5281 6.8933 -1.6492 0.154 -0.980 -0.123 176 159 129 0 0
7.5410 6.8951 -1.6447 0.090 -0.983 -0.159 178 163 132 0 0
7.5536 6.8955 -1.6400 0.090 -0.983 -0.159 177 162 131 0 0
7.7480 6.9223 -1.5730 -0.003 -0.983 -0.186 179 162 130 0 0
7.8143 6.9366 -1.5515 -0.063 -0.997 -0.038 182 163 132 0 0
7.9020 6.9371 -1.5184 -0.033 -0.985 -0.167 178 159 126 0 0
7.9277 6.9397 -1.5093 0.182 -0.977 -0.111 185 168 137 0 0
8.0119 7.0152 -1.4961 0.333 -0.925 0.185 189 172 146 0 0
8.1382 7.0587 -1.4590 0.514 -0.857 0.038 191 172 146 0 0
8.1519 7.0624 -1.4547 0.502 -0.861 0.084 196 177 147 0 0
8.1675 7.0720 -1.4512 0.545 -0.829 0.125 200 181 151 0 0
8.1973 7.0869 -1.4436 0.283 -0.945 -0.163 194 177 149 0 0
8.2123 7.0945 -1.4398 0.456 -0.881 -0.124 198 181 153 0 0
8.2310 7.1139 -1.4376 0.587 -0.783 0.206 202 185 159 0 0
8.2479 7.1273 -1.4345 0.591 -0.784 0.189 201 184 158 0 0
8.2998 7.1712 -1.4257 0.600 -0.800 0.026 206 190 164 0 0
8.3329 7.2351 -1.4290 0.595 -0.800 -0.081 204 189 163 0 0
8.3462 7.2366 -1.4243 0.418 -0.897 0.141 206 191 165 0 0
8.6594 7.7919 -1.4433 0.896 -0.431 -0.105 238 234 225 0 0
8.7060 7.8905 -1.4502 0.905 -0.418 -0.075 241 240 237 0 0
2.9514 6.0588 -3.1899 0.830 -0.520 0.201 234 233 229 0 0
2.9605 6.1085 -3.1989 0.217 -0.862 -0.458 234 231 225 0 0
2.9703 6.1167 -3.1972 -0.074 -0.782 -0.619 223 215 203 0 0
3.9312 6.1091 -2.8312 0.012 -0.710 0.704 224 204 175 0 0
3.9918 6.1105 -2.8086 -0.391 -0.639 0.662 225 204 175 0 0
4.2558 6.1297 -2.7133 -0.305 -0.621 0.722 228 208 178 0 0
4.3848 6.1619 -2.6725 0.391 -0.834 0.389 223 205 176 0 0
4.3970 6.1611 -2.6677 0.347 -0.772 0.533 226 207 178 0 0
4.4099 6.1556 -2.6614 0.521 -0.663 0.537 227 207 178 0 0
4.4219 6.1563 -2.6570 -0.388 -0.599 0.700 225 204 175 0 0
4.5820 6.1320 -2.5903 -0.555 -0.733 0.394 222 201 170 0 0
4.5948 6.1258 -2.5839 -0.555 -0.733 0.394 223 202 171 0 0
4.6167 6.1463 -2.5807 0.111 -0.686 0.719 224 204 174 0 0
4.7959 6.1655 -2.5176 0.118 -0.701 0.703 223 202 173 0 0
4.8085 6.1589 -2.5112 0.035 -0.808 0.588 225 204 177 0 0
4.8193 6.1736 -2.5107 0.320 -0.629 0.708 226 205 179 0 0
4.8445 6.1598 -2.4977 -0.204 -0.583 0.786 226 206 177 0 0
4.8571 6.1524 -2.4911 -0.011 -0.611 0.791 227 206 177 0 0
4.8796 6.1744 -2.4881 0.071 -0.552 0.831 225 202 171 0 0
4.8910 6.1832 -2.4860 -0.007 -0.564 0.826 225 203 171 0 0
5.2280 6.1717 -2.3554 0.133 -0.851 0.509 209 184 149 0 0
5.2393 6.1954 -2.3570 -0.286 -0.855 0.433 205 181 145 0 0
5.2631 6.2051 -2.3504 0.189 -0.861 0.472 213 189 154 0 0
6.2101 9.0129 -2.6925 0.691 -0.551 0.468 227 226 221 0 0
6.2263 9.0165 -2.6873 0.707 -0.520 0.480 228 227 222 0 0
6.2890 9.2113 -2.7121 0.328 -0.838 -0.436 228 224 221 0 0
6.2744 8.8121 -2.6180 0.492 -0.688 -0.534 228 224 221 0 0
6.3253 8.8604 -2.6108 0.758 -0.531 -0.379 226 222 220 0 0
6.3511 8.9818 -2.6313 -0.047 -0.873 0.486 225 223 217 0 0
6.3672 8.9840 -2.6258 -0.047 -0.873 0.486 223 223 216 0 0
6.3833 8.9862 -2.6202 -0.047 -0.873 0.486 223 222 217 0 0
6.3979 8.9723 -2.6112 0.197 -0.702 0.684 223 222 216 0 0
7.3137 6.9236 -1.7527 0.030 -0.983 -0.184 180 165 139 0 0
7.5826 6.8919 -1.6428 0.127 -0.989 -0.076 175 160 129 0 0
7.7535 6.9248 -1.5863 -0.003 -0.983 -0.186 175 158 125 0 0
8.0868 7.0390 -1.4885 0.105 -0.990 0.092 193 177 151 0 0
8.0999 7.0408 -1.4840 0.105 -0.990 0.092 194 176 151 0 0
8.1444 7.0627 -1.4726 0.391 -0.914 -0.109 197 180 152 0 0
8.1575 7.0644 -1.4680 0.502 -0.861 0.084 197 179 150 0 0
8.1730 7.0737 -1.4645 0.501 -0.839 0.214 198 180 151 0 0
8.2703 7.1423 -1.4447 0.615 -0.785 0.073 206 189 163 0 0
8.3199 7.2187 -1.4450 0.321 -0.944 -0.082 209 193 167 0 0
8.3341 7.2232 -1.4407 0.321 -0.944 -0.082 205 189 164 0 0
8.3513 7.2369 -1.4376 0.422 -0.906 -0.007 205 189 164 0 0
8.5938 7.6593 -1.4512 0.870 -0.464 -0.169 218 205 191 0 0
2.9585 6.1280 -3.2185 0.304 -0.767 -0.565 234 234 228 0 0
2.9704 6.1297 -3.2145 0.304 -0.767 -0.565 230 224 214 0 0
2.9867 6.1174 -3.2052 -0.140 -0.711 -0.690 216 203 187 0 0
3.2992 6.0161 -3.0613 -0.580 -0.780 0.236 224 204 176 0 0
3.3107 6.0185 -3.0575 -0.250 -0.741 0.624 219 199 172 0 0
3.5688 6.0577 -2.9695 -0.279 -0.663 0.695 221 201 172 0 0
3.8338 6.0695 -2.8720 -0.604 -0.679 0.417 222 203 171 0 0
3.8435 6.0816 -2.8714 -0.244 -0.689 0.683 224 203 172 0 0
3.9882 6.0867 -2.8178 -0.069 -0.951 0.302 225 204 175 0 0
3.9982 6.0983 -2.8169 -0.015 -0.889 0.458 225 204 175 0 0
4.0601 6.0915 -2.7917 0.145 -0.536 0.832 226 205 176 0 0
4.3341 6.1206 -2.6952 0.174 -0.743 0.646 222 201 170 0 0
4.3838 6.1104 -2.6738 -0.403 -0.799 0.446 224 205 175 0 0
4.4308 6.1207 -2.6586 -0.028 -0.697 0.716 224 203 174 0 0
4.8242 6.1666 -2.5210 0.153 -0.806 0.572 224 204 176 0 0
5.2205 6.1655 -2.3704 -0.079 -0.844 0.530 206 180 143 0 0
5.2324 6.1675 -2.3664 0.154 -0.849 0.505 206 180 143 0 0
5.2675 6.2001 -2.3613 0.189 -0.861 0.472 207 182 150 0 0
5.3258 6.3078 -2.3663 0.899 -0.433 -0.058 195 172 141 0 0
5.3376 6.3307 -2.3676 0.800 -0.580 -0.156 193 170 138 0 0
6.2141 8.9857 -2.7027 0.864 -0.471 0.177 228 226 221 0 0
6.2486 8.8073 -2.6448 0.777 -0.573 -0.261 226 225 220 0 0
6.2960 9.2242 -2.7316 0.328 -0.838 -0.436 227 224 220 0 0
6.3114 9.2135 -2.7230 0.320 -0.887 -0.332 227 223 220 0 0
6.3749 9.0055 -2.6467 0.448 -0.789 -0.421 223 222 215 0 0
6.4043 8.9773 -2.6285 0.609 -0.760 0.228 222 221 216 0 0
6.7402 7.4148 -2.1084 -0.395 -0.724 -0.565 175 160 131 0 0
6.8926 7.1904 -1.9941 -0.206 -0.919 -0.335 183 167 140 0 0
6.9357 7.1341 -1.9637 -0.230 -0.893 -0.386 181 165 139 0 0
6.9710 7.1122 -1.9448 -0.229 -0.884 -0.408 180 164 137 0 0
6.9829 7.1057 -1.9387 -0.295 -0.850 -0.437 181 166 137 0 0
7.3187 6.9242 -1.7657 0.073 -0.987 -0.145 180 165 139 0 0
7.5879 6.8939 -1.6560 0.129 -0.963 -0.235 178 163 132 0 0
7.5993 6.8892 -1.6505 -0.068 -0.981 -0.183 173 158 127 0 0
7.7720 6.9291 -1.5951 0.196 -0.972 -0.132 180 165 134 0 0
7.7980 6.9329 -1.5862 0.121 -0.986 -0.116 176 161 132 0 0
7.8346 6.9293 -1.5714 0.386 -0.915 0.117 181 164 136 0 0
7.8501 6.9405 -1.5683 0.070 -0.989 -0.129 184 167 140 0 0
7.8627 6.9408 -1.5636 0.070 -0.989 -0.129 189 172 145 0 0
7.8751 6.9402 -1.5588 -0.105 -0.992 -0.068 190 173 145 0 0
7.9015 6.9451 -1.5500 0.122 -0.986 -0.112 184 167 138 0 0
7.9150 6.9487 -1.5458 0.393 -0.911 -0.127 183 166 135 0 0
7.9290 6.9542 -1.5419 0.393 -0.911 -0.127 184 166 133 0 0
8.1346 7.0557 -1.4895 0.505 -0.858 -0.099 202 186 160 0 0
8.1492 7.0624 -1.4856 0.466 -0.858 -0.215 197 181 154 0 0
8.1640 7.0694 -1.4818 0.466 -0.858 -0.215 194 178 150 0 0
8.3296 7.2332 -1.4602 0.424 -0.804 -0.417 207 191 166 0 0
8.3442 7.2388 -1.4560 0.424 -0.804 -0.417 209 193 169 0 0
8.5868 7.6627 -1.4706 0.853 -0.464 -0.240 217 206 192 0 0
8.6226 7.7303 -1.4740 0.853 -0.464 -0.240 227 219 209 0 0
8.6674 7.8242 -1.4807 0.888 -0.419 -0.192 241 235 228 0 0
8.7715 8.0531 -1.4987 0.888 -0.419 -0.192 240 239 237 0 0
2.8342 6.5386 -3.3836 -0.348 -0.624 -0.700 234 235 227 0 0
3.2356 5.9967 -3.0942 -0.503 -0.755 0.421 220 199 168 0 0
3.2617 5.9906 -3.0828 -0.130 -0.729 0.673 223 202 175 0 0
3.9196 6.0868 -2.8576 -0.410 -0.813 0.414 225 204 175 0 0
3.9928 6.0847 -2.8293 -0.184 -0.945 0.272 223 203 174 0 0
4.0051 6.0837 -2.8244 -0.078 -0.982 0.174 224 203 173 0 0
4.2210 6.0958 -2.7456 -0.149 -0.614 0.775 223 204 173 0 0
4.3274 6.1123 -2.7094 0.197 -0.817 0.541 224 203 172 0 0
4.3513 6.1142 -2.7009 -0.150 -0.842 0.518 223 202 171 0 0
4.3640 6.1097 -2.6949 -0.275 -0.792 0.545 226 205 174 0 0
4.4263 6.0949 -2.6675 -0.245 -0.776 0.581 222 201 172 0 0
4.4363 6.1110 -2.6678 -0.028 -0.697 0.716 223 202 173 0 0
4.5689 6.1101 -2.6173 -0.278 -0.501 0.819 225 204 177 0 0
4.6288 6.1122 -2.5951 0.104 -0.576 0.811 221 202 172 0 0
4.6644 6.1166 -2.5827 0.018 -0.719 0.695 223 204 174 0 0
4.6767 6.1143 -2.5775 -0.048 -0.651 0.757 225 206 176 0 0
4.7959 6.1239 -2.5347 -0.283 -0.640 0.714 228 206 176 0 0
4.8187 6.1380 -2.5296 -0.034 -0.986 -0.162 223 202 172 0 0
4.8442 6.1187 -2.5151 -0.213 -0.891 0.402 225 204 174 0 0
5.2251 6.1552 -2.3799 0.105 -0.809 0.578 210 184 145 0 0
5.2720 6.1935 -2.3718 -0.007 -0.886 0.463 198 174 142 0 0
5.3299 6.3277 -2.3838 0.844 -0.533 0.065 195 172 141 0 0
5.3418 6.3488 -2.3846 0.728 -0.626 -0.278 193 170 139 0 0
6.2002 8.9291 -2.7121 0.901 -0.356 0.247 228 226 222 0 0
6.2204 8.9906 -2.7200 0.837 -0.522 0.166 229 226 222 0 0
6.2988 9.1823 -2.7388 0.830 -0.454 0.324 227 224 219 0 0
6.3653 9.2024 -2.7187 -0.207 -0.602 -0.771 225 223 219 0 0
6.3759 9.1356 -2.6977 0.904 -0.384 -0.190 223 222 215 0 0
6.3936 8.9689 -2.6488 0.436 -0.529 -0.728 223 221 217 0 0
6.4709 8.7831 -2.5725 0.212 -0.627 0.749 221 217 214 0 0
6.5816 7.8644 -2.2980 0.203 -0.534 0.821 215 214 212 0 0
6.7465 7.4238 -2.1239 -0.373 -0.654 -0.659 176 161 134 0 0
6.9886 7.1105 -1.9528 -0.269 -0.877 -0.399 180 164 137 0 0
7.3240 6.9265 -1.7791 0.073 -0.987 -0.145 176 162 135 0 0
7.3491 6.9262 -1.7695 -0.043 -0.975 -0.219 179 163 135 0 0
7.3611 6.9234 -1.7642 0.151 -0.954 -0.260 175 160 132 0 0
7.4850 6.9148 -1.7151 -0.061 -0.980 0.192 172 157 124 0 0
7.5095 6.9120 -1.7051 0.240 -0.970 -0.023 170 155 125 0 0
7.5432 6.8956 -1.6881 0.164 -0.986 -0.043 181 166 136 0 0
7.6042 6.8895 -1.6635 0.060 -0.998 -0.019 175 160 130 0 0
7.6175 6.8926 -1.6592 0.019 -0.958 -0.287 176 161 130 0 0
7.7755 6.9240 -1.6072 0.262 -0.964 0.055 182 167 138 0 0
7.7890 6.9275 -1.6030 0.093 -0.995 0.044 180 164 137 0 0
7.8156 6.9336 -1.5944 -0.023 -0.994 0.107 185 169 141 0 0
7.8302 6.9410 -1.5908 0.135 -0.975 0.175 184 167 138 0 0
7.8394 6.9289 -1.5842 0.387 -0.921 0.052 179 162 134 0 0
7.8784 6.9344 -1.5708 0.209 -0.937 -0.278 188 171 143 0 0
7.8919 6.9380 -1.5666 0.362 -0.901 -0.240 182 165 137 0 0
8.1707 7.0752 -1.4956 0.393 -0.888 -0.240 195 179 152 0 0
8.2172 7.1029 -1.4850 0.580 -0.787 -0.210 199 182 156 0 0
8.3362 7.2380 -1.4741 0.234 -0.972 0.035 207 191 166 0 0
8.3538 7.2529 -1.4712 0.360 -0.819 -0.446 209 193 170 0 0
8.3679 7.2567 -1.4668 0.360 -0.819 -0.446 205 189 165 0 0
8.7178 7.9591 -1.5119 0.886 -0.396 -0.242 242 239 234 0 0
8.7847 8.1177 -1.5266 0.886 -0.396 -0.242 240 239 236 0 0
2.8856 6.5132 -3.3724 0.256 -0.721 -0.644 212 197 179 0 0
3.2197 5.9817 -3.1102 -0.433 -0.599 0.674 218 197 166 0 0
3.6502 6.0051 -2.9528 -0.096 -0.959 0.268 221 200 169 0 0
3.6623 6.0051 -2.9483 0.063 -0.972 0.226 222 201 170 0 0
4.2374 6.0957 -2.7532 0.147 -0.601 0.785 224 205 175 0 0
4.2753 6.0842 -2.7358 -0.589 -0.709 0.388 224 201 170 0 0
4.2884 6.0774 -2.7291 -0.587 -0.740 0.330 224 203 172 0 0
4.3695 6.1006 -2.7043 -0.150 -0.634 0.759 226 205 174 0 0
4.3812 6.1030 -2.7004 -0.080 -0.680 0.729 224 205 175 0 0
4.4085 6.0793 -2.6841 -0.141 -0.680 0.720 227 206 175 0 0
4.4203 6.0811 -2.6801 -0.141 -0.680 0.720 224 203 174 0 0
4.4319 6.0847 -2.6766 -0.340 -0.765 0.548 223 202 173 0 0
4.6700 6.1034 -2.5910 -0.100 -0.637 0.764 224 203 173 0 0
4.6820 6.1031 -2.5864 -0.224 -0.549 0.805 224 204 174 0 0
4.7058 6.1057 -2.5780 -0.356 -0.553 0.753 225 205 177 0 0
4.9307 6.1425 -2.5021 -0.233 -0.744 0.626 226 205 177 0 0
4.9431 6.1374 -2.4961 -0.046 -0.609 0.792 226 206 179 0 0
5.2647 6.1792 -2.3847 0.183 -0.956 0.230 199 176 144 0 0
5.2763 6.1977 -2.3850 0.069 -0.997 -0.040 195 173 141 0 0
5.3111 6.2619 -2.3882 0.866 -0.477 -0.147 191 171 138 0 0
5.3225 6.3080 -2.3956 0.875 -0.474 -0.093 194 173 141 0 0
5.3462 6.3552 -2.3987 0.863 -0.499 -0.075 192 169 138 0 0
6.2588 8.9992 -2.7261 0.919 -0.325 -0.223 228 225 218 0 0
6.3288 9.0764 -2.7193 0.321 -0.504 -0.802 226 222 219 0 0
6.3952 9.6922 -2.8510 -0.301 -0.748 0.592 225 223 219 0 0
6.4028 9.0068 -2.6734 0.416 -0.558 -0.718 223 219 218 0 0
6.4112 8.5791 -2.5613 0.590 -0.606 0.534 219 218 213 0 0
6.4760 8.7754 -2.5867 0.058 -0.516 0.855 219 218 214 0 0
6.5823 7.8247 -2.3041 0.385 -0.374 0.844 215 214 212 0 0
6.9932 7.1084 -1.9657 -0.282 -0.893 -0.350 180 164 138 0 0
7.3296 6.9299 -1.7926 -0.102 -0.993 0.054 178 164 136 0 0
7.3420 6.9289 -1.7877 -0.102 -0.993 0.054 177 161 135 0 0
7.3540 6.9264 -1.7825 -0.182 -0.983 -0.025 175 160 131 0 0
7.3667 6.9264 -1.7777 0.044 -0.999 -0.013 171 156 127 0 0
7.3799 6.9294 -1.7734 0.174 -0.984 -0.024 173 158 130 0 0
7.4284 6.9208 -1.7528 0.141 -0.972 -0.188 185 171 145 0 0
7.4416 6.9237 -1.7485 -0.172 -0.978 -0.116 176 160 134 0 0
7.5143 6.9120 -1.7180 0.294 -0.956 -0.002 171 156 126 0 0
7.6372 6.9022 -1.6689 0.276 -0.955 0.108 173 159 130 0 0
7.6497 6.9020 -1.6641 -0.019 -0.999 -0.028 173 159 131 0 0
7.7281 6.9154 -1.6377 0.174 -0.947 -0.272 171 156 127 0 0
7.7457 6.9348 -1.6360 -0.001 -1.000 -0.026 178 159 130 0 0
7.7829 6.9332 -1.6215 0.202 -0.978 0.041 190 175 149 0 0
7.7954 6.9334 -1.6168 0.128 -0.987 0.099 184 169 143 0 0
7.8084 6.9349 -1.6123 0.126 -0.989 0.080 184 169 140 0 0
7.8351 6.9414 -1.6038 0.177 -0.979 -0.099 181 164 134 0 0
7.8482 6.9435 -1.5993 0.249 -0.962 -0.110 177 160 130 0 0
7.9997 6.9918 -1.5542 0.159 -0.980 -0.119 192 175 149 0 0
8.0911 7.0458 -1.5333 0.022 -0.945 -0.326 191 174 146 0 0
8.1788 7.0852 -1.5100 0.486 -0.874 0.010 190 172 146 0 0
8.2110 7.1077 -1.5035 0.360 -0.921 -0.152 198 181 154 0 0
8.2271 7.1188 -1.5002 0.587 -0.810 -0.015 202 185 159 0 0
8.3627 7.2650 -1.4861 0.360 -0.819 -0.446 208 192 168 0 0
8.3769 7.2691 -1.4817 0.257 -0.821 -0.509 207 191 168 0 0
8.6969 7.9215 -1.5266 0.886 -0.396 -0.242 241 238 234 0 0
2.8856 6.5277 -3.3908 0.303 -0.749 -0.589 211 200 183 0 0
3.2252 5.9768 -3.1206 -0.319 -0.741 0.590 218 197 166 0 0
3.2380 5.9746 -3.1151 -0.279 -0.825 0.492 218 199 167 0 0
3.6194 5.9993 -2.9767 -0.190 -0.731 0.656 223 203 174 0 0
3.6551 6.0015 -2.9638 -0.096 -0.959 0.268 220 199 168 0 0
3.6664 6.0054 -2.9605 -0.388 -0.841 0.378 220 199 169 0 0
3.6808 5.9948 -2.9523 -0.400 -0.632 0.664 222 201 171 0 0
3.8772 6.0369 -2.8886 -0.213 -0.591 0.778 225 206 176 0 0
3.9766 6.0222 -2.8471 -0.442 -0.576 0.688 223 203 176 0 0
4.2437 6.0819 -2.7610 0.085 -0.905 0.416 226 206 176 0 0
4.3064 6.0656 -2.7330 -0.503 -0.716 0.484 224 204 175 0 0
4.4015 6.0734 -2.6989 -0.123 -0.562 0.818 226 206 178 0 0
4.4134 6.0743 -2.6947 -0.223 -0.670 0.708 227 207 178 0 0
4.4260 6.0700 -2.6888 -0.298 -0.576 0.761 223 204 174 0 0
5.2341 6.1434 -2.4009 0.342 -0.830 0.441 201 176 139 0 0
5.2806 6.1996 -2.3977 0.131 -0.982 0.137 195 174 141 0 0
5.3036 6.2550 -2.4032 0.819 -0.486 -0.304 195 171 140 0 0
5.3154 6.2705 -2.4027 0.830 -0.486 -0.274 193 171 140 0 0
5.3383 6.3591 -2.4167 0.869 -0.482 -0.113 195 173 142 0 0
5.3742 6.4373 -2.4231 0.914 -0.397 0.087 195 174 143 0 0
5.5713 7.4011 -2.5956 0.969 -0.043 0.245 189 168 144 0 0
6.3971 9.2431 -2.7547 -0.256 -0.634 -0.729 224 222 216 0 0
6.4210 9.1459 -2.7207 -0.107 -0.506 -0.856 222 219 215 0 0
6.4162 8.5717 -2.5752 0.590 -0.606 0.534 219 218 214 0 0
6.4285 8.5399 -2.5624 0.301 -0.661 0.688 219 218 214 0 0
6.6744 7.8411 -2.2898 -0.525 -0.284 -0.802 169 152 132 0 0
7.0458 7.0854 -1.9550 -0.297 -0.954 0.045 186 171 145 0 0
7.0696 7.0738 -1.9430 -0.318 -0.892 -0.321 181 166 141 0 0
7.1938 6.9856 -1.8733 -0.364 -0.928 0.077 181 167 140 0 0
7.2257 6.9544 -1.8532 0.015 -0.990 -0.142 172 159 133 0 0
7.3347 6.9310 -1.8058 0.089 -0.995 0.049 175 160 133 0 0
7.3729 6.9330 -1.7918 -0.047 -0.993 0.113 174 160 131 0 0
7.3857 6.9335 -1.7871 0.068 -0.983 0.171 175 160 132 0 0
7.4466 6.9243 -1.7616 -0.172 -0.978 -0.116 173 158 130 0 0
7.5087 6.9210 -1.7372 0.093 -0.995 -0.043 174 159 128 0 0
7.5838 6.9201 -1.7084 0.376 -0.925 -0.054 175 159 130 0 0
7.5975 6.9247 -1.7044 0.066 -0.996 -0.052 170 154 126 0 0
7.6421 6.9022 -1.6817 0.276 -0.955 0.108 177 162 135 0 0
7.6546 6.9023 -1.6770 -0.019 -0.999 -0.028 172 157 130 0 0
7.6810 6.9077 -1.6684 -0.001 -0.973 -0.232 175 161 133 0 0
7.8044 6.9488 -1.6321 0.140 -0.976 -0.168 182 166 141 0 0
8.0888 7.0640 -1.5537 -0.176 -0.957 -0.232 196 176 150 0 0
8.0997 7.0581 -1.5481 0.324 -0.925 0.198 196 178 150 0 0
8.1122 7.0577 -1.5432 0.236 -0.971 -0.026 198 181 154 0 0
8.1284 7.0696 -1.5401 0.192 -0.980 -0.057 198 181 156 0 0
8.1857 7.0917 -1.5240 0.483 -0.870 -0.095 200 181 154 0 0
8.2359 7.1309 -1.5150 0.568 -0.820 -0.071 205 189 161 0 0
8.3452 7.2346 -1.5002 0.719 -0.686 -0.110 210 194 169 0 0
8.3647 7.2554 -1.4981 0.549 -0.732 -0.404 210 194 169 0 0
8.6789 7.8923 -1.5422 0.897 -0.393 -0.201 239 237 232 0 0
8.7484 8.0596 -1.5588 0.897 -0.393 -0.201 239 238 235 0 0
3.2324 5.9661 -3.1288 -0.321 -0.769 0.553 219 198 167 0 0
3.2449 5.9645 -3.1236 -0.321 -0.769 0.553 218 197 166 0 0
3.3649 5.9691 -3.0793 -0.012 -0.833 0.553 223 202 171 0 0
3.4839 5.9767 -3.0361 -0.307 -0.606 0.734 221 202 170 0 0
3.6356 5.9994 -2.9843 -0.071 -0.570 0.819 222 201 170 0 0
3.8179 5.9933 -2.9136 -0.561 -0.576 0.594 223 204 174 0 0
3.8590 6.0279 -2.9069 -0.542 -0.716 0.441 225 206 176 0 0
3.8840 6.0241 -2.8964 -0.213 -0.591 0.778 225 205 176 0 0
4.1351 6.0341 -2.8037 -0.109 -0.592 0.798 223 202 175 0 0
4.3614 6.0464 -2.7210 -0.513 -0.793 0.329 226 205 174 0 0
4.6467 6.0627 -2.6168 -0.477 -0.678 0.559 225 204 175 0 0
4.9766 6.1213 -2.5067 -0.136 -0.654 0.744 224 203 172 0 0
5.3668 6.4002 -2.4306 0.873 -0.456 -0.174 194 172 143 0 0
5.3787 6.4356 -2.4352 0.913 -0.401 0.071 194 172 142 0 0
6.1409 8.2658 -2.6185 0.259 -0.266 0.929 228 225 222 0 0
6.1622 8.3571 -2.6340 0.398 -0.208 0.894 229 225 222 0 0
6.1791 8.3849 -2.6348 0.390 -0.196 0.900 229 225 222 0 0
6.4417 9.1295 -2.7274 -0.359 -0.371 -0.856 220 219 215 0 0
6.4410 8.7765 -2.6365 0.050 -0.937 -0.345 219 218 213 0 0
6.4590 8.8019 -2.6362 -0.083 -0.898 -0.432 219 217 213 0 0
6.6880 7.9064 -2.3180 -0.483 -0.267 -0.834 174 160 143 0 0
7.0986 7.0649 -1.9448 -0.194 -0.959 -0.205 180 166 140 0 0
7.1984 6.9840 -1.8860 -0.416 -0.909 0.023 178 164 137 0 0
7.2100 6.9788 -1.8803 -0.416 -0.909 0.023 180 165 139 0 0
7.3397 6.9319 -1.8189 0.041 -0.998 0.056 156 141 112 0 0
7.3520 6.9304 -1.8139 -0.039 -0.998 -0.056 166 151 122 0 0
7.3774 6.9313 -1.8044 -0.047 -0.993 0.113 174 160 131 0 0
7.3901 6.9316 -1.7997 0.068 -0.983 0.171 176 162 133 0 0
7.4161 6.9349 -1.7907 0.097 -0.991 0.094 172 157 128 0 0
7.4282 6.9330 -1.7856 -0.073 -0.990 0.121 181 166 137 0 0
7.4649 6.9280 -1.7704 -0.177 -0.984 0.016 176 159 131 0 0
7.8745 6.9581 -1.6226 0.375 -0.927 -0.020 180 163 134 0 0
7.9256 6.9612 -1.6041 0.301 -0.933 -0.200 176 155 124 0 0
7.9530 6.9698 -1.5959 0.494 -0.869 -0.027 187 166 136 0 0
7.9980 6.9952 -1.5854 0.248 -0.968 -0.030 185 168 140 0 0
8.2438 7.1402 -1.5295 0.598 -0.782 -0.175 206 190 161 0 0
8.2601 7.1516 -1.5262 0.639 -0.737 -0.219 203 187 161 0 0
8.3514 7.2380 -1.5139 0.753 -0.647 -0.119 211 195 172 0 0
8.7934 8.1779 -1.5888 0.897 -0.393 -0.201 238 237 235 0 0
3.2386 5.9585 -3.1382 -0.212 -0.667 0.714 219 196 164 0 0
3.2515 5.9560 -3.1327 -0.315 -0.795 0.519 216 194 163 0 0
3.4103 5.9500 -3.0708 -0.403 -0.561 0.723 221 202 175 0 0
3.5026 5.9669 -3.0401 -0.211 -0.538 0.816 219 200 170 0 0
3.6315 5.9831 -2.9954 -0.125 -0.794 0.595 222 201 172 0 0
3.8902 6.0136 -2.9050 -0.086 -0.629 0.773 225 204 175 0 0
4.0036 5.9868 -2.8550 -0.254 -0.610 0.751 225 205 178 0 0
4.1523 6.0281 -2.8093 -0.193 -0.946 0.260 224 204 174 0 0
4.1644 6.0276 -2.8045 -0.246 -0.806 0.539 225 204 173 0 0
4.1996 6.0326 -2.7925 0.236 -0.621 0.748 225 204 175 0 0
4.3299 6.0444 -2.7461 -0.472 -0.762 0.444 226 207 178 0 0
4.4495 6.0459 -2.7010 -0.286 -0.651 0.704 223 204 174 0 0
5.1495 6.0821 -2.4446 -0.053 -0.825 0.563 216 192 157 0 0
5.1613 6.0845 -2.4407 0.206 -0.652 0.729 213 189 153 0 0
5.2884 6.2432 -2.4337 0.839 -0.543 -0.025 195 174 142 0 0
5.3471 6.3637 -2.4428 0.842 -0.486 -0.233 198 176 144 0 0
5.3591 6.3893 -2.4449 0.801 -0.483 -0.354 195 173 141 0 0
5.3711 6.4156 -2.4472 0.835 -0.464 -0.296 194 170 142 0 0
5.6341 8.0343 -2.7681 0.959 -0.013 0.284 227 224 218 0 0
6.1590 8.2333 -2.6204 0.235 -0.296 0.926 228 224 221 0 0
6.2291 9.0046 -2.7944 0.810 -0.412 -0.417 228 224 221 0 0
6.2486 9.0524 -2.7994 0.697 -0.517 -0.497 225 224 220 0 0
6.3025 9.1278 -2.7985 0.696 -0.645 -0.314 225 221 218 0 0
6.3503 9.3209 -2.8306 0.948 -0.265 -0.177 225 221 218 0 0
6.3576 9.2101 -2.7990 0.881 -0.430 -0.198 224 221 217 0 0
6.4045 9.3794 -2.8252 -0.176 -0.480 -0.859 224 220 217 0 0
6.4507 8.8174 -2.6615 0.135 -0.972 -0.191 221 218 213 0 0
6.4655 8.8096 -2.6539 -0.030 -0.970 -0.242 220 216 213 0 0
6.4798 8.7957 -2.6448 0.095 -0.944 0.316 220 216 213 0 0
6.4551 8.3851 -2.5475 0.891 -0.285 0.355 220 216 213 0 0
7.0791 7.0722 -1.9692 -0.454 -0.891 0.020 178 162 136 0 0
7.0910 7.0670 -1.9633 -0.283 -0.944 -0.171 176 161 135 0 0
7.1039 7.0667 -1.9584 -0.194 -0.959 -0.205 179 165 139 0 0
7.1151 7.0582 -1.9519 0.322 -0.922 -0.217 180 166 140 0 0
7.1287 7.0619 -1.9477 0.322 -0.922 -0.217 175 160 134 0 0
7.1549 7.0644 -1.9384 0.026 -0.963 -0.267 182 166 141 0 0
7.2399 6.9766 -1.8833 -0.116 -0.991 -0.068 175 161 135 0 0
7.2501 6.9643 -1.8762 -0.254 -0.967 -0.007 169 157 133 0 0
7.2615 6.9580 -1.8702 -0.284 -0.953 0.106 173 161 137 0 0
7.2743 6.9587 -1.8655 -0.036 -0.962 -0.271 171 156 133 0 0
7.3445 6.9314 -1.8318 0.006 -0.998 -0.062 164 148 119 0 0
7.3570 6.9311 -1.8270 0.006 -0.998 -0.062 148 133 104 0 0
7.4074 6.9310 -1.8078 0.046 -0.997 -0.067 172 157 127 0 0
7.4325 6.9302 -1.7981 -0.276 -0.957 -0.090 177 162 133 0 0
7.5954 6.9277 -1.7355 0.309 -0.946 -0.097 174 158 132 0 0
7.7219 6.9316 -1.6885 0.315 -0.945 0.086 177 163 136 0 0
7.7359 6.9373 -1.6847 0.256 -0.961 0.102 172 157 130 0 0
7.7481 6.9359 -1.6797 0.117 -0.983 0.140 172 157 130 0 0
7.8658 6.9540 -1.6397 0.200 -0.976 -0.084 174 157 127 0 0
7.9188 6.9642 -1.6222 0.022 -0.994 -0.108 178 159 129 0 0
7.9303 6.9608 -1.6169 0.203 -0.979 0.013 180 160 130 0 0
7.9441 6.9651 -1.6128 0.222 -0.950 0.218 186 165 135 0 0
8.1016 7.0735 -1.5812 0.010 -0.984 -0.176 195 178 152 0 0
8.1674 7.0820 -1.5584 0.641 -0.741 -0.198 202 186 160 0 0
8.2353 7.1377 -1.5471 0.598 -0.782 -0.175 202 185 157 0 0
8.2527 7.1526 -1.5444 0.538 -0.791 -0.293 204 189 160 0 0
8.3436 7.2381 -1.5321 0.771 -0.635 -0.048 207 191 168 0 0
8.3611 7.2525 -1.5292 0.756 -0.641 -0.136 210 194 171 0 0
2.8244 6.6839 -3.4991 -0.594 -0.566 -0.571 235 234 230 0 0
2.8900 6.5563 -3.4408 -0.594 -0.566 -0.571 224 216 205 0 0
3.4871 5.9491 -3.0550 -0.319 -0.764 0.561 219 199 167 0 0
3.4992 5.9487 -3.0503 -0.181 -0.600 0.779 219 200 169 0 0
3.5939 5.9557 -3.0162 0.078 -0.799 0.597 225 203 174 0 0
3.6020 5.9720 -3.0174 -0.256 -0.879 0.403 222 201 171 0 0
3.6142 5.9716 -3.0126 -0.312 -0.908 0.279 218 197 167 0 0
3.6273 5.9672 -3.0065 0.364 -0.906 0.215 222 201 171 0 0
3.6505 5.9711 -2.9987 0.234 -0.760 0.606 225 202 171 0 0
3.6613 5.9765 -2.9960 0.061 -0.634 0.771 222 199 168 0 0
3.6742 5.9728 -2.9901 -0.238 -0.788 0.568 223 202 172 0 0
3.8960 6.0057 -2.9145 -0.143 -0.752 0.643 224 203 174 0 0
3.9227 5.9922 -2.9008 -0.272 -0.539 0.797 226 203 173 0 0
3.9975 5.9773 -2.8685 -0.422 -0.646 0.636 223 204 176 0 0
4.0219 5.9748 -2.8586 -0.254 -0.610 0.751 226 205 180 0 0
4.0891 6.0012 -2.8400 -0.464 -0.590 0.661 226 206 179 0 0
4.4454 6.0176 -2.7089 -0.239 -0.714 0.658 223 204 173 0 0
4.7518 6.0498 -2.6009 -0.506 -0.757 0.413 224 205 176 0 0
4.7641 6.0450 -2.5950 -0.216 -0.810 0.545 225 204 175 0 0
4.9773 6.0533 -2.5161 -0.388 -0.579 0.718 224 203 170 0 0
5.0005 6.0625 -2.5097 -0.329 -0.726 0.603 221 199 168 0 0
5.1541 6.0760 -2.4549 -0.181 -0.810 0.558 205 179 142 0 0
5.1775 6.0823 -2.4477 0.050 -0.726 0.686 205 180 140 0 0
5.2926 6.2536 -2.4488 0.861 -0.498 -0.101 194 172 141 0 0
5.6397 8.0480 -2.7865 0.959 -0.013 0.284 227 224 220 0 0
5.7154 8.7319 -2.9367 0.042 -0.519 0.854 229 226 221 0 0
6.2750 9.1110 -2.8233 0.697 -0.517 -0.497 224 223 219 0 0
6.3832 9.4464 -2.8700 0.901 -0.298 -0.315 224 221 217 0 0
6.4406 8.8141 -2.6827 0.174 -0.886 -0.430 221 217 213 0 0
6.4530 8.7801 -2.6691 0.272 -0.938 -0.217 220 217 213 0 0
6.4718 8.8136 -2.6707 -0.030 -0.970 -0.242 220 216 213 0 0
6.9267 7.2160 -2.0798 -0.436 -0.857 -0.273 175 161 137 0 0
7.0859 7.0822 -1.9843 -0.380 -0.866 -0.325 179 163 137 0 0
7.0962 7.0685 -1.9768 -0.272 -0.918 -0.287 177 163 137 0 0
7.1096 7.0710 -1.9724 0.054 -0.998 0.038 176 162 136 0 0
7.1212 7.0642 -1.9662 0.104 -0.983 -0.149 172 158 132 0 0
7.1350 7.0689 -1.9622 0.299 -0.929 -0.218 175 159 134 0 0
7.1482 7.0706 -1.9576 0.247 -0.946 -0.210 180 164 139 0 0
7.1606 7.0686 -1.9524 -0.021 -0.976 -0.215 184 168 143 0 0
7.2010 7.0124 -1.9223 -0.260 -0.886 -0.385 182 167 141 0 0
7.2678 6.9647 -1.8845 -0.185 -0.953 -0.240 172 159 135 0 0
7.5622 6.9258 -1.7625 0.243 -0.952 -0.187 172 155 127 0 0
7.7666 6.9401 -1.6885 0.193 -0.947 0.255 166 151 122 0 0
7.9241 6.9658 -1.6354 0.022 -0.994 -0.108 187 168 141 0 0
7.9352 6.9606 -1.6299 0.074 -0.993 -0.093 186 167 141 0 0
7.9517 6.9747 -1.6273 0.170 -0.917 0.360 187 167 141 0 0
8.0088 6.9983 -1.6118 0.345 -0.938 -0.015 189 173 147 0 0
8.2279 7.1387 -1.5652 0.613 -0.752 -0.242 196 179 153 0 0
8.2600 7.1598 -1.5586 0.508 -0.839 -0.196 202 186 158 0 0
8.3185 7.2647 -1.5638 0.444 -0.820 -0.361 203 187 162 0 0
8.3510 7.2856 -1.5569 0.550 -0.794 -0.259 206 190 166 0 0
8.3669 7.2950 -1.5534 0.463 -0.811 -0.357 207 191 167 0 0
2.8544 6.6440 -3.4922 -0.598 -0.565 -0.569 235 234 228 0 0
3.2203 5.9241 -3.1635 -0.406 -0.804 0.433 205 180 146 0 0
3.5064 5.9365 -3.0580 -0.233 -0.701 0.674 218 198 168 0 0
3.5991 5.9509 -3.0266 0.134 -0.832 0.539 226 202 174 0 0
4.0386 5.9715 -2.8650 0.564 -0.573 0.595 227 207 180 0 0
4.0509 5.9697 -2.8598 0.372 -0.525 0.766 225 205 176 0 0
4.0961 5.9847 -2.8466 -0.539 -0.614 0.576 223 203 175 0 0
4.1080 5.9851 -2.8422 -0.424 -0.684 0.593 225 204 175 0 0
4.1542 5.9946 -2.8271 0.008 -0.701 0.713 224 203 176 0 0
4.3100 5.9920 -2.7673 0.184 -0.718 0.671 222 200 168 0 0
4.3211 5.9975 -2.7645 0.184 -0.718 0.671 224 202 171 0 0
4.3683 6.0013 -2.7475 -0.534 -0.805 0.260 224 202 173 0 0
5.1008 6.0367 -2.4785 0.072 -0.904 0.421 221 197 164 0 0
5.2966 6.2692 -2.4653 0.852 -0.522 -0.031 195 172 142 0 0
5.3676 6.4268 -2.4798 0.915 -0.403 0.018 195 172 140 0 0
5.3797 6.4565 -2.4831 0.803 -0.477 -0.356 195 172 140 0 0
5.3918 6.4876 -2.4866 0.891 -0.399 -0.218 196 171 140 0 0
5.6088 7.6261 -2.7041 0.962 -0.010 0.274 193 180 166 0 0
5.6271 7.8630 -2.7595 0.963 -0.009 0.268 229 224 218 0 0
5.7032 8.6356 -2.9341 -0.005 -0.975 0.221 226 224 219 0 0
5.7193 8.6573 -2.9337 0.172 -0.667 0.725 227 225 220 0 0
6.2976 9.1178 -2.8352 0.732 -0.577 0.362 224 223 217 0 0
6.3714 9.2308 -2.8369 0.744 -0.435 0.506 225 222 217 0 0
6.4770 8.8074 -2.6853 0.186 -0.872 0.453 219 215 212 0 0
6.5076 8.8008 -2.6719 -0.752 -0.533 0.387 217 216 212 0 0
7.1274 7.0708 -1.9807 0.299 -0.929 -0.218 176 161 134 0 0
7.1410 7.0748 -1.9766 0.222 -0.925 -0.308 177 161 135 0 0
7.1544 7.0775 -1.9722 0.299 -0.929 -0.218 182 166 141 0 0
7.1661 7.0715 -1.9661 -0.021 -0.976 -0.215 183 168 143 0 0
7.7478 6.9455 -1.7119 -0.099 -0.985 -0.143 174 158 132 0 0
7.7581 6.9367 -1.7057 0.272 -0.917 0.291 168 152 125 0 0
7.7823 6.9334 -1.6956 -0.357 -0.929 0.101 175 159 130 0 0
7.9298 6.9686 -1.6488 -0.129 -0.989 -0.072 188 171 145 0 0
7.9417 6.9663 -1.6437 -0.069 -0.989 -0.132 191 173 148 0 0
7.9540 6.9656 -1.6388 0.129 -0.952 0.278 193 175 150 0 0
7.9718 6.9838 -1.6368 0.509 -0.846 0.157 191 173 148 0 0
8.0663 7.0921 -1.6295 0.456 -0.848 -0.272 194 178 152 0 0
8.1425 7.0922 -1.6005 0.567 -0.780 -0.267 200 185 159 0 0
8.2198 7.1374 -1.5831 0.548 -0.785 -0.288 203 185 161 0 0
8.2716 7.1808 -1.5748 0.565 -0.756 -0.331 199 183 157 0 0
8.3609 7.3006 -1.5725 0.600 -0.697 -0.393 205 189 164 0 0
3.1871 5.9277 -3.1907 -0.120 -0.955 -0.272 210 189 159 0 0
3.5357 5.9318 -3.0593 -0.211 -0.892 0.399 224 205 177 0 0
3.8044 5.9650 -2.9659 -0.306 -0.784 0.540 222 201 173 0 0
3.8340 5.9380 -2.9475 -0.392 -0.782 0.485 223 202 174 0 0
3.8450 5.9427 -2.9446 -0.556 -0.724 0.409 226 205 177 0 0
3.8576 5.9396 -2.9389 -0.470 -0.732 0.494 224 204 175 0 0
3.8710 5.9326 -2.9320 -0.409 -0.725 0.555 224 204 175 0 0
3.9989 5.9504 -2.8881 -0.571 -0.627 0.530 225 205 174 0 0
4.0084 5.9634 -2.8879 0.066 -0.748 0.661 223 205 174 0 0
4.0178 5.9773 -2.8881 -0.436 -0.674 0.596 223 205 177 0 0
4.0305 5.9731 -2.8821 -0.505 -0.680 0.531 226 207 180 0 0
4.0438 5.9660 -2.8752 0.564 -0.573 0.595 224 204 176 0 0
4.1241 5.9855 -2.8498 0.126 -0.709 0.694 224 203 174 0 0
4.3149 5.9867 -2.7776 0.231 -0.969 0.092 223 200 168 0 0
4.3263 5.9905 -2.7743 0.152 -0.859 0.489 225 202 170 0 0
4.3374 5.9965 -2.7716 0.451 -0.775 0.442 225 202 172 0 0
4.4910 6.0064 -2.7159 -0.141 -0.611 0.779 227 208 178 0 0
4.6113 5.9931 -2.6666 -0.223 -0.679 0.700 227 208 179 0 0
4.9052 6.0185 -2.5616 -0.331 -0.773 0.541 226 207 177 0 0
5.0937 6.0253 -2.4917 0.147 -0.881 0.450 219 196 161 0 0
5.1054 6.0293 -2.4884 0.382 -0.863 0.330 216 191 156 0 0
5.1979 6.0830 -2.4674 0.078 -0.995 0.060 191 168 135 0 0
5.2097 6.0841 -2.4632 0.078 -0.995 0.060 192 169 137 0 0
5.2215 6.0866 -2.4594 -0.059 -0.981 -0.184 194 170 138 0 0
5.3009 6.2740 -2.4789 0.842 -0.456 -0.288 194 171 141 0 0
5.3602 6.3919 -2.4876 0.740 -0.642 0.203 193 170 138 0 0
5.3723 6.4071 -2.4871 0.692 -0.690 0.214 195 171 139 0 0
5.6141 7.6353 -2.7208 0.963 -0.009 0.268 191 179 165 0 0
5.6327 7.8820 -2.7791 0.963 -0.009 0.268 228 223 217 0 0
5.7091 8.6435 -2.9520 0.061 -0.790 0.610 225 223 218 0 0
5.7243 8.6293 -2.9424 -0.114 -0.718 0.687 226 224 219 0 0
5.7401 8.6403 -2.9393 -0.236 -0.902 0.361 227 224 220 0 0
5.7864 8.6295 -2.9189 -0.491 -0.867 -0.091 229 226 221 0 0
6.3130 9.0327 -2.8256 0.868 -0.198 0.455 223 222 215 0 0
6.3573 9.1828 -2.8485 0.674 -0.400 0.621 223 220 215 0 0
6.4847 8.8266 -2.7056 0.087 -0.938 0.336 218 216 212 0 0
7.1604 7.0832 -1.9865 0.274 -0.962 -0.012 179 163 138 0 0
7.2051 7.0481 -1.9602 0.120 -0.985 -0.127 187 172 147 0 0
7.2169 7.0432 -1.9544 0.093 -0.996 0.002 183 168 142 0 0
7.7528 6.9457 -1.7249 0.107 -0.980 -0.170 178 161 135 0 0
7.9373 6.9775 -1.6632 0.244 -0.951 -0.188 191 174 149 0 0
7.9507 6.9805 -1.6589 0.009 -0.956 -0.293 189 172 148 0 0
7.9647 6.9858 -1.6549 0.382 -0.894 -0.233 190 172 148 0 0
8.0738 7.1008 -1.6439 0.456 -0.848 -0.272 190 174 148 0 0
8.2284 7.1488 -1.5979 0.548 -0.785 -0.288 205 187 163 0 0
8.3399 7.3002 -1.5956 0.347 -0.874 -0.339 204 188 163 0 0
8.3570 7.3130 -1.5926 0.588 -0.797 -0.135 208 193 166 0 0
8.3760 7.3321 -1.5904 0.735 -0.643 -0.216 204 189 163 0 0
2.8767 6.6434 -3.5134 -0.653 -0.533 -0.539 234 231 224 0 0
3.3339 5.8919 -3.1390 -0.085 -0.628 0.774 220 197 165 0 0
3.7328 5.9271 -2.9967 -0.448 -0.632 0.632 221 201 171 0 0
3.7457 5.9228 -2.9906 -0.436 -0.644 0.628 219 202 172 0 0
3.8431 5.9144 -2.9514 -0.260 -0.870 0.419 222 202 175 0 0
3.8545 5.9167 -2.9476 -0.105 -0.876 0.471 226 205 178 0 0
3.8676 5.9109 -2.9411 0.034 -0.756 0.653 224 203 176 0 0
4.0143 5.9540 -2.8968 -0.269 -0.780 0.565 224 203 172 0 0
4.0515 5.9465 -2.8807 -0.379 -0.682 0.625 224 204 176 0 0
4.1296 5.9773 -2.8592 0.126 -0.709 0.694 225 204 174 0 0
4.2739 5.9704 -2.8025 -0.016 -0.804 0.594 224 205 175 0 0
4.2978 5.9693 -2.7930 0.173 -0.900 0.401 226 205 176 0 0
4.3091 5.9733 -2.7898 -0.131 -0.806 0.577 225 203 172 0 0
4.8871 5.9995 -2.5770 -0.100 -0.729 0.678 224 204 175 0 0
5.0982 6.0206 -2.5024 0.147 -0.881 0.450 214 188 154 0 0
5.1099 6.0231 -2.4986 0.027 -0.864 0.503 206 179 142 0 0
5.2020 6.0888 -2.4811 0.257 -0.954 -0.153 190 167 134 0 0
5.2138 6.0914 -2.4773 0.257 -0.954 -0.153 192 169 136 0 0
5.3525 6.3767 -2.5006 0.695 -0.697 0.174 195 171 139 0 0
5.3645 6.4023 -2.5029 0.749 -0.655 0.096 196 172 140 0 0
5.6384 7.9037 -2.7994 0.962 -0.007 0.272 226 221 215 0 0
5.7132 8.5823 -2.9520 0.451 -0.721 0.526 227 223 217 0 0
5.7301 8.6346 -2.9596 -0.395 -0.893 0.215 226 223 218 0 0
5.7914 8.6085 -2.9293 -0.733 -0.556 0.392 228 224 221 0 0
6.3804 9.1930 -2.8613 0.416 -0.413 0.810 223 219 216 0 0
6.4040 8.7352 -2.7301 0.000 -0.541 0.841 221 218 214 0 0
6.4294 8.8426 -2.7491 0.233 -0.868 0.439 219 218 213 0 0
6.6892 8.7881 -2.6358 -0.106 -0.985 0.136 215 213 211 0 0
6.7059 8.7981 -2.6321 0.439 -0.896 0.069 214 212 211 0 0
6.7688 8.8037 -2.6097 -0.827 -0.248 0.505 209 208 206 0 0
6.7070 7.8466 -2.3778 0.388 -0.441 0.809 205 204 201 0 0
6.9670 7.2107 -2.1092 0.029 -0.773 -0.633 179 165 139 0 0
7.1993 7.0594 -1.9805 -0.236 -0.910 -0.340 186 172 146 0 0
7.2105 7.0505 -1.9739 0.120 -0.985 -0.127 188 172 147 0 0
