ply
format ascii 1.0
element vertex 832
property float x
property float y
property float z
property float nx
property float ny
property float nz
property uchar diffuse_red
property uchar diffuse_green
property uchar diffuse_blue
property uchar class
property uchar detection
end_header
2.9268 7.7557 -1.9593 -0.244 -0.868 0.432 224 203 172 0 0
2.9413 7.7556 -1.9546 -0.336 -0.841 0.425 222 200 169 0 0
3.0411 7.7638 -1.9233 -0.136 -0.605 0.785 226 206 177 0 0
3.1665 7.7922 -1.8855 -0.202 -0.689 0.697 221 202 172 0 0
3.3898 7.8519 -1.8190 0.139 -0.969 -0.205 226 207 177 0 0
3.6699 7.8281 -1.7268 -0.232 -0.812 0.535 225 204 175 0 0
3.7299 7.8119 -1.7061 0.170 -0.805 0.569 227 206 180 0 0
3.8721 7.8409 -1.6629 -0.375 -0.849 0.373 224 200 172 0 0
3.9330 7.8123 -1.6408 -0.197 -0.849 0.490 228 207 178 0 0
3.9764 7.8138 -1.6270 -0.220 -0.920 0.325 226 207 177 0 0
3.9911 7.8121 -1.6221 -0.220 -0.866 0.449 228 208 181 0 0
4.3381 7.8269 -1.5118 -0.365 -0.652 0.664 226 203 173 0 0
4.3528 7.8219 -1.5066 -0.418 -0.675 0.608 227 205 177 0 0
4.4687 7.8250 -1.4697 0.112 -0.976 0.186 221 199 170 0 0
4.4831 7.8275 -1.4652 0.112 -0.976 0.186 228 207 178 0 0
4.4975 7.8300 -1.4608 0.112 -0.976 0.186 231 210 179 0 0
4.5122 7.8220 -1.4554 -0.064 -0.988 0.143 227 205 174 0 0
4.6147 7.7734 -1.4181 -0.445 -0.546 0.710 227 206 175 0 0
4.7951 9.4769 -1.5124 0.180 -0.783 -0.595 122 74 57 0 0
5.1545 9.6199 -1.4096 0.460 -0.887 0.027 112 61 46 0 0
5.1717 9.6225 -1.4043 0.387 -0.910 -0.150 116 64 49 0 0
5.3464 9.7013 -1.3551 0.328 -0.939 -0.101 106 56 39 0 0
5.5403 9.7736 -1.2992 0.083 -0.975 0.204 119 65 49 0 0
5.8467 9.9110 -1.2130 0.328 -0.871 -0.367 106 59 43 0 0
6.3067 10.0924 -1.0813 0.344 -0.909 -0.237 113 66 50 0 0
6.3814 10.1211 -1.0598 0.261 -0.957 0.125 136 85 66 0 0
6.3175 8.5406 -0.9391 0.899 -0.306 -0.314 213 195 163 0 0
6.2606 7.8351 -0.8943 -0.872 -0.279 0.403 219 198 170 0 0
6.3603 7.5598 -0.8376 -0.472 -0.825 0.312 222 202 175 0 0
6.3733 7.5541 -0.8329 -0.472 -0.825 0.312 223 203 176 0 0
6.5406 7.3997 -0.7653 -0.653 -0.653 0.384 224 203 175 0 0
6.5526 7.3905 -0.7606 -0.648 -0.634 0.421 220 199 171 0 0
6.6237 7.3328 -0.7326 -0.615 -0.662 0.428 216 197 165 0 0
6.7321 7.2638 -0.6916 -0.509 -0.697 0.505 217 202 173 0 0
6.7679 7.2415 -0.6781 -0.254 -0.868 0.427 208 188 157 0 0
6.7800 7.2349 -0.6736 -0.485 -0.790 0.376 209 189 157 0 0
6.9253 7.1638 -0.6205 0.238 -0.961 0.144 223 202 173 0 0
6.9511 7.1601 -0.6119 0.014 -0.991 0.136 218 198 166 0 0
6.9649 7.1620 -0.6076 0.116 -0.958 0.262 212 193 161 0 0
6.9939 7.1713 -0.5991 0.341 -0.918 0.202 199 178 147 0 0
7.0070 7.1704 -0.5948 -0.071 -0.858 0.509 204 185 153 0 0
7.0678 7.1459 -0.5731 -0.302 -0.772 0.559 212 195 165 0 0
7.1998 7.1413 -0.5302 -0.522 -0.824 -0.222 216 199 171 0 0
7.2128 7.1402 -0.5259 0.283 -0.942 0.183 218 201 173 0 0
7.3654 7.1625 -0.4789 -0.597 -0.793 0.121 222 205 177 0 0
7.5049 7.2293 -0.4400 0.011 -0.871 0.491 223 206 178 0 0
1.7131 8.5767 -2.4404 -0.420 -0.698 0.580 168 117 96 0 0
2.0057 8.5449 -2.3434 -0.132 -0.962 0.241 138 88 67 0 0
2.0351 8.5524 -2.3346 0.209 -0.959 0.190 168 112 93 0 0
2.0635 8.5638 -2.3265 -0.106 -0.969 0.222 167 110 92 0 0
2.7804 7.7834 -2.0249 0.287 -0.933 0.216 226 199 170 0 0
2.7711 7.8961 -2.0381 -0.810 -0.382 0.445 224 200 171 0 0
2.7902 7.8749 -2.0300 -0.785 -0.537 0.310 224 201 170 0 0
2.9331 7.7462 -1.9724 -0.410 -0.794 0.449 221 200 170 0 0
3.0619 7.7536 -1.9316 -0.568 -0.724 0.391 226 207 179 0 0
3.0763 7.7538 -1.9270 -0.710 -0.674 0.201 227 206 179 0 0
3.3937 7.8558 -1.8342 0.007 -0.972 -0.234 224 204 175 0 0
3.4387 7.8480 -1.8190 -0.578 -0.806 -0.126 226 206 177 0 0
3.4573 7.8198 -1.8105 -0.248 -0.884 -0.397 226 205 176 0 0
3.4725 7.8154 -1.8052 -0.425 -0.876 -0.228 226 205 176 0 0
3.4871 7.8147 -1.8004 -0.227 -0.963 0.147 228 207 178 0 0
3.6960 7.7691 -1.7291 0.198 -0.809 0.554 225 206 176 0 0
3.7223 7.7910 -1.7226 0.172 -0.841 0.512 228 208 179 0 0
3.7354 7.8037 -1.7196 0.099 -0.730 0.676 226 206 180 0 0
3.8501 7.8165 -1.6839 -0.702 -0.694 0.163 226 205 176 0 0
3.9534 7.7981 -1.6490 -0.254 -0.754 0.606 230 209 181 0 0
3.9679 7.7974 -1.6442 -0.250 -0.870 0.424 229 208 179 0 0
3.9825 7.7968 -1.6395 -0.209 -0.837 0.505 229 210 180 0 0
3.9964 7.8028 -1.6355 -0.253 -0.887 0.386 227 206 177 0 0
4.1982 7.8180 -1.5720 -0.041 -0.798 0.602 229 210 182 0 0
4.3437 7.8078 -1.5243 -0.315 -0.654 0.688 226 205 174 0 0
4.3582 7.8059 -1.5195 -0.315 -0.654 0.688 229 208 179 0 0
4.5459 7.8180 -1.4602 -0.420 -0.842 0.338 228 204 174 0 0
4.5610 7.7980 -1.4535 -0.015 -0.989 0.144 224 202 173 0 0
4.5760 7.7765 -1.4467 0.429 -0.903 -0.038 227 208 177 0 0
4.5905 7.7730 -1.4418 -0.088 -0.971 0.223 223 203 172 0 0
4.6046 7.7866 -1.4385 -0.208 -0.914 0.347 232 208 178 0 0
4.8174 9.4977 -1.5258 0.289 -0.871 -0.397 124 75 56 0 0
4.8344 9.4842 -1.5191 0.350 -0.874 -0.337 113 66 47 0 0
5.1602 9.6257 -1.4273 0.470 -0.827 -0.308 119 66 49 0 0
5.9812 9.9746 -1.1950 0.426 -0.829 -0.363 116 65 48 0 0
6.2774 10.0957 -1.1107 0.269 -0.837 -0.477 128 79 64 0 0
6.2949 10.0937 -1.1049 0.340 -0.871 -0.354 129 81 65 0 0
6.3133 10.0987 -1.0994 0.340 -0.871 -0.354 113 66 50 0 0
6.3258 8.5634 -0.9556 0.824 -0.325 -0.464 214 195 165 0 0
6.3555 7.5881 -0.8573 -0.713 -0.649 -0.266 222 202 175 0 0
6.3637 7.5526 -0.8514 -0.472 -0.825 0.312 223 203 176 0 0
6.3770 7.5484 -0.8467 -0.551 -0.806 0.218 224 204 177 0 0
6.6250 7.3156 -0.7458 -0.758 -0.546 0.356 218 197 166 0 0
6.6502 7.3058 -0.7368 -0.134 -0.838 0.528 221 200 171 0 0
6.9037 7.1667 -0.6426 -0.157 -0.893 0.421 224 205 178 0 0
6.9682 7.1566 -0.6209 -0.038 -0.988 0.148 203 183 150 0 0
7.2171 7.1392 -0.5393 0.072 -0.968 0.238 216 199 171 0 0
7.3134 7.1511 -0.5094 -0.049 -0.921 0.387 217 198 167 0 0
7.3700 7.1629 -0.4922 -0.051 -0.900 0.432 218 201 173 0 0
7.4457 7.1942 -0.4708 0.083 -0.863 0.499 221 202 170 0 0
7.4757 7.2056 -0.4621 0.261 -0.815 0.518 223 205 177 0 0
7.6156 7.2253 -0.4189 0.212 -0.705 0.677 226 209 183 0 0
8.2316 8.0469 -0.2956 0.390 -0.263 0.883 246 245 241 0 0
1.7524 8.5135 -2.4392 -0.379 -0.815 0.439 164 113 94 0 0
1.7881 8.4990 -2.4264 -0.506 -0.756 0.416 171 123 104 0 0
2.0970 8.5743 -2.3340 0.044 -0.943 0.331 158 106 85 0 0
2.1291 8.5718 -2.3235 0.029 -0.980 0.195 126 78 57 0 0
2.1742 8.5805 -2.3098 -0.005 -0.998 0.069 158 107 86 0 0
2.2051 8.5829 -2.3001 0.015 -0.999 -0.045 157 105 84 0 0
2.2307 8.6066 -2.2940 -0.112 -0.993 -0.041 161 109 90 0 0
2.2828 8.5872 -2.2755 0.082 -0.957 0.278 159 111 91 0 0
2.3617 8.5868 -2.2501 0.223 -0.975 0.005 149 97 76 0 0
2.6828 7.6564 -2.0605 0.724 -0.667 0.177 164 112 90 0 0
2.6938 7.6711 -2.0583 0.726 -0.596 0.344 157 107 84 0 0
2.7317 7.6950 -2.0484 -0.055 -0.762 0.645 151 103 82 0 0
2.7461 7.6949 -2.0437 0.523 -0.750 0.404 181 140 116 0 0
2.7710 7.7128 -2.0374 0.400 -0.916 -0.017 224 197 167 0 0
2.7845 7.7171 -2.0334 0.229 -0.964 0.134 220 197 166 0 0
2.7981 7.7212 -2.0294 -0.363 -0.754 0.548 220 199 170 0 0
2.7747 7.9003 -2.0536 -0.638 -0.704 0.312 222 203 173 0 0
2.7922 7.8868 -2.0467 -0.655 -0.718 0.235 223 202 172 0 0
2.8982 7.7259 -1.9977 -0.073 -0.699 0.712 222 202 175 0 0
3.0261 7.7368 -1.9576 0.122 -0.680 0.723 223 204 174 0 0
3.0390 7.7448 -1.9541 -0.155 -0.738 0.657 224 203 174 0 0
3.1284 7.7299 -1.9240 0.187 -0.827 0.531 225 205 175 0 0
3.4043 7.8151 -1.8431 0.535 -0.802 0.267 225 204 174 0 0
3.7286 7.7762 -1.7352 -0.029 -0.776 0.630 227 205 177 0 0
3.7422 7.7837 -1.7316 0.217 -0.794 0.568 227 206 178 0 0
3.9446 7.7858 -1.6667 -0.352 -0.825 0.442 228 207 180 0 0
3.9585 7.7914 -1.6627 -0.276 -0.896 0.347 228 207 180 0 0
4.1035 7.7879 -1.6157 0.110 -0.949 0.295 228 207 177 0 0
4.1151 7.8260 -1.6155 -0.456 -0.842 0.287 225 205 177 0 0
4.6535 7.7347 -1.4339 -0.375 -0.659 0.653 225 202 171 0 0
5.0278 9.5850 -1.4850 -0.128 -0.878 -0.462 111 65 45 0 0
5.3943 9.7476 -1.3822 0.246 -0.963 -0.112 113 64 47 0 0
5.5524 9.7868 -1.3350 0.337 -0.936 -0.099 115 63 47 0 0
5.8074 9.9339 -1.2666 0.150 -0.967 -0.205 124 69 52 0 0
6.2856 10.1158 -1.1296 0.184 -0.903 -0.388 131 79 66 0 0
6.3106 8.5292 -0.9745 0.953 -0.292 -0.081 216 196 165 0 0
6.3378 8.6115 -0.9734 0.931 -0.314 -0.187 219 199 170 0 0
6.5918 7.3317 -0.7731 -0.519 -0.736 0.435 216 196 170 0 0
6.6537 7.3000 -0.7502 -0.062 -0.797 0.600 222 199 171 0 0
6.8919 7.1537 -0.6600 -0.011 -0.894 0.448 224 204 177 0 0
6.9042 7.1493 -0.6556 0.093 -0.936 0.340 223 203 175 0 0
6.9185 7.1533 -0.6514 0.129 -0.873 0.471 216 195 165 0 0
7.5894 7.2120 -0.4411 -0.066 -0.951 0.303 226 209 183 0 0
8.2084 7.9645 -0.3117 0.499 -0.298 0.814 246 245 239 0 0
1.3768 9.0702 -2.6299 -0.839 -0.533 -0.109 234 229 226 0 0
1.9921 8.5144 -2.3795 -0.085 -0.968 0.237 139 91 75 0 0
2.0593 8.5561 -2.3618 0.034 -0.996 0.077 173 119 102 0 0
2.0764 8.5511 -2.3558 -0.231 -0.961 0.153 168 117 98 0 0
2.2619 8.5636 -2.2973 -0.204 -0.913 0.352 164 112 93 0 0
2.2782 8.5613 -2.2919 -0.301 -0.932 0.202 157 107 87 0 0
2.2903 8.5762 -2.2894 -0.117 -0.943 0.312 164 114 94 0 0
2.3668 8.5854 -2.2656 0.291 -0.937 0.192 153 101 79 0 0
2.3842 8.5786 -2.2594 -0.303 -0.947 0.110 169 118 96 0 0
2.3956 8.5971 -2.2575 -0.004 -0.997 0.075 165 112 91 0 0
2.6861 7.6610 -2.0757 0.676 -0.691 -0.256 155 103 81 0 0
2.6981 7.6717 -2.0729 0.681 -0.692 -0.240 166 112 91 0 0
2.7508 7.6934 -2.0580 0.780 -0.620 0.086 227 197 168 0 0
2.7749 7.7153 -2.0523 0.507 -0.862 -0.003 210 189 157 0 0
2.7891 7.7162 -2.0478 0.229 -0.964 0.134 211 190 160 0 0
2.8202 7.7060 -2.0368 -0.600 -0.792 0.111 224 205 175 0 0
2.8368 7.6951 -2.0304 -0.067 -0.702 0.709 221 201 173 0 0
2.9020 7.7289 -2.0127 -0.325 -0.800 0.505 229 209 182 0 0
3.1342 7.7226 -1.9374 0.187 -0.827 0.531 226 205 174 0 0
3.2888 7.7473 -1.8900 0.224 -0.824 0.520 224 203 175 0 0
3.3619 7.7416 -1.8659 -0.211 -0.715 0.667 225 205 175 0 0
3.7808 7.7372 -1.7307 0.181 -0.655 0.734 222 203 173 0 0
3.8081 7.7515 -1.7233 0.189 -0.829 0.526 227 208 178 0 0
4.1082 7.7858 -1.6300 -0.019 -0.905 0.424 229 206 177 0 0
4.1367 7.7916 -1.6214 0.121 -0.772 0.623 228 208 181 0 0
4.6433 7.7560 -1.4551 -0.068 -0.791 0.608 226 203 173 0 0
4.6576 7.7582 -1.4507 -0.036 -0.772 0.634 228 204 175 0 0
4.9816 9.5497 -1.5155 0.247 -0.919 -0.307 92 47 29 0 0
5.4000 9.7511 -1.3999 0.246 -0.963 -0.112 106 57 41 0 0
5.8135 9.9387 -1.2846 0.150 -0.967 -0.205 110 57 41 0 0
5.8493 9.9456 -1.2737 0.076 -0.986 -0.150 123 70 53 0 0
6.1237 10.0466 -1.1950 0.383 -0.916 -0.117 117 65 47 0 0
6.3227 8.5783 -0.9924 0.938 -0.297 -0.181 217 196 168 0 0
6.5941 7.3200 -0.7864 -0.458 -0.705 0.543 211 192 165 0 0
6.6158 7.2914 -0.7767 -0.611 -0.626 0.484 215 195 165 0 0
6.6403 7.2781 -0.7675 -0.445 -0.733 0.514 220 201 170 0 0
6.8949 7.1470 -0.6733 -0.011 -0.894 0.448 218 197 167 0 0
6.9087 7.1490 -0.6690 -0.011 -0.894 0.448 216 195 165 0 0
7.2087 7.1238 -0.5701 -0.281 -0.871 0.403 214 197 167 0 0
7.5908 7.2016 -0.4546 -0.041 -0.974 0.222 226 209 183 0 0
7.6049 7.2040 -0.4502 0.127 -0.937 0.325 226 209 183 0 0
7.7995 7.3096 -0.3976 0.061 -0.892 0.448 228 212 188 0 0
7.8310 7.3233 -0.3888 -0.260 -0.897 0.358 228 212 187 0 0
8.2780 8.0675 -0.3152 0.611 -0.345 0.712 244 246 243 0 0
8.3586 8.2146 -0.3032 0.171 -0.219 0.961 246 246 243 0 0
1.9821 8.5107 -2.3996 0.000 -0.995 0.098 149 99 82 0 0
1.9979 8.5103 -2.3945 -0.085 -0.968 0.237 162 112 96 0 0
2.0059 8.5385 -2.3946 -0.283 -0.959 0.023 161 111 95 0 0
2.0225 8.5353 -2.3890 -0.301 -0.952 0.061 165 113 96 0 0
2.0817 8.5489 -2.3712 -0.232 -0.972 -0.022 156 105 86 0 0
2.0963 8.5530 -2.3669 -0.101 -0.982 0.161 153 102 81 0 0
2.3554 8.5874 -2.2869 -0.172 -0.906 0.386 157 106 83 0 0
2.3747 8.5723 -2.2792 0.352 -0.921 -0.168 158 108 85 0 0
2.3841 8.5995 -2.2788 0.232 -0.928 -0.293 160 110 87 0 0
2.6997 7.6837 -2.0893 0.669 -0.567 -0.481 171 131 105 0 0
2.7211 7.7174 -2.0857 0.252 -0.669 0.699 225 197 167 0 0
2.7554 7.6925 -2.0723 0.687 -0.700 0.195 217 193 163 0 0
2.8831 7.7015 -2.0320 -0.002 -0.716 0.699 226 206 178 0 0
2.9244 7.7111 -2.0197 -0.499 -0.751 0.433 228 208 183 0 0
3.3985 7.7201 -1.8680 -0.452 -0.664 0.595 227 208 178 0 0
3.5673 7.7506 -1.8166 0.057 -0.759 0.649 226 205 176 0 0
3.5814 7.7533 -1.8124 -0.112 -0.817 0.566 229 210 180 0 0
3.5957 7.7545 -1.8079 -0.112 -0.817 0.566 229 209 181 0 0
3.8034 7.7030 -1.7361 -0.345 -0.793 0.502 224 205 175 0 0
4.4181 7.7456 -1.5424 0.306 -0.759 0.575 226 205 175 0 0
4.6338 7.7418 -1.4727 -0.213 -0.679 0.702 230 209 179 0 0
4.8678 9.5458 -1.5706 -0.150 -0.942 -0.301 98 55 39 0 0
4.8848 9.5413 -1.5647 -0.150 -0.942 -0.301 113 70 54 0 0
4.9530 9.5518 -1.5438 0.080 -0.911 0.404 113 70 54 0 0
4.9702 9.5619 -1.5392 0.100 -0.982 -0.158 110 65 48 0 0
4.9872 9.5571 -1.5333 0.247 -0.919 -0.307 116 69 51 0 0
5.4952 9.8049 -1.3936 0.300 -0.950 0.084 103 51 33 0 0
5.7465 9.9069 -1.3226 0.496 -0.858 -0.136 99 48 33 0 0
5.7648 9.9167 -1.3176 0.496 -0.858 -0.136 104 53 38 0 0
5.8375 9.9470 -1.2971 0.060 -0.968 -0.244 118 65 50 0 0
5.8553 9.9495 -1.2917 0.085 -0.986 0.147 117 65 50 0 0
5.8739 9.9611 -1.2868 0.406 -0.898 -0.169 119 67 53 0 0
6.3065 8.5368 -1.0109 0.935 -0.296 -0.193 211 190 160 0 0
6.8979 7.1404 -0.6865 -0.011 -0.894 0.448 204 183 152 0 0
6.9116 7.1423 -0.6823 -0.011 -0.894 0.448 196 175 144 0 0
7.6407 7.2183 -0.4550 0.094 -0.982 0.167 226 208 184 0 0
7.8192 7.3144 -0.4068 0.058 -0.913 0.405 227 211 188 0 0
7.8337 7.3170 -0.4024 -0.260 -0.897 0.358 228 212 187 0 0
7.8471 7.3167 -0.3981 -0.264 -0.833 0.487 232 216 191 0 0
2.2565 8.5602 -2.3334 -0.275 -0.955 0.111 169 116 98 0 0
2.2889 8.5564 -2.3226 -0.011 -0.969 0.246 155 103 84 0 0
2.9178 7.6942 -2.0361 -0.143 -0.659 0.738 226 206 179 0 0
2.9321 7.6950 -2.0315 -0.297 -0.614 0.731 226 206 179 0 0
2.9459 7.6979 -2.0274 -0.204 -0.617 0.760 226 206 179 0 0
3.7327 7.7327 -1.7776 -0.316 -0.671 0.671 229 205 176 0 0
3.9337 7.7385 -1.7135 -0.256 -0.716 0.649 224 205 175 0 0
4.2087 7.7166 -1.6229 -0.760 -0.604 0.238 222 201 170 0 0
4.5668 7.7339 -1.5094 0.129 -0.702 0.700 229 208 177 0 0
4.8903 9.5528 -1.5829 -0.148 -0.977 -0.155 105 60 45 0 0
5.2012 9.6835 -1.4957 0.033 -0.998 -0.052 105 53 38 0 0
5.4833 9.8021 -1.4165 0.266 -0.964 -0.013 113 61 45 0 0
5.5010 9.8069 -1.4112 0.266 -0.964 -0.013 123 70 54 0 0
5.6801 9.8795 -1.3607 0.511 -0.824 0.245 106 56 39 0 0
5.6978 9.8822 -1.3553 0.228 -0.884 0.409 102 53 37 0 0
5.8433 9.9476 -1.3148 0.417 -0.906 -0.068 118 66 53 0 0
5.8609 9.9474 -1.3092 0.085 -0.986 0.147 103 51 38 0 0
6.2326 10.1211 -1.2065 0.142 -0.990 -0.003 117 64 48 0 0
6.3346 7.6049 -0.9280 -0.661 -0.508 0.552 220 200 173 0 0
6.7051 7.2195 -0.7711 -0.642 -0.703 0.304 218 199 169 0 0
6.7876 7.1651 -0.7392 -0.599 -0.734 0.320 216 199 170 0 0
6.8126 7.1569 -0.7304 -0.046 -0.794 0.607 215 198 168 0 0
6.8866 7.1295 -0.7039 -0.036 -0.930 0.367 206 186 153 0 0
6.9010 7.1345 -0.6998 -0.063 -0.853 0.517 201 181 148 0 0
6.9145 7.1351 -0.6955 -0.150 -0.907 0.393 198 177 146 0 0
7.0824 7.1141 -0.6394 -0.038 -0.979 0.202 212 195 165 0 0
7.2958 7.1177 -0.5711 0.030 -0.904 0.426 216 198 168 0 0
7.3098 7.1201 -0.5668 0.030 -0.904 0.426 215 197 167 0 0
7.3237 7.1226 -0.5626 0.030 -0.904 0.426 216 199 171 0 0
7.3372 7.1234 -0.5583 -0.229 -0.864 0.448 215 200 172 0 0
7.4770 7.1474 -0.5157 -0.016 -0.899 0.437 216 199 172 0 0
7.6266 7.2010 -0.4728 0.294 -0.878 0.378 220 203 177 0 0
7.6431 7.2113 -0.4685 0.053 -0.968 0.245 221 204 178 0 0
7.6693 7.2093 -0.4599 -0.249 -0.807 0.536 223 207 182 0 0
7.8226 7.3103 -0.4204 0.178 -0.856 0.485 229 213 188 0 0
7.8368 7.3124 -0.4160 0.214 -0.894 0.394 228 212 187 0 0
7.8492 7.3089 -0.4117 -0.297 -0.852 0.431 230 214 189 0 0
8.3236 8.0020 -0.3268 0.347 -0.372 0.861 245 245 243 0 0
2.3241 8.5607 -2.3291 0.245 -0.862 0.444 163 113 92 0 0
2.9435 7.6598 -2.0403 -0.457 -0.757 0.467 230 210 183 0 0
2.9730 7.6556 -2.0303 -0.290 -0.681 0.672 227 207 180 0 0
3.4096 7.7056 -1.8948 -0.284 -0.803 0.524 227 208 180 0 0
3.7720 7.6793 -1.7756 -0.547 -0.826 0.135 228 205 174 0 0
3.7859 7.6824 -1.7714 -0.284 -0.820 0.496 229 206 177 0 0
3.8149 7.6797 -1.7618 -0.166 -0.829 0.534 228 209 180 0 0
3.8295 7.6773 -1.7569 -0.405 -0.895 0.185 223 204 174 0 0
4.4423 7.7288 -1.5648 -0.034 -0.775 0.631 220 200 170 0 0
4.5290 7.7110 -1.5351 -0.248 -0.867 0.432 227 207 179 0 0
4.5434 7.7102 -1.5304 -0.567 -0.824 0.019 230 209 180 0 0
4.5862 7.7169 -1.5173 0.349 -0.783 0.514 231 209 178 0 0
4.7302 7.6505 -1.4644 0.218 -0.968 -0.126 230 206 177 0 0
4.7447 7.6236 -1.4570 0.366 -0.807 0.463 229 207 176 0 0
4.8011 7.6978 -1.4463 0.023 -0.316 0.948 229 205 176 0 0
4.8154 7.7096 -1.4428 0.008 -0.305 0.952 226 196 169 0 0
4.9813 9.5737 -1.5746 -0.018 -0.992 0.126 117 68 52 0 0
5.3821 9.7488 -1.4630 0.346 -0.858 -0.379 115 66 51 0 0
5.4892 9.8070 -1.4343 0.321 -0.914 -0.248 111 62 47 0 0
5.6144 9.8587 -1.3992 0.280 -0.959 0.047 108 61 45 0 0
5.6861 9.8831 -1.3786 0.355 -0.868 0.347 113 64 47 0 0
5.7049 9.9005 -1.3742 0.451 -0.888 0.085 115 66 50 0 0
5.8492 9.9496 -1.3326 0.316 -0.949 0.003 113 64 50 0 0
6.2364 10.1038 -1.2234 0.223 -0.953 -0.206 127 75 59 0 0
6.2616 10.1659 -1.2215 -0.284 -0.942 -0.179 118 65 49 0 0
6.2797 10.1676 -1.2158 0.045 -0.975 -0.217 129 77 61 0 0
6.2974 10.1667 -1.2100 -0.138 -0.922 -0.362 130 79 62 0 0
6.3145 10.1600 -1.2038 0.153 -0.894 -0.421 123 72 53 0 0
6.3138 7.6216 -0.9519 -0.689 -0.410 0.598 214 195 166 0 0
6.3466 7.5623 -0.9355 -0.666 -0.648 0.369 221 201 174 0 0
6.3580 7.5466 -0.9303 -0.688 -0.675 0.266 218 200 173 0 0
6.4030 7.4814 -0.9093 -0.517 -0.688 0.508 223 203 175 0 0
6.4743 7.4136 -0.8796 -0.629 -0.703 0.331 221 203 175 0 0
6.5884 7.2900 -0.8306 -0.305 -0.914 0.268 215 198 168 0 0
6.7700 7.1866 -0.7619 -0.595 -0.797 0.100 222 203 173 0 0
6.7906 7.1579 -0.7525 -0.628 -0.734 0.259 220 203 174 0 0
6.8031 7.1541 -0.7480 -0.443 -0.779 0.444 219 202 172 0 0
6.8156 7.1503 -0.7436 -0.295 -0.800 0.523 219 202 172 0 0
6.8899 7.1246 -0.7172 -0.127 -0.881 0.456 198 178 145 0 0
7.5970 7.1769 -0.4948 0.325 -0.896 0.304 220 203 177 0 0
7.6717 7.2023 -0.4733 -0.259 -0.843 0.471 225 209 183 0 0
7.8062 7.2871 -0.4385 0.262 -0.710 0.653 229 212 188 0 0
7.8392 7.3056 -0.4297 0.172 -0.742 0.648 229 213 188 0 0
8.3184 8.0558 -0.3500 0.539 -0.313 0.782 245 246 243 0 0
1.7497 8.4438 -2.5194 0.028 -0.815 0.579 169 122 103 0 0
1.7648 8.4454 -2.5147 -0.044 -0.863 0.502 165 118 102 0 0
1.7944 8.4508 -2.5058 -0.240 -0.895 0.375 166 118 102 0 0
1.8103 8.4498 -2.5005 -0.223 -0.975 0.003 147 101 84 0 0
2.0393 8.5254 -2.4345 -0.228 -0.960 0.160 149 98 80 0 0
3.0655 7.6444 -2.0153 -0.021 -0.678 0.735 226 207 175 0 0
3.1352 7.6551 -1.9939 -0.418 -0.723 0.551 227 205 176 0 0
3.1789 7.6510 -1.9795 -0.131 -0.682 0.720 228 207 178 0 0
3.1929 7.6529 -1.9751 -0.131 -0.682 0.720 227 208 180 0 0
3.4165 7.6889 -1.9068 -0.008 -0.722 0.692 227 207 180 0 0
3.7756 7.6863 -1.7910 -0.146 -0.755 0.639 222 201 171 0 0
4.1611 7.7056 -1.6689 -0.284 -0.730 0.622 231 210 184 0 0
4.2754 7.7130 -1.6328 -0.479 -0.795 0.371 230 209 178 0 0
4.2902 7.7052 -1.6273 -0.528 -0.785 0.324 229 208 177 0 0
4.3042 7.7106 -1.6233 -0.562 -0.679 0.472 228 208 176 0 0
4.4474 7.7151 -1.5777 -0.024 -0.699 0.715 225 204 175 0 0
4.5627 7.6936 -1.5384 -0.184 -0.787 0.589 225 203 171 0 0
4.6916 7.6797 -1.4955 0.033 -0.809 0.587 228 208 181 0 0
4.7346 7.6631 -1.4800 -0.691 -0.700 0.181 228 206 178 0 0
4.7493 7.6179 -1.4707 0.366 -0.807 0.463 228 206 176 0 0
4.7634 7.6223 -1.4666 -0.429 -0.752 0.501 224 203 172 0 0
4.8201 7.6757 -1.4538 0.008 -0.305 0.952 230 206 175 0 0
4.8343 7.6878 -1.4504 -0.073 -0.376 0.924 227 200 172 0 0
4.8486 7.6947 -1.4465 0.025 -0.229 0.973 182 149 126 0 0
4.9523 9.5451 -1.6000 0.071 -0.995 0.073 114 66 51 0 0
5.1971 9.7489 -1.5418 0.217 -0.972 -0.085 118 70 55 0 0
5.2144 9.7478 -1.5361 0.124 -0.992 -0.018 109 60 45 0 0
5.2323 9.7640 -1.5320 0.020 -0.937 -0.349 110 60 43 0 0
5.6202 9.8596 -1.4168 0.280 -0.959 0.047 100 53 38 0 0
6.0611 10.0735 -1.2965 0.160 -0.927 -0.340 124 73 58 0 0
6.2284 10.1375 -1.2491 0.047 -0.921 -0.387 126 76 61 0 0
6.2682 10.1723 -1.2398 0.018 -0.995 -0.093 133 83 68 0 0
6.2861 10.1720 -1.2340 0.045 -0.975 -0.217 123 73 58 0 0
6.3054 10.1839 -1.2290 0.234 -0.923 -0.305 125 74 59 0 0
6.3217 10.1702 -1.2224 0.177 -0.873 -0.455 128 77 62 0 0
6.2920 7.6329 -0.9758 -0.811 -0.443 0.382 217 200 171 0 0
6.3036 7.6166 -0.9704 -0.737 -0.550 0.393 203 184 154 0 0
6.3157 7.6041 -0.9652 -0.737 -0.550 0.393 222 203 175 0 0
6.3279 7.5918 -0.9601 -0.774 -0.485 0.407 221 201 176 0 0
6.3582 7.5187 -0.9429 -0.732 -0.588 0.345 220 200 173 0 0
6.4051 7.4661 -0.9225 -0.473 -0.844 0.251 222 204 177 0 0
6.4979 7.3661 -0.8825 -0.634 -0.630 0.448 218 202 176 0 0
6.7822 7.1603 -0.7703 -0.631 -0.757 0.170 225 206 177 0 0
6.7937 7.1517 -0.7657 -0.631 -0.757 0.170 224 207 178 0 0
6.8051 7.1427 -0.7611 -0.491 -0.818 0.300 222 205 175 0 0
6.8179 7.1399 -0.7567 -0.458 -0.862 0.217 222 205 174 0 0
6.8303 7.1360 -0.7523 -0.331 -0.886 0.324 220 203 173 0 0
6.8792 7.1163 -0.7346 0.002 -0.907 0.421 200 181 148 0 0
7.0293 7.0775 -0.6824 0.000 -0.953 0.304 207 190 161 0 0
7.0830 7.0805 -0.6654 0.141 -0.977 0.159 210 193 164 0 0
7.5464 7.1264 -0.5209 0.125 -0.905 0.407 213 196 166 0 0
7.7020 7.1989 -0.4782 0.086 -0.988 0.127 224 208 183 0 0
7.7881 7.2585 -0.4565 0.288 -0.907 0.307 230 212 188 0 0
7.8415 7.2983 -0.4433 0.072 -0.879 0.471 228 212 188 0 0
8.2880 7.9548 -0.3659 0.606 -0.386 0.696 244 245 241 0 0
8.3255 8.0203 -0.3604 0.726 -0.427 0.539 245 245 243 0 0
8.3682 8.0996 -0.3547 0.826 -0.438 0.355 245 245 243 0 0
1.8020 8.4409 -2.5195 -0.137 -0.959 0.247 180 135 120 0 0
1.8163 8.4453 -2.5153 -0.144 -0.984 0.101 179 133 118 0 0
1.8323 8.4438 -2.5100 0.123 -0.989 -0.083 161 114 100 0 0
1.8474 8.4453 -2.5053 0.156 -0.983 -0.096 162 114 101 0 0
2.0445 8.5237 -2.4499 -0.047 -0.991 0.128 169 118 98 0 0
2.0925 8.5202 -2.4341 -0.091 -0.995 0.033 138 83 61 0 0
2.2917 8.5392 -2.3720 -0.225 -0.974 -0.013 167 117 96 0 0
2.9314 7.6210 -2.0718 -0.584 -0.785 0.208 228 208 181 0 0
2.9465 7.6168 -2.0665 -0.406 -0.857 0.317 228 208 180 0 0
2.9616 7.6128 -2.0613 -0.318 -0.924 0.213 226 206 178 0 0
2.9884 7.6215 -2.0535 -0.384 -0.698 0.605 226 206 179 0 0
3.1857 7.6372 -1.9917 -0.132 -0.764 0.631 226 206 177 0 0
3.2012 7.6300 -1.9859 0.072 -0.783 0.618 224 204 174 0 0
3.2140 7.6387 -1.9827 0.109 -0.747 0.656 225 206 177 0 0
3.2831 7.6536 -1.9620 -0.254 -0.812 0.525 225 205 178 0 0
3.2976 7.6522 -1.9571 -0.254 -0.812 0.525 221 199 171 0 0
3.3250 7.6602 -1.9492 0.138 -0.834 0.534 225 204 174 0 0
3.4209 7.6892 -1.9213 -0.242 -0.754 0.610 224 204 176 0 0
3.7670 7.6751 -1.8084 -0.329 -0.658 0.677 227 206 176 0 0
3.9384 7.6795 -1.7537 -0.431 -0.772 0.467 220 195 165 0 0
3.9526 7.6816 -1.7494 -0.325 -0.752 0.573 224 200 170 0 0
3.9671 7.6791 -1.7444 -0.325 -0.752 0.573 226 203 174 0 0
3.9811 7.6832 -1.7404 -0.016 -0.674 0.738 227 206 175 0 0
3.9955 7.6821 -1.7356 0.056 -0.780 0.623 226 205 174 0 0
4.0096 7.6841 -1.7313 0.073 -0.733 0.676 228 206 176 0 0
4.0240 7.6833 -1.7265 0.023 -0.789 0.614 228 206 176 0 0
4.2953 7.6941 -1.6403 -0.419 -0.657 0.626 226 206 175 0 0
4.3252 7.6721 -1.6285 -0.129 -0.645 0.753 219 199 169 0 0
4.3393 7.6750 -1.6242 -0.059 -0.730 0.681 226 204 173 0 0
4.3536 7.6751 -1.6196 -0.189 -0.832 0.521 230 209 179 0 0
4.4529 7.6923 -1.5894 -0.032 -0.726 0.687 227 205 176 0 0
4.8674 7.6712 -1.4539 0.042 -0.259 0.965 205 174 150 0 0
4.9923 9.5756 -1.6091 0.225 -0.972 0.066 117 68 50 0 0
5.8122 10.0014 -1.3889 -0.343 -0.926 -0.157 118 68 54 0 0
6.2342 10.1375 -1.2671 0.063 -0.891 -0.449 128 80 64 0 0
6.2743 10.1741 -1.2579 0.018 -0.995 -0.093 136 87 72 0 0
6.2944 10.1922 -1.2533 0.200 -0.959 -0.201 126 77 62 0 0
6.3127 10.1948 -1.2477 0.200 -0.959 -0.201 129 79 64 0 0
6.3299 10.1894 -1.2416 0.007 -0.947 -0.321 133 83 68 0 0
6.3476 10.1875 -1.2357 0.007 -0.947 -0.321 130 83 68 0 0
6.1203 8.1300 -1.0977 0.661 -0.735 0.152 120 74 58 0 0
6.2951 7.6226 -0.9894 -0.821 -0.513 0.250 209 191 161 0 0
6.3057 7.6001 -0.9836 -0.726 -0.656 0.205 213 196 166 0 0
6.3183 7.5908 -0.9786 -0.741 -0.620 0.259 219 202 174 0 0
6.3293 7.5716 -0.9731 -0.789 -0.607 0.096 217 200 173 0 0
6.3416 7.5606 -0.9680 -0.850 -0.525 0.054 224 207 181 0 0
6.4083 7.4576 -0.9360 -0.576 -0.801 0.162 223 207 179 0 0
6.4212 7.4521 -0.9313 -0.602 -0.762 0.238 223 206 179 0 0
6.5590 7.3023 -0.8715 -0.386 -0.898 0.212 217 200 172 0 0
6.8151 7.1067 -0.7691 -0.035 -0.988 0.149 220 203 171 0 0
6.8685 7.1081 -0.7520 0.081 -0.957 0.280 201 182 150 0 0
6.9985 7.0959 -0.7089 -0.252 -0.920 0.301 202 184 152 0 0
7.0869 7.0782 -0.6787 0.088 -0.989 0.121 212 195 167 0 0
7.1006 7.0800 -0.6744 0.088 -0.989 0.121 211 194 166 0 0
7.2431 7.0688 -0.6274 0.094 -0.922 0.376 212 194 164 0 0
7.3702 7.0980 -0.5895 0.015 -0.846 0.532 210 194 165 0 0
7.4922 7.1075 -0.5512 -0.097 -0.891 0.443 215 198 167 0 0
7.5057 7.1081 -0.5469 -0.097 -0.891 0.443 213 193 164 0 0
7.6722 7.1746 -0.5002 -0.229 -0.921 0.316 221 205 179 0 0
7.8918 7.3136 -0.4437 0.436 -0.827 0.354 229 213 189 0 0
7.9090 7.3245 -0.4393 0.436 -0.827 0.354 231 215 189 0 0
8.2811 7.9209 -0.3808 0.641 -0.385 0.664 246 245 240 0 0
8.3644 8.0746 -0.3697 0.759 -0.413 0.503 245 246 244 0 0
2.0498 8.5214 -2.4653 -0.047 -0.991 0.128 149 97 75 0 0
2.0655 8.5213 -2.4602 -0.047 -0.991 0.128 162 110 89 0 0
2.0826 8.5164 -2.4542 0.155 -0.959 0.239 166 114 93 0 0
2.5765 7.5681 -2.1963 -0.630 -0.611 0.480 178 129 107 0 0
2.5975 7.5996 -2.1928 0.097 -0.491 0.866 190 142 121 0 0
2.9533 7.6047 -2.0788 -0.582 -0.751 0.311 226 205 176 0 0
3.1784 7.6221 -2.0082 -0.213 -0.657 0.723 227 206 177 0 0
3.1926 7.6225 -2.0037 -0.213 -0.657 0.723 224 203 174 0 0
3.2616 7.6370 -1.9830 -0.095 -0.745 0.660 225 205 177 0 0
3.4273 7.6765 -1.9338 -0.115 -0.715 0.690 223 203 172 0 0
3.9585 7.6657 -1.7616 -0.256 -0.799 0.544 223 201 169 0 0
3.9736 7.6577 -1.7560 0.073 -0.733 0.676 228 207 176 0 0
3.9874 7.6627 -1.7520 0.073 -0.733 0.676 226 205 175 0 0
4.0151 7.6727 -1.7442 0.073 -0.733 0.676 225 202 172 0 0
4.4306 7.6504 -1.6081 0.103 -0.695 0.712 227 204 173 0 0
4.7866 7.6357 -1.4919 -0.420 -0.701 0.576 230 210 180 0 0
4.8150 7.6423 -1.4835 0.230 -0.639 0.734 228 207 178 0 0
5.1560 9.7388 -1.5924 0.144 -0.931 0.336 123 76 59 0 0
5.1733 9.7376 -1.5867 0.058 -0.989 0.136 111 64 48 0 0
5.1908 9.7423 -1.5816 0.131 -0.972 0.197 116 67 50 0 0
5.2785 9.7729 -1.5565 0.076 -0.855 -0.512 117 66 47 0 0
5.3302 9.7622 -1.5388 0.254 -0.934 -0.250 108 60 40 0 0
5.8180 10.0023 -1.4068 -0.343 -0.926 -0.157 100 54 38 0 0
6.2062 10.1528 -1.2975 0.385 -0.852 -0.354 116 69 53 0 0
6.2243 10.1554 -1.2919 0.133 -0.970 -0.203 119 74 58 0 0
6.3011 10.1988 -1.2718 0.394 -0.797 -0.457 130 82 67 0 0
6.2344 7.7558 -1.0384 -0.797 -0.554 0.242 205 184 157 0 0
6.2463 7.7391 -1.0329 -0.803 -0.572 0.167 218 198 170 0 0
6.2978 7.6101 -1.0028 -0.725 -0.594 0.350 219 199 171 0 0
6.3098 7.5966 -0.9976 -0.722 -0.644 0.251 221 204 175 0 0
6.3218 7.5831 -0.9923 -0.774 -0.589 0.232 219 202 174 0 0
6.3336 7.5691 -0.9871 -0.747 -0.625 0.225 217 200 173 0 0
6.3451 7.5532 -0.9817 -0.797 -0.513 0.319 216 199 173 0 0
6.3991 7.4580 -0.9544 -0.580 -0.743 0.335 218 201 175 0 0
6.5027 7.3420 -0.9089 -0.560 -0.609 0.561 221 204 176 0 0
6.5631 7.2996 -0.8851 -0.613 -0.752 0.243 215 198 168 0 0
6.5756 7.2937 -0.8805 -0.427 -0.885 0.186 214 197 165 0 0
6.6392 7.2718 -0.8577 -0.338 -0.938 0.078 218 202 176 0 0
6.6486 7.2511 -0.8525 -0.484 -0.828 0.285 219 203 177 0 0
6.7398 7.1703 -0.8147 -0.257 -0.873 0.416 216 196 164 0 0
6.8339 7.1115 -0.7783 0.004 -0.998 -0.066 195 175 144 0 0
6.8471 7.1113 -0.7740 0.004 -0.998 -0.066 193 172 141 0 0
6.9504 7.0981 -0.7394 -0.095 -0.972 0.214 210 191 162 0 0
7.0291 7.0942 -0.7137 0.139 -0.967 0.212 209 190 160 0 0
7.1472 7.0383 -0.6698 0.407 -0.879 0.248 209 190 159 0 0
7.1616 7.0430 -0.6657 0.170 -0.922 0.348 207 188 156 0 0
7.1762 7.0483 -0.6615 0.050 -0.924 0.378 206 187 155 0 0
7.2070 7.0651 -0.6534 0.209 -0.918 0.336 211 194 162 0 0
7.2198 7.0635 -0.6491 0.117 -0.987 -0.107 213 196 166 0 0
7.2348 7.0705 -0.6450 0.004 -0.992 0.125 210 193 163 0 0
7.2487 7.0728 -0.6407 -0.061 -0.997 -0.050 212 195 165 0 0
7.2593 7.0632 -0.6363 -0.224 -0.961 0.161 213 194 164 0 0
7.4156 7.1018 -0.5901 0.260 -0.914 0.310 218 201 173 0 0
7.4535 7.0956 -0.5772 -0.201 -0.808 0.553 213 196 166 0 0
7.5213 7.1010 -0.5559 -0.046 -0.958 0.282 213 194 164 0 0
7.8948 7.3086 -0.4574 0.391 -0.890 0.235 229 213 190 0 0
8.2271 7.7937 -0.4010 0.709 -0.388 0.589 235 226 215 0 0
8.2752 7.8899 -0.3955 0.709 -0.388 0.589 247 244 238 0 0
8.3229 7.9842 -0.3900 0.702 -0.389 0.597 245 246 243 0 0
1.7718 8.4167 -2.5610 0.173 -0.915 0.365 128 81 65 0 0
1.7861 8.4209 -2.5568 0.066 -0.944 0.324 163 117 101 0 0
1.8011 8.4226 -2.5521 -0.007 -0.919 0.395 175 130 114 0 0
2.5934 7.5752 -2.2073 -0.183 -0.500 0.846 167 119 97 0 0
2.6071 7.5773 -2.2031 -0.183 -0.500 0.846 164 127 102 0 0
2.7556 7.5499 -2.1524 -0.448 -0.735 0.509 227 206 177 0 0
3.0863 7.6034 -2.0516 -0.334 -0.755 0.564 220 200 171 0 0
3.3273 7.6117 -1.9750 -0.054 -0.711 0.701 226 203 172 0 0
3.3411 7.6144 -1.9708 -0.226 -0.796 0.562 224 203 174 0 0
3.3549 7.6174 -1.9667 -0.567 -0.799 0.199 225 206 178 0 0
3.3699 7.6123 -1.9613 -0.496 -0.780 0.380 226 206 178 0 0
3.5244 7.6285 -1.9133 0.302 -0.829 0.471 227 207 178 0 0
3.8794 7.6435 -1.8006 0.365 -0.792 0.489 226 202 172 0 0
3.8928 7.6524 -1.7972 0.099 -0.832 0.546 225 202 171 0 0
3.9640 7.6551 -1.7746 -0.256 -0.799 0.544 223 200 169 0 0
3.9789 7.6482 -1.7690 -0.293 -0.833 0.470 229 206 175 0 0
3.9927 7.6532 -1.7651 -0.002 -0.763 0.646 227 204 173 0 0
4.0067 7.6566 -1.7610 -0.002 -0.763 0.646 228 206 175 0 0
4.0785 7.6523 -1.7374 0.064 -0.994 0.088 225 205 175 0 0
4.0927 7.6531 -1.7329 -0.135 -0.975 0.179 224 205 175 0 0
4.1073 7.6490 -1.7278 -0.388 -0.919 0.068 229 209 180 0 0
4.1220 7.6432 -1.7225 -0.388 -0.919 0.068 228 209 179 0 0
4.3350 7.6574 -1.6554 -0.440 -0.752 0.490 229 210 180 0 0
4.7913 7.6192 -1.5045 -0.022 -0.728 0.685 233 214 184 0 0
4.9489 7.7663 -1.4693 0.383 -0.083 0.920 128 76 58 0 0
4.9640 7.8247 -1.4706 0.397 -0.080 0.915 127 74 57 0 0
5.1090 9.7125 -1.6239 0.243 -0.916 -0.319 117 70 54 0 0
5.1790 9.7414 -1.6045 -0.094 -0.994 -0.052 103 55 40 0 0
5.1966 9.7499 -1.5997 -0.038 -0.990 0.134 116 66 49 0 0
5.3362 9.7704 -1.5569 0.060 -0.989 -0.132 118 69 50 0 0
5.6058 9.9131 -1.4853 -0.127 -0.985 -0.119 118 67 51 0 0
6.1771 10.1605 -1.3275 0.071 -0.985 -0.158 125 77 62 0 0
6.1957 10.1668 -1.3222 0.364 -0.793 -0.488 119 72 56 0 0
6.2139 10.1689 -1.3166 0.493 -0.752 -0.437 124 78 62 0 0
6.2308 10.1602 -1.3102 0.133 -0.970 -0.203 99 52 37 0 0
6.3089 10.2147 -1.2908 0.432 -0.817 -0.383 114 68 53 0 0
6.3638 10.2225 -1.2740 0.150 -0.958 -0.246 113 70 54 0 0
6.2888 7.6128 -1.0217 -0.770 -0.638 0.035 202 182 155 0 0
6.3014 7.6031 -1.0166 -0.794 -0.601 0.095 220 200 175 0 0
6.3132 7.5883 -1.0112 -0.794 -0.601 0.095 221 204 177 0 0
6.3254 7.5766 -1.0061 -0.756 -0.653 0.047 218 201 174 0 0
6.3373 7.5631 -1.0008 -0.780 -0.624 0.042 220 203 176 0 0
6.4923 7.3346 -0.9267 0.068 -0.672 0.738 218 201 173 0 0
6.5216 7.3453 -0.9184 0.376 -0.776 0.507 222 205 177 0 0
6.8110 7.1079 -0.8001 -0.117 -0.968 0.221 204 185 153 0 0
6.8241 7.1070 -0.7958 0.048 -0.998 0.051 197 178 146 0 0
6.8386 7.1125 -0.7917 0.027 -0.999 0.018 199 180 148 0 0
7.1024 7.0517 -0.7003 -0.239 -0.971 -0.004 212 195 165 0 0
7.1150 7.0497 -0.6960 -0.209 -0.975 -0.071 210 193 163 0 0
7.1368 7.0317 -0.6871 0.062 -0.993 0.103 207 189 156 0 0
7.1663 7.0439 -0.6789 0.462 -0.874 0.152 211 192 159 0 0
7.1793 7.0431 -0.6747 0.050 -0.924 0.378 208 189 156 0 0
7.1939 7.0486 -0.6705 0.263 -0.906 0.331 206 188 156 0 0
7.2208 7.0507 -0.6621 -0.066 -0.957 0.282 211 193 164 0 0
7.5106 7.0941 -0.5734 -0.141 -0.948 0.286 214 195 166 0 0
7.5242 7.0956 -0.5692 0.166 -0.972 0.167 216 197 169 0 0
7.5679 7.1085 -0.5565 -0.068 -0.945 0.321 217 198 167 0 0
8.3091 7.9310 -0.4050 0.625 -0.357 0.694 245 246 242 0 0
8.3678 8.0557 -0.3993 0.608 -0.335 0.720 244 246 245 0 0
1.3874 9.1625 -2.7821 -0.777 -0.443 -0.447 231 228 226 0 0
1.7932 8.4125 -2.5708 -0.179 -0.861 0.476 144 98 82 0 0
1.8089 8.4119 -2.5656 -0.062 -0.881 0.470 175 129 113 0 0
2.1947 8.4828 -2.4491 0.132 -0.858 0.496 173 121 100 0 0
2.7496 7.5329 -2.1682 -0.185 -0.729 0.659 228 208 178 0 0
2.7642 7.5306 -2.1632 -0.183 -0.664 0.725 228 207 178 0 0
3.3063 7.5919 -1.9953 0.039 -0.689 0.724 223 203 174 0 0
3.3192 7.6003 -1.9921 0.134 -0.795 0.592 226 203 172 0 0
3.3795 7.5787 -1.9703 -0.087 -0.610 0.788 223 202 173 0 0
3.5299 7.6214 -1.9265 0.104 -0.896 0.432 223 204 174 0 0
3.8588 7.6106 -1.8195 -0.081 -0.720 0.689 231 207 180 0 0
3.8725 7.6150 -1.8155 0.166 -0.905 0.391 229 205 177 0 0
3.8848 7.6350 -1.8137 0.244 -0.805 0.541 229 206 175 0 0
4.1004 7.6116 -1.7418 -0.034 -0.943 0.331 225 204 175 0 0
4.1145 7.6129 -1.7374 -0.305 -0.911 0.277 228 208 181 0 0
4.3404 7.6409 -1.6677 -0.459 -0.661 0.593 225 205 177 0 0
4.4269 7.6151 -1.6370 -0.135 -0.693 0.708 228 207 174 0 0
4.4975 7.6264 -1.6155 0.002 -0.750 0.662 224 201 170 0 0
4.5685 7.6301 -1.5931 -0.012 -0.800 0.599 226 204 175 0 0
4.7392 7.6046 -1.5353 -0.100 -0.607 0.789 230 209 182 0 0
4.7959 7.6069 -1.5174 -0.022 -0.728 0.685 228 209 179 0 0
4.8100 7.6101 -1.5132 0.091 -0.735 0.672 227 207 176 0 0
4.8242 7.6010 -1.5076 0.032 -0.863 0.505 224 204 174 0 0
4.8384 7.6038 -1.5033 0.158 -0.848 0.506 226 207 177 0 0
5.1845 9.7370 -1.6214 -0.056 -0.856 -0.515 128 79 64 0 0
5.2906 9.7956 -1.5936 0.053 -0.865 -0.498 118 67 50 0 0
5.3424 9.7859 -1.5758 0.199 -0.943 -0.266 113 64 47 0 0
5.4513 9.8741 -1.5503 0.134 -0.918 -0.374 107 58 41 0 0
5.7618 10.0402 -1.4682 -0.079 -0.973 -0.218 90 42 27 0 0
5.8844 10.0223 -1.4268 0.414 -0.877 -0.245 104 57 41 0 0
5.9033 10.0356 -1.4222 0.062 -0.979 -0.194 109 62 46 0 0
5.9222 10.0486 -1.4175 0.347 -0.937 0.047 103 55 39 0 0
6.1307 10.1738 -1.3638 0.393 -0.913 -0.109 113 63 46 0 0
6.1496 10.1823 -1.3586 0.398 -0.902 -0.167 118 71 57 0 0
6.1835 10.1648 -1.3458 -0.020 -0.856 -0.516 120 72 58 0 0
6.2036 10.1840 -1.3414 0.054 -0.948 -0.313 118 70 55 0 0
6.2214 10.1829 -1.3356 0.035 -0.943 -0.330 120 73 57 0 0
6.2971 10.2166 -1.3148 0.413 -0.826 -0.383 125 77 63 0 0
6.3164 10.2275 -1.3098 0.432 -0.817 -0.383 123 76 61 0 0
6.3354 10.2352 -1.3045 0.427 -0.802 -0.418 129 82 67 0 0
6.1877 8.1904 -1.1321 0.647 -0.527 -0.552 208 182 158 0 0
6.4711 7.3435 -0.9497 -0.007 -0.877 -0.480 220 204 178 0 0
6.5559 7.2852 -0.9161 -0.459 -0.840 0.289 218 201 171 0 0
6.5691 7.2833 -0.9116 -0.088 -0.869 0.487 217 200 170 0 0
6.8146 7.1039 -0.8133 -0.105 -0.992 0.063 193 174 142 0 0
6.8415 7.1053 -0.8048 -0.026 -0.967 0.253 201 182 149 0 0
7.1184 7.0453 -0.7092 -0.059 -0.998 -0.031 205 187 157 0 0
7.1428 7.0376 -0.7005 -0.181 -0.983 0.035 209 190 158 0 0
7.1571 7.0420 -0.6964 0.175 -0.978 0.114 209 190 158 0 0
7.2242 7.0465 -0.6752 -0.066 -0.957 0.282 210 190 163 0 0
8.4060 8.0260 -0.4001 0.655 -0.400 0.642 245 245 243 0 0
1.7851 8.4031 -2.5895 -0.144 -0.846 0.513 161 115 99 0 0
1.7998 8.4060 -2.5851 -0.116 -0.929 0.352 169 123 107 0 0
2.5902 7.5651 -2.2387 -0.471 -0.496 0.729 202 171 146 0 0
2.6039 7.5672 -2.2345 -0.286 -0.506 0.813 226 203 173 0 0
2.6405 7.5326 -2.2189 -0.436 -0.678 0.591 219 196 164 0 0
2.7438 7.5143 -2.1837 0.015 -0.682 0.731 224 205 175 0 0
2.7560 7.5231 -2.1807 -0.190 -0.728 0.658 225 204 175 0 0
2.7701 7.5235 -2.1762 -0.190 -0.728 0.658 225 204 175 0 0
2.7826 7.5309 -2.1730 -0.369 -0.745 0.556 226 204 176 0 0
2.8135 7.5194 -2.1618 -0.160 -0.700 0.696 225 204 175 0 0
3.1553 7.5852 -2.0589 0.064 -0.732 0.679 224 203 174 0 0
3.5199 7.6223 -1.9456 0.110 -0.911 0.398 221 202 173 0 0
3.5348 7.6175 -1.9402 -0.486 -0.836 0.255 222 202 175 0 0
3.8774 7.6113 -1.8293 0.109 -0.925 0.364 228 205 175 0 0
3.8926 7.6018 -1.8233 0.008 -0.675 0.738 228 205 174 0 0
3.9219 7.5919 -1.8128 -0.115 -0.702 0.703 224 204 173 0 0
4.1194 7.6071 -1.7509 -0.305 -0.911 0.277 232 211 183 0 0
4.6013 7.6351 -1.5988 0.169 -0.823 0.542 227 206 176 0 0
4.6154 7.6405 -1.5948 0.169 -0.823 0.542 226 205 174 0 0
4.8429 7.5862 -1.5156 -0.383 -0.753 0.535 227 207 178 0 0
4.8570 7.5846 -1.5109 -0.346 -0.823 0.450 230 211 181 0 0
5.1030 9.7194 -1.6650 0.407 -0.900 -0.154 128 80 62 0 0
5.2619 9.8082 -1.6235 0.384 -0.840 -0.382 118 69 52 0 0
5.4398 9.8798 -1.5740 0.129 -0.934 -0.334 109 62 46 0 0
5.4573 9.8802 -1.5684 0.129 -0.934 -0.334 105 57 41 0 0
5.7846 10.0318 -1.4796 -0.321 -0.932 -0.169 125 74 60 0 0
5.8019 10.0266 -1.4735 -0.136 -0.977 -0.163 121 69 55 0 0
5.8736 10.0356 -1.4514 0.218 -0.972 0.092 115 68 52 0 0
5.8918 10.0413 -1.4461 0.264 -0.964 -0.019 114 65 50 0 0
5.9099 10.0449 -1.4407 0.097 -0.995 0.030 116 68 53 0 0
5.9281 10.0499 -1.4354 0.347 -0.937 0.047 104 56 41 0 0
6.2106 10.1946 -1.3602 0.197 -0.964 -0.179 122 75 59 0 0
6.2280 10.1896 -1.3541 0.054 -0.948 -0.313 121 73 57 0 0
6.3617 10.2543 -1.3181 0.507 -0.721 -0.472 140 93 78 0 0
6.2007 8.1404 -1.1390 -0.894 -0.381 -0.234 212 192 164 0 0
6.2090 8.0920 -1.1310 -0.942 -0.287 -0.174 220 199 170 0 0
6.8970 7.0959 -0.8007 -0.151 -0.988 0.011 207 188 156 0 0
7.2263 7.0376 -0.6883 -0.164 -0.830 0.534 210 191 161 0 0
7.3178 7.0352 -0.6586 -0.122 -0.916 0.383 206 189 160 0 0
7.3309 7.0347 -0.6543 0.010 -0.933 0.359 208 191 162 0 0
7.3450 7.0384 -0.6501 0.165 -0.945 0.283 207 190 161 0 0
7.3593 7.0421 -0.6460 0.165 -0.945 0.283 210 193 163 0 0
7.5611 7.1000 -0.5873 -0.128 -0.949 -0.289 215 196 167 0 0
7.5742 7.0996 -0.5830 0.306 -0.873 0.381 214 195 164 0 0
1.7929 8.3927 -2.6029 -0.473 -0.823 0.315 175 131 115 0 0
1.8063 8.3998 -2.5994 -0.116 -0.929 0.352 160 114 98 0 0
1.8992 8.4005 -2.5695 0.008 -0.887 0.462 166 115 98 0 0
2.0793 8.4236 -2.5141 0.167 -0.831 0.530 174 120 101 0 0
2.0933 8.4293 -2.5102 0.123 -0.882 0.455 159 106 86 0 0
2.5738 7.5329 -2.2561 -0.139 -0.601 0.787 163 127 107 0 0
2.5808 7.5627 -2.2571 0.030 -0.681 0.731 221 197 172 0 0
2.6127 7.6089 -2.2520 0.541 -0.813 0.215 214 192 161 0 0
2.6912 7.5160 -2.2164 0.140 -0.757 0.638 226 206 177 0 0
2.7826 7.4864 -2.1837 -0.048 -0.874 0.484 224 203 174 0 0
2.7966 7.4869 -2.1793 0.098 -0.784 0.613 225 203 175 0 0
2.8228 7.4961 -2.1718 0.054 -0.700 0.712 224 203 174 0 0
2.9815 7.5504 -2.1268 -0.578 -0.700 0.420 222 203 173 0 0
2.9973 7.5423 -2.1208 -0.383 -0.613 0.691 226 207 177 0 0
3.0126 7.5362 -2.1151 -0.505 -0.654 0.563 226 206 179 0 0
3.1342 7.5690 -2.0796 -0.074 -0.719 0.691 224 204 175 0 0
3.3926 7.5506 -1.9944 -0.144 -0.877 0.459 228 207 177 0 0
3.4580 7.5877 -1.9774 -0.327 -0.765 0.555 223 201 170 0 0
3.6182 7.5581 -1.9226 -0.345 -0.801 0.490 225 204 172 0 0
3.8845 7.5846 -1.8398 -0.162 -0.795 0.584 228 205 174 0 0
3.8989 7.5827 -1.8349 -0.299 -0.942 0.153 228 205 174 0 0
3.9425 7.5718 -1.8197 -0.562 -0.774 0.291 227 208 178 0 0
3.9856 7.5653 -1.8051 0.305 -0.930 0.207 227 204 174 0 0
4.4654 7.5881 -1.6531 -0.224 -0.816 0.533 226 205 174 0 0
4.4796 7.5874 -1.6484 -0.120 -0.859 0.498 227 207 174 0 0
4.4937 7.5882 -1.6440 -0.491 -0.829 0.266 226 205 175 0 0
4.5360 7.5936 -1.6310 0.074 -0.984 0.161 229 209 180 0 0
4.6070 7.5884 -1.6075 -0.394 -0.724 0.566 227 204 175 0 0
4.6211 7.5906 -1.6032 -0.256 -0.783 0.567 224 202 171 0 0
4.7627 7.5698 -1.5553 -0.267 -0.731 0.628 229 209 183 0 0
4.7768 7.5716 -1.5510 -0.480 -0.673 0.563 227 206 181 0 0
4.8756 7.5609 -1.5180 -0.339 -0.784 0.520 228 208 179 0 0
5.4286 9.8925 -1.5985 0.152 -0.886 -0.438 120 70 54 0 0
5.4459 9.8872 -1.5924 0.129 -0.934 -0.334 112 64 48 0 0
5.4634 9.8869 -1.5867 0.092 -0.984 -0.153 114 67 52 0 0
5.4809 9.8876 -1.5811 0.092 -0.984 -0.153 116 69 53 0 0
5.5700 9.9099 -1.5549 0.002 -0.961 -0.275 99 50 35 0 0
5.8078 10.0272 -1.4913 -0.094 -0.996 -0.001 116 66 51 0 0
5.8254 10.0262 -1.4855 -0.072 -0.997 -0.037 112 60 46 0 0
5.8432 10.0271 -1.4799 0.165 -0.963 -0.214 118 65 51 0 0
5.8610 10.0281 -1.4743 0.329 -0.922 -0.205 112 61 46 0 0
5.8797 10.0387 -1.4695 0.183 -0.943 -0.276 122 71 56 0 0
5.8973 10.0377 -1.4637 0.159 -0.976 0.149 115 65 50 0 0
5.9158 10.0458 -1.4586 -0.080 -0.988 -0.133 112 63 48 0 0
5.9338 10.0487 -1.4531 0.078 -0.997 0.007 87 40 25 0 0
6.1436 10.1838 -1.4006 0.393 -0.913 -0.109 120 72 55 0 0
6.3682 10.2588 -1.3366 0.237 -0.945 -0.227 115 69 54 0 0
6.2136 8.0900 -1.1458 -0.919 -0.290 -0.268 217 196 167 0 0
6.4810 7.3478 -0.9774 -0.354 -0.934 -0.049 220 203 174 0 0
7.0995 7.0394 -0.7440 -0.170 -0.814 0.555 209 193 160 0 0
7.1482 7.0239 -0.7266 -0.035 -0.977 0.209 208 189 157 0 0
7.6477 7.1081 -0.5751 0.267 -0.828 0.493 215 198 169 0 0
1.8761 8.3891 -2.5928 -0.004 -0.925 0.381 165 116 98 0 0
1.9814 8.4008 -2.5602 -0.028 -0.949 0.313 173 122 100 0 0
1.9928 8.4157 -2.5582 0.314 -0.949 -0.024 172 119 96 0 0
2.0356 8.4298 -2.5460 0.124 -0.979 -0.164 173 119 99 0 0
2.0818 8.4317 -2.5314 0.140 -0.915 0.379 131 81 64 0 0
2.0943 8.4431 -2.5286 0.160 -0.947 0.280 108 60 45 0 0
2.1092 8.4459 -2.5242 0.012 -0.959 0.283 111 65 48 0 0
2.2108 8.4753 -2.4947 -0.049 -0.992 -0.116 125 75 59 0 0
2.2230 8.4886 -2.4923 0.535 -0.783 0.316 119 69 51 0 0
2.5627 7.5377 -2.2758 0.419 -0.497 0.760 200 170 146 0 0
2.8121 7.5003 -2.1913 -0.025 -0.766 0.643 229 209 182 0 0
2.8298 7.4836 -2.1838 -0.052 -0.775 0.630 227 207 180 0 0
2.8437 7.4848 -2.1794 0.130 -0.822 0.555 227 207 180 0 0
2.8577 7.4851 -2.1749 0.077 -0.708 0.702 227 207 179 0 0
2.8707 7.4901 -2.1713 0.077 -0.708 0.702 225 205 176 0 0
3.2585 7.5318 -2.0511 -0.135 -0.667 0.733 227 208 179 0 0
3.2869 7.5310 -2.0419 -0.310 -0.730 0.609 226 207 179 0 0
3.3006 7.5339 -2.0378 -0.378 -0.681 0.628 226 206 175 0 0
3.3837 7.5451 -2.0123 -0.083 -0.902 0.424 228 209 178 0 0
3.3927 7.5788 -2.0132 -0.073 -0.834 0.548 224 205 175 0 0
3.4360 7.5741 -1.9987 -0.321 -0.862 0.392 228 208 181 0 0
3.4648 7.5716 -1.9892 -0.400 -0.796 0.455 227 207 179 0 0
3.9757 7.5675 -1.8242 -0.208 -0.636 0.743 224 201 173 0 0
3.9902 7.5637 -1.8191 0.305 -0.930 0.207 228 203 175 0 0
4.3023 7.5469 -1.7167 -0.420 -0.664 0.619 227 206 177 0 0
4.4707 7.5675 -1.6647 -0.153 -0.630 0.762 226 203 172 0 0
4.4986 7.5770 -1.6568 -0.314 -0.729 0.609 230 209 178 0 0
4.5266 7.5872 -1.6490 0.071 -0.792 0.606 227 208 176 0 0
4.8519 7.5355 -1.5384 -0.227 -0.718 0.658 229 208 180 0 0
5.1862 9.8165 -1.6875 0.340 -0.940 -0.012 120 68 55 0 0
5.2563 9.8227 -1.6656 0.300 -0.946 -0.123 119 72 52 0 0
5.4347 9.9010 -1.6170 0.541 -0.837 -0.079 122 70 53 0 0
5.4519 9.8946 -1.6107 0.173 -0.944 -0.279 113 62 45 0 0
5.4695 9.8952 -1.6051 0.243 -0.966 -0.083 108 58 43 0 0
5.5589 9.9218 -1.5793 -0.054 -0.941 -0.335 121 69 53 0 0
5.6508 9.9807 -1.5563 0.201 -0.893 -0.403 102 54 40 0 0
5.7229 10.0008 -1.5354 0.077 -0.918 -0.390 113 63 49 0 0
5.9986 10.1079 -1.4587 0.180 -0.939 -0.292 121 70 56 0 0
6.0173 10.1174 -1.4537 0.315 -0.949 -0.012 121 70 53 0 0
6.0360 10.1255 -1.4486 0.498 -0.867 -0.016 131 78 61 0 0
6.0540 10.1272 -1.4430 0.227 -0.973 -0.048 136 84 67 0 0
6.0722 10.1307 -1.4375 0.277 -0.951 -0.138 121 71 54 0 0
6.1322 10.1906 -1.4249 0.106 -0.967 -0.230 127 81 65 0 0
6.1701 10.2081 -1.4147 0.417 -0.842 -0.343 122 74 57 0 0
6.2652 10.2529 -1.3891 0.421 -0.897 -0.138 108 60 45 0 0
6.2844 10.2630 -1.3840 0.566 -0.824 -0.030 117 70 55 0 0
6.3042 10.2769 -1.3793 0.558 -0.823 0.102 113 66 51 0 0
6.2031 8.1951 -1.1775 0.272 -0.843 -0.463 212 187 160 0 0
6.2889 7.5830 -1.0809 -0.845 -0.471 0.254 215 197 168 0 0
6.8984 7.0633 -0.8261 0.257 -0.912 0.320 201 184 154 0 0
1.7956 8.3624 -2.6328 -0.482 -0.864 0.146 192 151 135 0 0
1.8086 8.3708 -2.6296 -0.190 -0.958 0.214 191 147 130 0 0
1.8233 8.3735 -2.6251 -0.055 -0.993 -0.101 187 140 124 0 0
1.9125 8.3868 -2.5979 -0.004 -0.925 0.381 171 119 98 0 0
2.0973 8.4494 -2.5456 0.501 -0.859 -0.106 112 65 50 0 0
2.5590 7.5122 -2.2898 0.524 -0.691 0.497 223 198 169 0 0
2.6494 7.4292 -2.2512 -0.485 -0.613 0.623 224 203 172 0 0
2.8088 7.4703 -2.2046 -0.448 -0.667 0.595 226 206 179 0 0
2.8621 7.4845 -2.1890 0.010 -0.772 0.635 224 205 175 0 0
3.1123 7.5035 -2.1106 -0.268 -0.598 0.755 228 205 174 0 0
3.1952 7.5140 -2.0851 -0.140 -0.677 0.723 227 206 177 0 0
3.2094 7.5136 -2.0805 -0.092 -0.825 0.557 224 203 174 0 0
3.3845 7.5683 -2.0303 -0.073 -0.834 0.548 228 209 180 0 0
3.3985 7.5699 -2.0260 -0.073 -0.834 0.548 224 205 175 0 0
3.4122 7.5727 -2.0219 -0.310 -0.918 0.249 227 207 179 0 0
3.8963 7.5562 -1.8641 -0.390 -0.678 0.623 227 204 173 0 0
4.0954 7.5425 -1.7984 -0.410 -0.857 0.311 225 204 175 0 0
4.2784 7.5486 -1.7402 -0.452 -0.677 0.581 229 208 180 0 0
4.3637 7.5359 -1.7112 -0.051 -0.697 0.716 226 206 176 0 0
4.3779 7.5338 -1.7064 -0.048 -0.744 0.667 222 200 171 0 0
4.4054 7.5493 -1.6993 -0.310 -0.939 0.148 227 206 177 0 0
4.4193 7.5540 -1.6954 0.199 -0.946 0.255 228 207 178 0 0
4.4334 7.5546 -1.6909 0.247 -0.806 0.538 227 206 177 0 0
4.4472 7.5607 -1.6872 0.231 -0.893 0.386 228 206 177 0 0
4.4611 7.5660 -1.6833 0.231 -0.893 0.386 229 205 176 0 0
4.4759 7.5501 -1.6767 -0.713 -0.672 0.201 227 203 174 0 0
4.4896 7.5615 -1.6736 -0.338 -0.647 0.683 226 204 175 0 0
4.5042 7.5467 -1.6672 -0.232 -0.760 0.607 227 206 177 0 0
4.7720 7.5433 -1.5806 -0.201 -0.705 0.680 228 208 181 0 0
4.7860 7.5443 -1.5762 -0.271 -0.760 0.591 213 194 164 0 0
4.8564 7.5225 -1.5510 -0.227 -0.718 0.658 229 209 182 0 0
4.8704 7.5145 -1.5456 -0.031 -0.730 0.683 231 211 184 0 0
4.8986 7.5347 -1.5388 -0.232 -0.738 0.634 226 207 176 0 0
5.1920 9.8213 -1.7055 0.413 -0.910 0.026 112 61 47 0 0
5.2620 9.8252 -1.6834 0.403 -0.913 0.067 113 66 47 0 0
5.3844 9.8290 -1.6444 0.419 -0.855 -0.306 135 82 64 0 0
5.4022 9.8367 -1.6396 0.425 -0.860 -0.283 131 79 60 0 0
5.4202 9.8472 -1.6350 0.439 -0.877 -0.196 123 70 52 0 0
5.5649 9.9280 -1.5976 -0.054 -0.941 -0.335 119 68 51 0 0
5.5823 9.9249 -1.5916 -0.054 -0.941 -0.335 124 75 58 0 0
5.6025 9.9651 -1.5897 0.459 -0.885 -0.081 112 64 47 0 0
5.7299 10.0163 -1.5545 0.512 -0.834 -0.203 106 60 45 0 0
5.7476 10.0167 -1.5489 0.414 -0.874 -0.254 111 64 48 0 0
6.0609 10.1375 -1.4618 0.323 -0.881 -0.344 133 83 64 0 0
6.1377 10.1865 -1.4426 0.069 -0.869 -0.489 120 74 58 0 0
6.2906 10.2648 -1.4023 0.416 -0.909 -0.010 109 62 46 0 0
6.3102 10.2776 -1.3975 0.150 -0.988 0.032 124 77 61 0 0
6.2157 8.2513 -1.1965 0.464 -0.847 -0.260 209 186 158 0 0
6.5685 7.2560 -0.9691 -0.364 -0.892 0.267 212 194 163 0 0
6.5808 7.2494 -0.9644 -0.457 -0.818 0.350 213 196 167 0 0
6.9743 7.0302 -0.8126 -0.256 -0.959 0.122 208 191 163 0 0
7.6658 7.0949 -0.5973 0.272 -0.810 0.520 216 199 171 0 0
7.8038 7.1523 -0.5594 -0.061 -0.910 0.410 227 211 186 0 0
7.8401 7.1817 -0.5511 0.149 -0.952 0.267 223 207 181 0 0
8.3866 7.9564 -0.4636 0.653 -0.354 0.670 245 246 241 0 0
2.0877 8.4448 -2.5653 0.434 -0.896 0.094 120 72 57 0 0
2.1009 8.4536 -2.5621 0.501 -0.859 -0.106 123 77 61 0 0
2.1183 8.4468 -2.5557 -0.002 -0.911 -0.413 125 79 63 0 0
2.1371 8.4348 -2.5483 -0.299 -0.901 -0.314 117 71 55 0 0
2.1977 8.4410 -2.5294 0.212 -0.855 -0.473 118 71 55 0 0
2.5814 7.4958 -2.2963 0.036 -0.506 0.862 214 194 161 0 0
2.8038 7.4483 -2.2192 -0.241 -0.691 0.682 224 204 177 0 0
2.8161 7.4564 -2.2161 -0.404 -0.684 0.607 226 206 179 0 0
2.8586 7.4550 -2.2023 -0.224 -0.709 0.668 224 205 175 0 0
3.2995 7.5074 -2.0664 -0.348 -0.726 0.593 227 208 178 0 0
3.3143 7.5031 -2.0611 -0.413 -0.737 0.535 223 204 172 0 0
3.3716 7.4975 -2.0420 -0.260 -0.716 0.647 221 201 170 0 0
3.6904 7.5394 -1.9441 -0.479 -0.876 0.053 228 209 179 0 0
3.7067 7.5215 -1.9368 -0.034 -0.990 0.137 224 205 175 0 0
3.7216 7.5151 -1.9313 -0.316 -0.756 0.573 226 207 177 0 0
4.0872 7.5236 -1.8145 0.001 -0.674 0.739 228 207 179 0 0
4.1011 7.5258 -1.8103 -0.287 -0.857 0.428 230 209 180 0 0
4.2129 7.5395 -1.7758 0.082 -0.795 0.601 227 206 177 0 0
4.4657 7.5645 -1.6973 0.031 -0.817 0.575 228 204 176 0 0
4.4807 7.5411 -1.6898 -0.467 -0.800 0.378 229 206 178 0 0
4.7906 7.5364 -1.5894 -0.448 -0.800 0.399 226 206 177 0 0
4.9028 7.4977 -1.5488 0.010 -0.747 0.665 228 209 179 0 0
5.5536 9.9373 -1.6218 -0.054 -0.941 -0.335 117 65 51 0 0
5.5710 9.9341 -1.6159 -0.054 -0.941 -0.335 127 76 60 0 0
5.7733 10.0448 -1.5635 0.254 -0.966 -0.046 115 67 51 0 0
6.0128 10.1345 -1.4968 -0.006 -0.931 -0.366 125 74 57 0 0
6.0311 10.1382 -1.4913 0.131 -0.918 -0.375 120 69 52 0 0
6.1261 10.1912 -1.4668 0.056 -0.823 -0.565 119 71 55 0 0
6.2214 10.2394 -1.4417 0.248 -0.924 -0.292 115 68 52 0 0
6.2967 10.2665 -1.4206 0.280 -0.923 -0.264 100 53 37 0 0
6.3157 10.2737 -1.4153 0.157 -0.962 -0.223 123 76 61 0 0
6.2604 7.6119 -1.1247 -0.764 -0.642 0.071 205 187 155 0 0
6.2844 7.5846 -1.1138 -0.764 -0.642 0.071 213 196 166 0 0
