ply
format ascii 1.0
element vertex 826
property float x
property float y
property float z
property float nx
property float ny
property float nz
property uchar diffuse_red
property uchar diffuse_green
property uchar diffuse_blue
property uchar class
property uchar detection
end_header
1.1324 10.0607 -1.5615 -0.408 -0.518 0.752 189 146 127 0 0
1.4817 9.8408 -1.6156 -0.691 -0.630 0.355 190 142 121 0 0
1.4951 9.8323 -1.6177 -0.504 -0.797 0.333 184 137 117 0 0
1.6275 9.7414 -1.6385 -0.525 -0.708 0.472 190 151 138 0 0
1.6402 9.7307 -1.6406 -0.262 -0.725 0.637 163 123 111 0 0
1.7755 9.6477 -1.6615 -0.334 -0.494 0.803 190 144 128 0 0
2.0672 9.4484 -1.7073 -0.695 -0.389 0.605 178 122 102 0 0
2.0777 9.4328 -1.7093 -0.617 -0.429 0.660 185 130 109 0 0
2.2669 9.3145 -1.7386 -0.632 -0.465 0.620 173 115 97 0 0
2.2812 9.3080 -1.7407 -0.346 -0.653 0.673 167 108 90 0 0
2.3783 9.2539 -1.7555 -0.118 -0.809 0.576 175 122 101 0 0
2.3841 9.2284 -1.7572 -0.495 -0.504 0.708 180 127 106 0 0
2.4161 9.2224 -1.7617 -0.572 -0.453 0.684 183 132 112 0 0
2.4302 9.2152 -1.7638 -0.570 -0.522 0.635 182 131 112 0 0
2.8021 8.9622 -1.8222 -0.625 -0.706 0.332 182 133 116 0 0
2.8124 8.9473 -1.8241 -0.568 -0.625 0.536 180 130 110 0 0
3.0230 8.8666 -1.8549 0.027 -0.882 0.471 170 119 96 0 0
3.0381 8.8607 -1.8571 0.062 -0.941 0.334 182 129 105 0 0
3.0536 8.8556 -1.8593 -0.613 -0.763 0.207 164 111 88 0 0
3.0661 8.8450 -1.8614 -0.613 -0.763 0.207 172 119 98 0 0
3.1657 8.8585 -1.8740 -0.564 -0.824 -0.062 174 119 98 0 0
3.4036 7.6408 -1.9498 -0.573 -0.689 0.444 228 208 181 0 0
3.4145 7.6304 -1.9516 -0.520 -0.631 0.576 231 211 184 0 0
3.4400 7.6150 -1.9555 -0.327 -0.600 0.730 230 210 183 0 0
3.4782 7.5916 -1.9614 -0.345 -0.730 0.590 234 213 184 0 0
3.8679 7.3424 -2.0220 -0.354 -0.733 0.581 231 211 184 0 0
5.0000 6.5482 -2.2006 -0.475 -0.528 0.704 231 212 185 0 0
5.0009 6.5081 -2.2022 -0.421 -0.849 0.320 231 213 187 0 0
5.0357 6.5015 -2.2070 -0.268 -0.827 0.494 233 216 188 0 0
5.0504 6.4955 -2.2092 -0.268 -0.827 0.494 233 216 188 0 0
5.1962 6.3739 -2.2329 -0.111 -0.676 0.728 232 215 188 0 0
7.3818 7.6597 -2.4751 0.003 -0.282 -0.960 174 161 140 0 0
7.4647 7.7071 -2.4844 -0.021 -0.296 -0.955 179 166 148 0 0
8.2670 8.0428 -2.5782 -0.104 -0.835 0.540 217 217 215 0 0
8.2768 8.0266 -2.5801 -0.217 -0.838 0.500 218 218 216 0 0
8.3050 8.0252 -2.5839 -0.517 -0.659 0.546 219 219 217 0 0
8.3383 7.9076 -2.5926 -0.405 -0.834 0.376 225 225 223 0 0
0.4669 10.6440 -1.4687 -0.206 -0.642 0.739 169 126 107 0 0
0.7644 10.2722 -1.5214 -0.426 -0.809 0.406 186 139 120 0 0
0.7779 10.2641 -1.5234 -0.426 -0.809 0.406 190 143 125 0 0
0.7906 10.2533 -1.5255 -0.258 -0.851 0.458 174 126 109 0 0
1.2193 9.9857 -1.5919 -0.458 -0.508 0.729 185 137 120 0 0
1.2311 9.9721 -1.5940 -0.458 -0.508 0.729 198 151 135 0 0
1.4602 9.8320 -1.6294 -0.087 -0.988 0.126 182 132 112 0 0
1.4779 9.8360 -1.6316 -0.691 -0.630 0.355 156 108 88 0 0
1.4909 9.8262 -1.6337 -0.567 -0.696 0.441 176 129 111 0 0
1.5046 9.8187 -1.6358 -0.476 -0.642 0.600 192 145 128 0 0
1.7008 9.6761 -1.6669 -0.129 -0.669 0.732 161 118 106 0 0
1.7060 9.6453 -1.6687 -0.587 -0.418 0.693 187 146 133 0 0
2.3556 9.2471 -1.7691 -0.155 -0.821 0.550 164 108 88 0 0
2.3709 9.2428 -1.7713 -0.155 -0.821 0.550 170 113 93 0 0
2.4088 9.2114 -1.7774 -0.630 -0.461 0.625 181 130 109 0 0
2.4191 9.1959 -1.7793 -0.713 -0.416 0.565 188 137 118 0 0
2.9389 8.8497 -1.8607 -0.583 -0.456 0.673 187 134 116 0 0
3.0499 8.8532 -1.8753 -0.272 -0.909 0.317 158 105 81 0 0
3.0569 8.8326 -1.8770 -0.494 -0.867 0.059 175 122 101 0 0
3.1639 8.8596 -1.8903 -0.456 -0.890 -0.009 155 100 78 0 0
3.3314 8.8256 -1.9138 -0.127 -0.624 0.771 120 71 51 0 0
3.4358 8.9073 -1.9248 0.392 -0.718 -0.575 109 65 45 0 0
2.9836 7.8410 -1.9020 -0.316 -0.570 0.759 229 208 179 0 0
3.5685 7.4906 -1.9921 -0.673 -0.558 0.485 232 212 185 0 0
3.6288 7.4729 -2.0008 -0.434 -0.696 0.572 230 209 178 0 0
3.6407 7.4639 -2.0027 -0.434 -0.696 0.572 224 204 174 0 0
3.6701 7.4539 -2.0070 -0.397 -0.788 0.471 228 207 180 0 0
3.6854 7.4495 -2.0091 -0.813 -0.392 0.431 231 211 184 0 0
4.5965 6.8299 -2.1522 -0.254 -0.662 0.705 228 208 181 0 0
4.9972 6.5071 -2.2168 -0.614 -0.624 0.483 228 210 184 0 0
5.2193 6.3387 -2.2523 -0.395 -0.805 0.442 229 212 184 0 0
7.1246 7.7440 -2.4566 -0.159 -0.474 -0.866 178 163 142 0 0
7.6705 7.7667 -2.5285 -0.862 -0.171 -0.477 205 205 201 0 0
8.2902 8.0405 -2.6014 -0.389 -0.532 0.752 217 217 215 0 0
8.3011 8.0252 -2.6034 -0.359 -0.438 0.824 218 218 216 0 0
8.3271 8.0220 -2.6070 -0.344 -0.450 0.824 221 221 219 0 0
8.3121 7.8897 -2.6096 -0.335 -0.750 0.570 225 225 223 0 0
8.3240 7.8753 -2.6117 -0.639 -0.611 0.467 226 226 224 0 0
8.3721 7.8661 -2.6184 -0.328 -0.581 0.745 229 229 229 0 0
8.5996 7.9500 -2.6458 -0.863 -0.164 0.479 231 232 228 0 0
8.5976 7.9245 -2.6464 -0.916 -0.190 0.355 231 231 228 0 0
0.4629 10.6353 -1.4849 -0.790 -0.561 0.248 161 116 97 0 0
0.4747 10.6191 -1.4871 -0.584 -0.657 0.477 170 124 104 0 0
1.0879 10.0320 -1.5891 -0.071 -0.688 0.722 181 137 120 0 0
1.1835 9.9801 -1.6036 -0.153 -0.681 0.716 189 139 120 0 0
1.2728 9.9076 -1.6180 -0.406 -0.578 0.707 217 169 149 0 0
1.4555 9.8244 -1.6453 -0.068 -0.799 0.597 157 106 88 0 0
1.9565 9.4783 -1.7241 -0.509 -0.461 0.727 179 122 102 0 0
2.0460 9.4080 -1.7385 -0.356 -0.581 0.732 182 130 109 0 0
2.0610 9.4033 -1.7407 -0.317 -0.636 0.703 178 125 104 0 0
2.2355 9.2925 -1.7678 -0.236 -0.637 0.734 172 120 102 0 0
2.2727 9.2598 -1.7739 -0.129 -0.767 0.629 166 109 90 0 0
2.3018 9.2479 -1.7782 0.027 -0.845 0.534 174 120 98 0 0
2.3149 9.2387 -1.7803 -0.253 -0.658 0.709 173 119 96 0 0
2.3288 9.2311 -1.7824 -0.253 -0.658 0.709 183 127 104 0 0
2.3476 9.2344 -1.7848 -0.110 -0.766 0.634 165 109 87 0 0
2.4303 9.1499 -1.7987 -0.388 -0.636 0.667 191 139 121 0 0
2.7791 8.9263 -1.8530 -0.260 -0.597 0.759 207 158 139 0 0
3.0085 8.8486 -1.8864 0.018 -0.921 0.390 162 108 85 0 0
3.2972 8.8357 -1.9255 0.219 -0.862 0.458 145 95 75 0 0
3.3250 8.8187 -1.9298 -0.121 -0.666 0.736 103 57 37 0 0
3.0870 7.7314 -1.9346 -0.633 -0.472 0.614 231 212 181 0 0
3.1089 7.7110 -1.9382 -0.188 -0.859 0.477 231 212 182 0 0
3.1215 7.7033 -1.9402 -0.289 -0.783 0.551 231 211 181 0 0
3.1349 7.6971 -1.9422 -0.229 -0.875 0.427 231 211 181 0 0
3.1527 7.6975 -1.9445 -0.014 -0.937 0.350 230 211 181 0 0
3.5929 7.4770 -2.0110 -0.574 -0.650 0.498 230 210 182 0 0
3.6089 7.4738 -2.0132 -0.023 -0.801 0.598 232 211 182 0 0
3.6165 7.4589 -2.0147 -0.255 -0.697 0.670 224 204 173 0 0
3.6645 7.4494 -2.0215 -0.438 -0.810 0.390 233 212 184 0 0
3.6799 7.4453 -2.0237 -0.831 -0.428 0.356 231 212 184 0 0
4.0775 7.1822 -2.0859 -0.587 -0.620 0.520 229 212 184 0 0
4.5172 6.8548 -2.1558 -0.274 -0.726 0.630 231 211 182 0 0
4.5963 6.8107 -2.1679 -0.491 -0.605 0.628 226 208 180 0 0
4.9317 6.5267 -2.2225 -0.451 -0.618 0.644 230 211 184 0 0
5.2424 6.3036 -2.2716 -0.531 -0.382 0.757 231 212 184 0 0
7.1604 7.7788 -2.4788 -0.108 -0.525 -0.844 177 162 140 0 0
7.4708 7.9086 -2.5160 0.061 -0.349 -0.935 176 161 140 0 0
7.5100 7.8228 -2.5242 -0.016 -0.284 -0.959 181 171 157 0 0
7.8090 7.9102 -2.5613 -0.037 -0.396 -0.918 203 202 200 0 0
8.2596 8.0186 -2.6180 -0.369 -0.488 0.791 217 217 215 0 0
8.2791 8.0103 -2.6209 -0.359 -0.438 0.824 218 218 215 0 0
8.2702 7.8591 -2.6248 -0.162 -0.691 0.704 225 225 223 0 0
8.2819 7.8447 -2.6269 0.012 -0.771 0.636 228 228 226 0 0
0.4455 10.6356 -1.4990 -0.671 -0.742 0.001 169 127 106 0 0
1.1777 9.9680 -1.6195 -0.360 -0.674 0.645 178 127 109 0 0
1.3072 9.8713 -1.6401 -0.429 -0.589 0.685 185 139 119 0 0
1.3437 9.8352 -1.6462 -0.537 -0.600 0.593 169 114 94 0 0
1.3692 9.8147 -1.6503 -0.381 -0.802 0.461 167 112 92 0 0
2.2494 9.2512 -1.7873 -0.140 -0.679 0.720 146 95 78 0 0
2.2645 9.2465 -1.7895 -0.109 -0.712 0.694 128 74 56 0 0
2.2791 9.2407 -1.7916 -0.060 -0.708 0.704 179 124 104 0 0
2.3075 9.2272 -1.7959 -0.295 -0.602 0.742 192 138 116 0 0
2.3205 9.2177 -1.7980 -0.251 -0.619 0.744 195 139 116 0 0
2.6079 9.0137 -1.8433 -0.425 -0.713 0.557 180 129 106 0 0
2.9994 7.7611 -1.9368 -0.199 -0.759 0.620 231 211 184 0 0
3.0126 7.7546 -1.9388 -0.406 -0.638 0.654 233 215 188 0 0
3.1030 7.7052 -1.9526 -0.171 -0.788 0.591 232 213 182 0 0
3.1133 7.6939 -1.9543 -0.322 -0.716 0.619 228 209 178 0 0
3.1291 7.6915 -1.9566 -0.393 -0.588 0.707 230 210 180 0 0
3.1481 7.6938 -1.9590 0.083 -0.884 0.460 229 211 181 0 0
3.5132 7.4959 -2.0147 -0.226 -0.761 0.609 231 211 184 0 0
3.5781 7.4595 -2.0246 -0.363 -0.572 0.736 230 210 183 0 0
3.6215 7.4438 -2.0310 -0.258 -0.704 0.662 229 209 181 0 0
3.6537 7.4378 -2.0356 -0.405 -0.643 0.650 229 209 181 0 0
3.8602 7.3173 -2.0673 -0.210 -0.796 0.568 233 214 184 0 0
4.0596 7.1631 -2.0992 -0.403 -0.558 0.725 232 215 187 0 0
4.2490 6.9982 -2.1301 -0.433 -0.627 0.648 233 216 189 0 0
4.2602 6.9887 -2.1319 -0.433 -0.627 0.648 231 214 188 0 0
4.6720 6.7225 -2.1961 -0.400 -0.555 0.729 234 215 185 0 0
4.7661 6.6307 -2.2118 -0.181 -0.689 0.702 232 215 188 0 0
5.0300 6.4429 -2.2535 -0.305 -0.649 0.697 231 210 185 0 0
7.5852 8.0117 -2.5472 0.061 -0.367 -0.928 173 161 146 0 0
7.5443 7.8553 -2.5468 -0.044 -0.353 -0.934 186 183 175 0 0
7.6394 7.8891 -2.5585 -0.107 -0.253 -0.961 192 190 187 0 0
7.6136 7.8431 -2.5565 -0.422 -0.197 -0.885 195 193 191 0 0
7.5363 7.7535 -2.5490 -0.629 -0.320 -0.709 197 196 194 0 0
7.5985 7.7828 -2.5565 -0.526 -0.205 -0.825 198 197 195 0 0
8.2213 8.1368 -2.6290 0.175 -0.641 0.748 209 209 207 0 0
8.2585 8.0451 -2.6370 -0.431 -0.518 0.739 215 215 213 0 0
8.2586 8.0208 -2.6378 -0.513 -0.403 0.758 216 216 214 0 0
8.2597 7.9975 -2.6387 -0.282 -0.542 0.792 218 218 216 0 0
8.3280 7.9323 -2.6500 -0.174 -0.631 0.756 224 224 222 0 0
8.2759 7.8667 -2.6451 -0.220 -0.860 0.461 225 225 223 0 0
8.2749 7.8185 -2.6465 -0.918 -0.233 0.320 228 228 226 0 0
8.5456 7.9137 -2.6800 -0.186 -0.517 0.836 231 231 229 0 0
9.0484 8.1842 -2.7390 -0.931 -0.083 0.356 232 233 230 0 0
8.8547 7.7491 -2.7270 -0.168 -0.983 0.067 237 237 235 0 0
8.7230 7.6277 -2.7132 -0.726 -0.182 0.663 238 238 236 0 0
0.9918 10.0411 -1.6082 -0.603 -0.615 0.509 193 149 130 0 0
1.0076 10.0414 -1.6103 -0.436 -0.767 0.471 186 142 125 0 0
1.2972 9.8467 -1.6557 -0.065 -0.800 0.596 170 124 101 0 0
2.2263 9.2426 -1.8006 -0.262 -0.662 0.702 190 136 119 0 0
2.2709 9.2273 -1.8072 -0.116 -0.626 0.771 163 110 90 0 0
2.5707 9.0142 -1.8545 -0.229 -0.661 0.715 193 145 124 0 0
3.2665 8.8234 -1.9549 0.115 -0.679 0.725 120 70 50 0 0
2.9314 7.7942 -1.9415 -0.090 -0.886 0.455 226 205 176 0 0
2.9474 7.7923 -1.9437 -0.223 -0.710 0.668 228 209 179 0 0
2.9716 7.7756 -1.9475 -0.431 -0.618 0.658 233 212 183 0 0
2.9840 7.7679 -1.9495 -0.585 -0.563 0.584 229 208 181 0 0
2.9939 7.7559 -1.9512 -0.585 -0.563 0.584 233 213 186 0 0
3.0625 7.7272 -1.9614 -0.379 -0.614 0.692 232 211 182 0 0
3.0929 7.6928 -1.9666 -0.409 -0.634 0.656 230 209 180 0 0
3.1031 7.6814 -1.9683 -0.279 -0.878 0.388 235 214 185 0 0
3.1653 7.6696 -1.9771 -0.522 -0.616 0.590 234 215 183 0 0
3.1841 7.6445 -1.9805 -0.616 -0.476 0.628 233 213 184 0 0
3.9643 7.1888 -2.1006 -0.288 -0.769 0.571 230 211 181 0 0
4.2285 6.9997 -2.1424 -0.433 -0.627 0.648 233 214 185 0 0
4.2397 6.9902 -2.1442 -0.433 -0.627 0.648 232 214 186 0 0
4.2509 6.9806 -2.1460 -0.433 -0.627 0.648 229 212 185 0 0
4.7197 6.6482 -2.2200 -0.396 -0.651 0.648 229 212 184 0 0
4.8269 6.5707 -2.2370 -0.090 -0.783 0.615 231 211 184 0 0
4.9435 6.4418 -2.2568 -0.850 -0.460 0.258 230 210 183 0 0
4.9639 6.4416 -2.2596 -0.381 -0.787 0.485 230 210 183 0 0
4.9809 6.4380 -2.2620 -0.099 -0.887 0.452 231 212 185 0 0
5.0371 6.4122 -2.2704 -0.326 -0.729 0.602 230 212 186 0 0
5.0516 6.4061 -2.2726 -0.248 -0.794 0.555 230 213 188 0 0
5.0661 6.4000 -2.2747 -0.248 -0.794 0.555 229 211 187 0 0
5.0706 6.3844 -2.2758 -0.301 -0.607 0.736 228 211 185 0 0
5.0835 6.3768 -2.2778 -0.221 -0.597 0.771 229 212 186 0 0
5.2239 6.2720 -2.3002 -0.479 -0.422 0.770 228 209 177 0 0
7.4281 7.9499 -2.5472 0.309 -0.640 -0.703 167 158 147 0 0
7.5209 8.0073 -2.5580 0.308 -0.630 -0.713 165 158 150 0 0
7.6045 8.0562 -2.5678 0.329 -0.628 -0.705 167 160 153 0 0
7.7153 8.1285 -2.5806 0.329 -0.628 -0.705 169 163 157 0 0
7.7806 8.1112 -2.5900 -0.481 -0.134 -0.867 178 176 173 0 0
7.6001 7.7871 -2.5756 -0.729 -0.296 -0.617 198 197 195 0 0
8.2126 8.1327 -2.6480 0.332 -0.805 0.491 207 207 205 0 0
8.3397 7.8731 -2.6733 -0.835 -0.228 0.501 227 227 225 0 0
8.7300 7.6589 -2.7330 -0.103 -0.908 -0.407 237 237 235 0 0
8.8670 7.7379 -2.7491 -0.557 -0.680 0.477 236 236 234 0 0
0.4151 10.9456 -1.5185 -0.959 0.007 -0.282 242 242 240 0 0
0.6300 10.3863 -1.5646 -0.649 -0.686 0.330 173 121 98 0 0
1.5108 9.6729 -1.7062 -0.332 -0.538 0.774 184 139 123 0 0
1.9548 9.4071 -1.7748 -0.496 -0.485 0.720 187 130 103 0 0
2.2756 9.2044 -1.8247 -0.270 -0.599 0.754 150 99 78 0 0
2.2868 9.1910 -1.8266 -0.302 -0.540 0.786 156 104 83 0 0
2.4351 9.0633 -1.8507 -0.268 -0.643 0.718 189 133 113 0 0
2.5760 8.9937 -1.8721 -0.385 -0.596 0.705 186 135 115 0 0
2.6165 8.9689 -1.8783 -0.284 -0.663 0.693 185 135 115 0 0
2.6569 8.9440 -1.8846 -0.390 -0.673 0.628 184 133 114 0 0
2.8781 8.8208 -1.9185 -0.510 -0.809 0.293 163 110 88 0 0
2.9007 8.8296 -1.9213 -0.269 -0.748 0.607 153 101 79 0 0
3.0234 8.7887 -1.9393 -0.312 -0.886 0.344 153 101 80 0 0
3.2505 8.7997 -1.9700 0.111 -0.679 0.726 115 65 45 0 0
2.9617 7.7630 -1.9615 -0.430 -0.591 0.682 232 213 183 0 0
2.9961 7.7351 -1.9670 -0.508 -0.638 0.578 233 215 187 0 0
3.1043 7.6595 -1.9841 -0.595 -0.709 0.378 230 210 182 0 0
3.1760 7.6354 -1.9946 -0.619 -0.512 0.595 231 212 182 0 0
3.1841 7.6210 -1.9961 -0.598 -0.537 0.594 230 209 180 0 0
3.1911 7.6049 -1.9976 -0.537 -0.455 0.710 230 209 180 0 0
3.7048 7.3385 -2.0757 -0.355 -0.484 0.800 230 210 182 0 0
4.1753 7.0307 -2.1492 -0.368 -0.797 0.479 229 210 182 0 0
4.3121 6.9420 -2.1705 -0.168 -0.761 0.627 231 211 184 0 0
4.3272 6.9371 -2.1728 -0.277 -0.630 0.725 232 214 186 0 0
4.3624 6.9104 -2.1784 -0.556 -0.488 0.673 231 212 187 0 0
4.3770 6.8825 -2.1812 -0.383 -0.606 0.697 235 215 188 0 0
4.5705 6.7692 -2.2110 -0.372 -0.662 0.651 230 210 182 0 0
4.8881 6.5115 -2.2621 -0.466 -0.571 0.676 230 212 185 0 0
4.9587 6.4391 -2.2739 -0.372 -0.717 0.589 229 209 182 0 0
5.0207 6.3989 -2.2836 -0.105 -0.729 0.677 224 207 181 0 0
5.0406 6.3980 -2.2863 -0.386 -0.660 0.644 227 210 185 0 0
5.0599 6.3767 -2.2896 -0.663 -0.364 0.654 231 214 188 0 0
5.0707 6.3671 -2.2914 -0.314 -0.601 0.735 231 214 186 0 0
7.3664 7.9469 -2.5579 0.267 -0.619 -0.739 156 152 145 0 0
7.4617 8.0070 -2.5692 0.206 -0.550 -0.809 158 155 149 0 0
8.1771 8.0330 -2.6662 0.011 -0.946 0.325 210 210 208 0 0
8.3282 7.8669 -2.6918 -0.825 -0.475 0.307 227 227 225 0 0
8.3366 7.8498 -2.6934 -0.755 -0.396 0.523 227 227 225 0 0
8.3563 7.8418 -2.6964 -0.778 -0.613 -0.137 229 229 228 0 0
0.4167 10.9632 -1.5350 -0.967 0.001 -0.255 242 242 240 0 0
1.2658 9.8116 -1.6847 -0.352 -0.634 0.688 175 127 112 0 0
1.2948 9.8026 -1.6889 -0.263 -0.745 0.613 175 129 113 0 0
1.3075 9.7926 -1.6910 -0.186 -0.783 0.594 193 146 128 0 0
1.3215 9.7864 -1.6931 -0.212 -0.622 0.754 187 138 120 0 0
1.3368 9.7845 -1.6952 -0.314 -0.651 0.691 184 135 115 0 0
1.5027 9.6557 -1.7217 -0.332 -0.538 0.774 179 132 114 0 0
1.7970 9.4766 -1.7673 -0.143 -0.762 0.632 181 130 112 0 0
1.8118 9.4721 -1.7695 -0.143 -0.762 0.632 182 131 112 0 0
1.8242 9.4613 -1.7715 -0.262 -0.652 0.712 180 129 108 0 0
2.4266 9.0499 -1.8661 -0.281 -0.637 0.718 173 116 95 0 0
2.8744 8.8183 -1.9343 -0.631 -0.742 0.224 163 112 89 0 0
2.8887 8.8115 -1.9365 -0.599 -0.640 0.481 175 125 103 0 0
2.9096 8.8170 -1.9392 -0.056 -0.835 0.547 161 110 89 0 0
3.0185 8.7843 -1.9551 -0.312 -0.886 0.344 175 122 101 0 0
3.0449 8.7991 -1.9583 -0.677 -0.714 0.180 158 103 82 0 0
3.0224 7.6978 -1.9866 -0.144 -0.672 0.726 230 210 183 0 0
3.1028 7.6608 -1.9987 -0.344 -0.801 0.491 232 215 187 0 0
3.1205 7.6613 -2.0012 -0.262 -0.778 0.570 233 214 187 0 0
3.1814 7.5934 -2.0115 -0.617 -0.465 0.635 228 207 178 0 0
3.1942 7.5862 -2.0134 -0.550 -0.544 0.633 225 205 176 0 0
3.2771 7.5787 -2.0251 0.006 -0.869 0.494 231 212 183 0 0
3.2939 7.5775 -2.0274 0.006 -0.869 0.494 231 211 181 0 0
3.6773 7.3541 -2.0865 -0.007 -0.885 0.466 232 211 183 0 0
3.7440 7.2956 -2.0974 -0.360 -0.632 0.687 233 214 184 0 0
3.8519 7.2427 -2.1137 -0.245 -0.638 0.730 234 215 188 0 0
4.1514 7.0280 -2.1610 -0.030 -0.874 0.484 235 216 189 0 0
4.3636 6.8701 -2.1947 -0.320 -0.941 0.110 230 210 183 0 0
5.1440 6.2811 -2.3189 -0.138 -0.844 0.519 229 211 185 0 0
5.1605 6.2769 -2.3213 -0.138 -0.844 0.519 230 210 184 0 0
5.4382 6.3353 -2.3578 0.576 -0.696 0.430 147 141 136 0 0
8.0274 8.2810 -2.6584 -0.957 -0.007 0.288 182 182 180 0 0
7.9828 7.9718 -2.6611 0.299 -0.797 0.525 206 206 204 0 0
8.0892 7.9635 -2.6759 -0.545 -0.718 0.432 210 210 208 0 0
8.2234 8.0013 -2.6933 -0.416 -0.524 0.743 214 214 212 0 0
8.3334 7.8503 -2.7128 -0.739 -0.674 -0.005 228 228 226 0 0
8.3797 7.8633 -2.7188 -0.952 -0.230 -0.201 228 228 227 0 0
8.4537 7.8742 -2.7286 -0.248 -0.958 0.144 230 230 229 0 0
8.5636 7.9368 -2.7420 0.121 -0.976 -0.182 231 231 229 0 0
1.3229 9.7483 -1.7104 -0.396 -0.635 0.664 181 133 112 0 0
1.4942 9.6374 -1.7371 -0.347 -0.531 0.773 169 122 106 0 0
1.5068 9.6272 -1.7392 -0.319 -0.607 0.728 190 143 126 0 0
1.6646 9.5237 -1.7638 -0.402 -0.550 0.732 169 118 101 0 0
1.7065 9.5043 -1.7702 -0.079 -0.721 0.689 181 128 110 0 0
1.7192 9.4944 -1.7722 -0.406 -0.516 0.754 187 134 116 0 0
2.0853 9.2458 -1.8296 -0.472 -0.461 0.751 169 114 93 0 0
2.3677 9.0765 -1.8733 -0.617 -0.513 0.596 131 82 66 0 0
3.2300 8.8050 -2.0001 0.320 -0.937 -0.141 115 70 50 0 0
3.3270 8.8764 -2.0116 0.532 -0.805 -0.262 114 68 52 0 0
3.1932 7.5881 -2.0281 -0.617 -0.469 0.632 228 209 180 0 0
3.2664 7.5661 -2.0389 -0.081 -0.850 0.520 234 214 186 0 0
3.2730 7.5494 -2.0402 0.003 -0.815 0.580 232 212 182 0 0
3.2905 7.5492 -2.0427 -0.327 -0.615 0.717 233 214 184 0 0
3.6975 7.2856 -2.1062 -0.087 -0.735 0.673 233 211 184 0 0
4.0914 7.0274 -2.1678 -0.359 -0.655 0.664 232 215 187 0 0
4.1769 6.9928 -2.1805 -0.279 -0.744 0.607 233 214 184 0 0
4.4206 6.8270 -2.2188 -0.565 -0.485 0.668 228 209 181 0 0
4.6256 6.6628 -2.2516 -0.140 -0.728 0.671 224 204 177 0 0
4.8390 6.4474 -2.2871 -0.922 -0.385 -0.040 228 211 183 0 0
5.0240 6.3474 -2.3154 -0.697 -0.514 0.499 227 210 182 0 0
5.0963 6.2781 -2.3273 -0.488 -0.802 0.345 227 210 183 0 0
5.1084 6.2699 -2.3292 -0.488 -0.802 0.345 225 208 182 0 0
5.1261 6.2669 -2.3317 -0.069 -0.910 0.410 230 212 186 0 0
5.1432 6.2633 -2.3342 -0.227 -0.848 0.479 232 212 185 0 0
7.6206 8.1539 -2.6256 0.287 -0.746 -0.601 156 156 156 0 0
8.0076 7.9713 -2.6842 0.229 -0.885 0.406 207 207 205 0 0
8.0345 7.9695 -2.6879 0.283 -0.956 0.081 208 208 206 0 0
8.1033 7.9781 -2.6972 0.186 -0.968 -0.171 210 210 208 0 0
8.2272 8.0317 -2.7129 0.342 -0.932 -0.122 213 213 211 0 0
8.3771 7.8643 -2.7382 -0.914 -0.402 -0.058 228 228 228 0 0
8.4480 7.8728 -2.7478 -0.248 -0.958 0.144 229 229 228 0 0
8.5667 7.9423 -2.7623 0.157 -0.964 -0.214 230 230 228 0 0
0.4982 10.5059 -1.5919 -0.433 -0.840 0.326 174 126 104 0 0
0.8087 10.1416 -1.6446 -0.576 -0.744 0.338 176 124 102 0 0
1.3845 9.6992 -1.7363 -0.370 -0.576 0.729 190 143 127 0 0
1.6189 9.5384 -1.7732 -0.052 -0.748 0.662 178 131 115 0 0
1.6570 9.5088 -1.7792 -0.402 -0.550 0.732 183 132 113 0 0
1.6818 9.4876 -1.7832 -0.417 -0.583 0.698 172 117 99 0 0
1.7106 9.4773 -1.7875 -0.558 -0.544 0.627 181 125 105 0 0
1.7211 9.4616 -1.7894 -0.277 -0.838 0.471 179 122 103 0 0
1.7361 9.4581 -1.7916 -0.503 -0.671 0.545 168 114 93 0 0
1.7486 9.4476 -1.7936 -0.469 -0.684 0.559 182 130 109 0 0
2.0893 9.2208 -1.8469 -0.240 -0.707 0.665 189 136 115 0 0
2.3191 9.1253 -1.8814 -0.636 -0.563 0.528 162 111 90 0 0
2.3232 9.0966 -1.8827 -0.478 -0.636 0.606 181 131 112 0 0
2.3605 9.0657 -1.8887 -0.434 -0.478 0.763 177 126 110 0 0
2.4554 9.0105 -1.9034 -0.446 -0.462 0.767 162 109 88 0 0
2.8484 8.8120 -1.9633 -0.125 -0.980 0.157 162 110 90 0 0
2.8653 8.8100 -1.9657 -0.401 -0.819 0.409 164 113 91 0 0
3.1798 8.7862 -2.0101 0.296 -0.954 0.047 112 64 45 0 0
3.2042 8.7966 -2.0132 0.364 -0.924 -0.115 112 65 48 0 0
3.3009 8.8680 -2.0249 0.521 -0.852 -0.058 114 69 50 0 0
3.3305 8.8866 -2.0285 0.520 -0.846 -0.117 110 65 46 0 0
2.9859 7.6737 -2.0119 -0.777 -0.495 0.388 230 213 187 0 0
3.1977 7.5717 -2.0441 -0.357 -0.702 0.617 229 211 183 0 0
3.3685 7.5108 -2.0695 -0.168 -0.932 0.320 229 208 180 0 0
3.4952 7.4100 -2.0897 0.077 -0.823 0.563 229 211 183 0 0
3.5462 7.3551 -2.0983 -0.287 -0.814 0.506 230 211 184 0 0
3.6431 7.3140 -2.1128 -0.263 -0.703 0.661 230 210 183 0 0
3.6688 7.2993 -2.1168 -0.407 -0.581 0.705 233 212 183 0 0
4.7464 6.5405 -2.2866 -0.191 -0.751 0.632 231 214 186 0 0
4.8176 6.4895 -2.2978 -0.932 -0.334 0.139 229 209 182 0 0
4.8393 6.4705 -2.3014 -0.708 -0.635 0.309 228 211 183 0 0
5.0894 6.2741 -2.3413 -0.322 -0.844 0.429 226 208 181 0 0
7.8128 8.2264 -2.6701 0.009 -0.774 0.633 169 169 169 0 0
7.8818 7.9416 -2.6871 0.312 -0.852 0.420 200 200 200 0 0
7.9143 7.9447 -2.6915 0.395 -0.820 0.415 204 204 204 0 0
7.9905 7.9601 -2.7017 0.297 -0.912 0.283 207 207 207 0 0
8.0346 7.9727 -2.7076 0.297 -0.912 0.283 208 208 208 0 0
8.0782 7.9846 -2.7133 0.319 -0.927 0.196 210 210 208 0 0
8.2131 8.0232 -2.7311 0.332 -0.912 0.239 213 213 211 0 0
8.3996 7.9089 -2.7601 0.019 -0.918 0.396 228 228 226 0 0
8.3771 7.8672 -2.7580 -0.914 -0.402 -0.058 228 228 226 0 0
8.4575 7.8594 -2.7694 -0.640 -0.416 0.646 230 230 228 0 0
8.4263 7.6480 -2.7705 -0.821 0.157 0.549 233 233 231 0 0
0.6876 10.2784 -1.6404 -0.435 -0.847 0.304 157 106 85 0 0
0.7724 10.1877 -1.6545 -0.534 -0.845 -0.040 132 81 64 0 0
1.0320 9.8919 -1.6982 -0.238 -0.772 0.589 178 133 116 0 0
1.1987 9.7696 -1.7246 -0.579 -0.505 0.640 162 117 100 0 0
1.5146 9.5697 -1.7738 -0.462 -0.538 0.705 184 141 125 0 0
1.6490 9.4932 -1.7945 -0.396 -0.523 0.755 184 135 115 0 0
1.7009 9.4572 -1.8027 -0.436 -0.660 0.612 179 122 102 0 0
1.7398 9.4303 -1.8088 -0.219 -0.738 0.638 172 116 96 0 0
2.3150 9.0835 -1.8980 -0.440 -0.508 0.741 181 130 109 0 0
2.3276 9.0737 -1.9000 -0.537 -0.405 0.740 181 131 112 0 0
2.3604 9.0331 -1.9056 -0.412 -0.468 0.782 184 131 114 0 0
2.8445 8.8090 -1.9790 -0.348 -0.744 0.570 179 126 107 0 0
2.8716 8.7925 -1.9832 -0.594 -0.608 0.527 169 116 95 0 0
3.0319 8.7886 -2.0058 -0.195 -0.785 0.588 154 99 78 0 0
3.3005 8.8715 -2.0414 0.538 -0.781 -0.317 114 69 50 0 0
2.8794 7.7262 -2.0105 -0.057 -0.905 0.422 224 205 175 0 0
2.9077 7.7168 -2.0147 -0.364 -0.668 0.650 232 212 185 0 0
2.9876 7.6525 -2.0275 -0.140 -0.727 0.673 231 213 186 0 0
3.0623 7.6347 -2.0385 -0.346 -0.763 0.547 231 210 182 0 0
3.0692 7.6184 -2.0398 -0.608 -0.561 0.562 227 204 176 0 0
3.0820 7.6113 -2.0418 -0.433 -0.665 0.609 225 204 175 0 0
3.3946 7.4483 -2.0896 -0.489 -0.699 0.522 231 213 187 0 0
3.6196 7.3100 -2.1246 -0.281 -0.740 0.611 231 211 184 0 0
4.0664 7.0029 -2.1948 -0.264 -0.565 0.782 229 209 182 0 0
4.6594 6.5985 -2.2879 -0.537 -0.820 0.201 231 212 183 0 0
4.7335 6.5093 -2.3005 -0.418 -0.561 0.714 230 211 184 0 0
4.7988 6.4732 -2.3105 -0.298 -0.666 0.684 228 211 183 0 0
7.7668 8.1644 -2.6850 -0.213 -0.795 0.568 172 172 172 0 0
7.8802 7.9192 -2.7069 0.505 -0.808 0.304 203 203 203 0 0
7.9750 7.9744 -2.7188 0.516 -0.835 0.193 205 205 205 0 0
8.3211 8.0904 -2.7645 0.379 -0.919 0.108 214 214 212 0 0
8.4434 7.8513 -2.7875 -0.376 -0.439 0.816 230 230 228 0 0
8.4433 7.6639 -2.7921 -0.950 0.187 0.251 233 233 231 0 0
0.5267 10.4477 -1.6299 -0.630 -0.776 0.034 140 87 65 0 0
1.0100 9.8769 -1.7114 -0.532 -0.799 0.280 176 133 114 0 0
1.0371 9.8632 -1.7156 -0.156 -0.832 0.533 169 123 107 0 0
1.4190 9.6242 -1.7750 -0.106 -0.645 0.757 177 128 109 0 0
1.4314 9.6137 -1.7770 -0.238 -0.665 0.708 183 135 115 0 0
1.4959 9.5683 -1.7872 -0.445 -0.575 0.687 181 135 120 0 0
1.5065 9.5525 -1.7891 -0.384 -0.577 0.721 171 126 111 0 0
1.6115 9.4853 -1.8055 -0.226 -0.662 0.714 195 145 127 0 0
1.6273 9.4839 -1.8077 -0.263 -0.558 0.787 190 141 122 0 0
1.6402 9.4750 -1.8097 -0.263 -0.558 0.787 186 137 117 0 0
1.7332 9.4186 -1.8242 -0.242 -0.721 0.649 163 106 84 0 0
2.1266 9.1610 -1.8857 -0.091 -0.686 0.722 191 133 115 0 0
2.1542 9.1472 -1.8899 -0.100 -0.667 0.738 164 113 96 0 0
2.3061 9.0690 -1.9132 -0.440 -0.508 0.741 187 134 111 0 0
2.4712 8.9443 -1.9394 -0.418 -0.464 0.781 181 129 108 0 0
2.6025 8.8579 -1.9599 -0.434 -0.574 0.694 188 133 113 0 0
2.8377 8.8004 -1.9944 -0.348 -0.744 0.570 161 106 88 0 0
2.8654 8.7853 -1.9987 -0.651 -0.636 0.414 164 109 88 0 0
3.1811 8.8300 -2.0422 0.433 -0.818 -0.377 111 63 45 0 0
3.2275 8.8464 -2.0483 0.373 -0.759 -0.533 112 67 48 0 0
3.2554 8.8627 -2.0519 0.339 -0.776 -0.532 115 70 51 0 0
3.2808 8.8743 -2.0552 0.302 -0.734 -0.609 115 70 52 0 0
2.8711 7.7160 -2.0244 -0.167 -0.722 0.672 230 210 183 0 0
2.9243 7.6918 -2.0325 -0.167 -0.734 0.659 232 214 186 0 0
2.9521 7.6816 -2.0367 -0.386 -0.853 0.351 233 215 187 0 0
3.3868 7.4405 -2.1036 -0.363 -0.898 0.250 231 214 188 0 0
3.3920 7.4221 -2.1048 -0.411 -0.600 0.686 230 213 186 0 0
3.4870 7.3542 -2.1198 -0.385 -0.697 0.605 232 212 185 0 0
3.5616 7.3080 -2.1314 -0.345 -0.572 0.744 230 210 183 0 0
3.7463 7.1895 -2.1602 -0.292 -0.767 0.572 230 210 183 0 0
3.9269 7.1123 -2.1875 -0.262 -0.717 0.646 230 213 184 0 0
3.9880 7.0716 -2.1970 -0.148 -0.736 0.661 229 211 182 0 0
4.0171 7.0611 -2.2014 -0.244 -0.686 0.685 230 212 184 0 0
4.0329 7.0573 -2.2037 -0.101 -0.941 0.323 230 210 183 0 0
4.2367 6.8467 -2.2374 -0.094 -0.773 0.627 232 212 185 0 0
4.5115 6.6547 -2.2806 -0.241 -0.851 0.467 229 209 180 0 0
4.5262 6.6493 -2.2828 -0.241 -0.851 0.467 232 213 184 0 0
4.7846 6.4614 -2.3236 -0.431 -0.661 0.615 228 211 183 0 0
4.7986 6.4552 -2.3258 -0.551 -0.757 0.351 225 210 181 0 0
4.9578 6.2917 -2.3521 -0.249 -0.671 0.699 231 214 187 0 0
4.9731 6.2866 -2.3543 -0.302 -0.636 0.710 226 209 182 0 0
7.7654 8.1168 -2.7056 -0.201 -0.859 0.470 179 179 178 0 0
8.1105 8.3148 -2.7497 0.554 -0.789 -0.266 190 188 189 0 0
8.2026 8.0938 -2.7678 0.591 -0.801 0.096 209 209 207 0 0
1.0286 9.8416 -1.7308 -0.229 -0.948 0.223 166 120 104 0 0
1.1465 9.7668 -1.7492 -0.375 -0.644 0.667 181 147 132 0 0
1.3965 9.6114 -1.7881 -0.194 -0.641 0.742 182 133 113 0 0
1.4993 9.5382 -1.8043 -0.384 -0.577 0.721 190 142 127 0 0
1.8048 9.3547 -1.8517 -0.205 -0.786 0.583 164 113 91 0 0
1.8164 9.3422 -1.8537 -0.393 -0.680 0.619 167 112 91 0 0
1.8492 9.3001 -1.8592 -0.500 -0.395 0.770 174 121 100 0 0
1.9448 9.2506 -1.8739 -0.006 -0.628 0.778 182 125 105 0 0
2.0884 9.1556 -1.8964 -0.228 -0.635 0.738 177 121 104 0 0
2.3506 8.9847 -1.9374 -0.458 -0.498 0.737 149 92 73 0 0
2.3807 8.9760 -1.9418 -0.167 -0.717 0.676 192 137 117 0 0
2.5931 8.8435 -1.9749 -0.393 -0.544 0.741 174 121 100 0 0
2.8891 8.7670 -2.0186 -0.265 -0.837 0.479 178 123 104 0 0
3.1809 8.8340 -2.0586 0.168 -0.949 0.266 109 62 44 0 0
3.2883 8.8918 -2.0725 0.269 -0.732 -0.626 108 63 46 0 0
3.5502 7.2954 -2.1449 -0.442 -0.548 0.710 232 212 185 0 0
3.5628 7.2880 -2.1468 -0.283 -0.611 0.739 230 210 181 0 0
3.5852 7.2693 -2.1504 -0.305 -0.554 0.774 231 212 182 0 0
3.7369 7.1801 -2.1739 -0.272 -0.731 0.626 231 212 183 0 0
4.0568 6.9743 -2.2239 -0.256 -0.726 0.638 228 208 181 0 0
4.3703 6.7600 -2.2731 -0.490 -0.818 0.301 233 213 186 0 0
4.3842 6.7539 -2.2752 -0.443 -0.656 0.611 233 213 186 0 0
4.4962 6.6835 -2.2927 -0.205 -0.813 0.544 231 211 184 0 0
4.5081 6.6537 -2.2950 0.011 -0.950 0.313 233 213 186 0 0
4.5236 6.6492 -2.2973 -0.188 -0.924 0.333 232 212 185 0 0
4.5368 6.6422 -2.2993 -0.343 -0.868 0.360 230 210 183 0 0
4.5564 6.6421 -2.3021 -0.257 -0.911 0.322 233 214 187 0 0
4.7710 6.4504 -2.3368 -0.292 -0.660 0.692 229 212 184 0 0
4.7977 6.4164 -2.3413 -0.773 -0.447 0.450 231 211 184 0 0
4.9175 6.3343 -2.3602 -0.246 -0.724 0.644 231 214 188 0 0
5.0670 6.2024 -2.3843 -0.210 -0.977 -0.048 229 211 185 0 0
7.6330 8.1526 -2.7056 0.109 -0.993 0.047 167 166 166 0 0
7.8081 8.1570 -2.7304 -0.075 -0.981 0.180 180 180 178 0 0
8.4173 8.4013 -2.8115 -0.592 -0.264 0.761 201 201 199 0 0
8.4836 8.4315 -2.8203 -0.827 -0.236 0.510 203 203 202 0 0
8.2379 8.0528 -2.7937 0.464 -0.874 0.143 213 213 211 0 0
8.3793 7.9979 -2.8150 0.214 -0.666 0.715 223 223 221 0 0
8.2576 7.8285 -2.8015 0.414 -0.895 0.163 226 226 224 0 0
0.5121 10.4687 -1.6600 -0.809 -0.575 -0.126 154 106 85 0 0
0.8831 9.9900 -1.7229 -0.501 -0.820 0.275 187 138 122 0 0
1.0258 9.8389 -1.7464 -0.391 -0.901 0.187 164 117 101 0 0
1.0646 9.8124 -1.7525 -0.558 -0.737 0.382 174 128 110 0 0
1.8102 9.3319 -1.8690 -0.393 -0.680 0.619 185 130 110 0 0
2.3554 8.9632 -1.9545 -0.415 -0.760 0.500 165 111 91 0 0
2.4977 8.8654 -1.9768 -0.059 -0.740 0.670 197 145 125 0 0
2.8648 8.7592 -2.0315 -0.561 -0.789 0.250 168 113 93 0 0
3.1439 8.8383 -2.0697 -0.027 -0.984 0.174 118 69 52 0 0
3.1770 8.8314 -2.0746 0.397 -0.882 0.253 104 57 41 0 0
3.2357 8.8694 -2.0822 0.401 -0.793 -0.458 108 63 47 0 0
3.2934 8.9050 -2.0897 0.320 -0.781 -0.536 109 63 47 0 0
2.8448 7.6796 -2.0510 -0.219 -0.747 0.628 229 210 183 0 0
2.9060 7.6413 -2.0605 -0.317 -0.696 0.645 229 209 182 0 0
2.9188 7.6346 -2.0625 -0.281 -0.735 0.617 228 208 182 0 0
2.9292 7.6239 -2.0642 -0.242 -0.560 0.792 230 210 184 0 0
3.4063 7.3727 -2.1376 -0.535 -0.503 0.678 226 209 181 0 0
3.6772 7.2009 -2.1798 -0.377 -0.607 0.699 229 212 184 0 0
3.6983 7.1805 -2.1832 -0.261 -0.793 0.551 233 215 185 0 0
3.7053 7.1657 -2.1846 -0.136 -0.830 0.540 230 211 181 0 0
3.7208 7.1621 -2.1869 -0.454 -0.587 0.670 231 212 182 0 0
3.8332 7.0936 -2.2043 -0.550 -0.704 0.450 236 216 189 0 0
3.9491 6.9830 -2.2232 -0.111 -0.949 0.296 232 215 187 0 0
3.9690 6.9845 -2.2260 -0.025 -0.908 0.419 227 210 182 0 0
4.2599 6.8127 -2.2711 -0.176 -0.892 0.416 230 212 185 0 0
4.4174 6.6856 -2.2962 -0.617 -0.547 0.566 230 210 183 0 0
4.4578 6.6444 -2.3029 -0.106 -0.930 0.353 233 215 187 0 0
4.4926 6.6397 -2.3079 -0.113 -0.719 0.685 229 212 184 0 0
4.5151 6.6428 -2.3111 -0.370 -0.604 0.706 229 212 184 0 0
4.8458 6.3663 -2.3640 -0.326 -0.945 -0.033 230 213 185 0 0
4.8588 6.3591 -2.3661 -0.659 -0.561 0.501 230 213 185 0 0
4.9971 6.2168 -2.3888 -0.416 -0.702 0.578 231 214 187 0 0
5.0087 6.2084 -2.3906 -0.416 -0.702 0.578 229 212 186 0 0
5.0204 6.2000 -2.3924 -0.416 -0.702 0.578 229 212 186 0 0
5.0313 6.1908 -2.3942 -0.304 -0.694 0.652 229 212 187 0 0
5.0593 6.1784 -2.3984 -0.153 -0.803 0.576 229 212 185 0 0
5.0821 6.1803 -2.4017 -0.221 -0.785 0.579 229 212 186 0 0
8.2545 7.8290 -2.8207 0.392 -0.917 0.071 226 226 224 0 0
0.4450 11.0189 -1.6559 -0.935 -0.043 -0.352 242 242 240 0 0
0.9359 9.9102 -1.7480 -0.756 -0.653 0.054 174 123 101 0 0
1.0349 9.8241 -1.7639 -0.589 -0.729 0.349 110 64 48 0 0
1.0473 9.8136 -1.7659 -0.568 -0.638 0.520 176 128 111 0 0
1.4965 9.4968 -1.8366 -0.335 -0.626 0.704 188 138 119 0 0
1.5110 9.4924 -1.8388 -0.385 -0.657 0.648 189 139 119 0 0
1.5347 9.4688 -1.8426 -0.391 -0.490 0.779 172 118 98 0 0
1.5572 9.4422 -1.8464 -0.247 -0.678 0.692 174 122 103 0 0
1.5703 9.4339 -1.8484 -0.277 -0.596 0.753 181 129 110 0 0
1.6119 9.4154 -1.8548 -0.441 -0.477 0.760 177 123 104 0 0
1.6247 9.4063 -1.8568 -0.132 -0.692 0.710 191 138 119 0 0
1.9524 9.1989 -1.9079 -0.229 -0.672 0.704 186 131 110 0 0
2.1620 9.0645 -1.9407 -0.521 -0.469 0.713 187 139 121 0 0
2.1724 9.0501 -1.9424 -0.417 -0.555 0.719 186 139 120 0 0
2.2596 8.9813 -1.9563 -0.231 -0.569 0.789 175 124 103 0 0
2.3304 8.9508 -1.9671 -0.199 -0.720 0.664 163 112 91 0 0
2.3447 8.9449 -1.9692 -0.199 -0.720 0.664 177 126 105 0 0
2.3675 8.9574 -1.9723 -0.009 -0.931 0.365 186 136 115 0 0
2.4959 8.8311 -1.9932 -0.478 -0.771 0.421 188 139 121 0 0
2.6480 8.7538 -2.0166 -0.160 -0.859 0.486 177 120 98 0 0
2.6602 8.7436 -2.0185 -0.194 -0.897 0.397 169 112 91 0 0
2.8445 8.7590 -2.0447 -0.169 -0.869 0.466 169 115 94 0 0
2.8612 8.7568 -2.0471 -0.561 -0.789 0.250 164 108 87 0 0
2.8739 8.7471 -2.0492 -0.561 -0.789 0.250 182 123 105 0 0
2.8919 8.7475 -2.0517 -0.378 -0.880 0.287 184 129 109 0 0
3.1389 8.8336 -2.0856 0.013 -0.869 0.495 111 63 46 0 0
3.1574 8.8337 -2.0882 0.353 -0.832 0.428 107 60 44 0 0
3.1680 8.8197 -2.0900 0.416 -0.889 0.194 106 61 45 0 0
3.2013 8.8459 -2.0943 0.401 -0.871 -0.282 91 47 30 0 0
3.2343 8.8713 -2.0986 0.511 -0.824 -0.243 107 64 47 0 0
3.2937 8.9100 -2.1063 0.340 -0.810 -0.478 105 60 47 0 0
2.9195 7.6118 -2.0778 -0.466 -0.593 0.657 230 211 183 0 0
3.0161 7.5485 -2.0929 -0.443 -0.620 0.647 234 214 187 0 0
3.0280 7.5402 -2.0947 -0.555 -0.596 0.580 231 213 185 0 0
3.3812 7.3654 -2.1489 -0.192 -0.743 0.641 231 215 188 0 0
3.4124 7.3594 -2.1535 -0.667 -0.478 0.571 229 212 184 0 0
3.4208 7.3460 -2.1550 -0.667 -0.478 0.571 230 211 184 0 0
3.5294 7.2730 -2.1720 -0.398 -0.615 0.681 232 214 187 0 0
3.5506 7.2528 -2.1754 -0.195 -0.729 0.656 225 208 179 0 0
3.6195 7.2240 -2.1859 -0.310 -0.615 0.725 231 212 184 0 0
3.8364 7.0772 -2.2199 -0.369 -0.580 0.726 229 211 183 0 0
3.9532 7.0141 -2.2379 -0.238 -0.731 0.639 231 213 184 0 0
3.9655 7.0062 -2.2399 -0.089 -0.920 0.381 233 214 188 0 0
4.1177 6.8944 -2.2639 -0.368 -0.562 0.741 229 210 182 0 0
4.2336 6.8073 -2.2823 -0.266 -0.671 0.692 229 211 184 0 0
4.2624 6.7964 -2.2866 -0.024 -0.858 0.513 233 214 189 0 0
4.5186 6.6071 -2.3271 -0.160 -0.628 0.762 230 213 186 0 0
4.5336 6.6021 -2.3294 -0.284 -0.666 0.689 230 212 187 0 0
4.7555 6.4197 -2.3648 -0.350 -0.710 0.611 231 213 185 0 0
4.8717 6.3345 -2.3832 -0.287 -0.934 0.213 229 212 184 0 0
4.9272 6.2894 -2.3920 -0.792 -0.250 0.556 231 210 183 0 0
4.9940 6.1970 -2.4034 -0.203 -0.715 0.669 230 213 187 0 0
5.0114 6.1940 -2.4060 -0.248 -0.723 0.644 231 214 188 0 0
5.0224 6.1850 -2.4077 -0.203 -0.715 0.669 232 215 189 0 0
5.0328 6.1755 -2.4094 -0.101 -0.913 0.395 229 212 186 0 0
7.6445 8.1442 -2.7466 0.032 -0.946 0.322 173 173 173 0 0
7.8037 8.1843 -2.7687 0.143 -0.988 -0.065 181 181 179 0 0
7.9800 7.7288 -2.8029 -0.619 -0.455 0.640 220 220 218 0 0
8.1152 7.7441 -2.8220 0.363 -0.915 0.174 225 225 223 0 0
8.2413 7.8215 -2.8387 0.378 -0.922 0.078 226 226 224 0 0
8.3377 7.8746 -2.8515 0.342 -0.932 0.116 226 226 224 0 0
0.4523 10.9888 -1.6745 -0.958 -0.024 -0.284 242 242 240 0 0
1.0314 9.8195 -1.7794 -0.589 -0.729 0.349 140 94 76 0 0
1.1879 9.6687 -1.8048 -0.308 -0.658 0.688 188 145 131 0 0
1.5613 9.4148 -1.8634 -0.497 -0.600 0.627 184 131 112 0 0
2.2772 8.9507 -1.9753 -0.087 -0.665 0.742 169 119 97 0 0
2.4657 8.8089 -2.0051 -0.652 -0.681 0.333 204 155 137 0 0
2.4854 8.8140 -2.0079 -0.634 -0.677 0.373 198 149 132 0 0
2.4966 8.8017 -2.0097 -0.428 -0.822 0.375 187 139 120 0 0
2.7186 8.7255 -2.0432 -0.226 -0.956 0.186 162 109 88 0 0
2.8503 8.7407 -2.0620 -0.323 -0.768 0.554 165 110 87 0 0
2.8642 8.7334 -2.0641 -0.323 -0.768 0.554 169 112 91 0 0
2.8878 8.7442 -2.0674 -0.378 -0.880 0.287 177 121 101 0 0
2.9141 8.7265 -2.0715 -0.064 -0.975 0.213 169 114 94 0 0
3.1326 8.8267 -2.1013 0.021 -0.943 0.332 111 64 48 0 0
3.1507 8.8260 -2.1039 0.506 -0.862 0.042 109 62 46 0 0
3.1759 8.8380 -2.1073 0.423 -0.899 -0.116 94 48 32 0 0
3.2012 8.8501 -2.1108 0.436 -0.882 -0.179 109 66 49 0 0
3.2348 8.8765 -2.1151 0.511 -0.824 -0.243 104 61 44 0 0
3.3034 8.9313 -2.1241 0.355 -0.777 -0.520 100 55 41 0 0
3.3708 7.3538 -2.1624 -0.078 -0.735 0.673 227 212 183 0 0
3.3879 7.3529 -2.1649 0.074 -0.778 0.624 230 215 186 0 0
3.4054 7.3526 -2.1674 -0.586 -0.561 0.584 231 213 186 0 0
3.4924 7.2746 -2.1814 -0.238 -0.627 0.742 233 214 184 0 0
3.8007 7.0816 -2.2295 -0.277 -0.620 0.734 231 211 184 0 0
3.8132 7.0741 -2.2314 -0.526 -0.520 0.673 233 216 188 0 0
3.9264 7.0069 -2.2490 -0.300 -0.567 0.768 230 211 181 0 0
3.9422 7.0035 -2.2514 -0.259 -0.826 0.501 231 212 183 0 0
3.9590 7.0011 -2.2538 -0.089 -0.920 0.381 232 212 184 0 0
4.1035 6.8804 -2.2769 -0.162 -0.764 0.625 228 208 181 0 0
4.1195 6.8770 -2.2793 -0.443 -0.595 0.671 229 209 182 0 0
4.8575 6.3232 -2.3961 -0.083 -0.894 0.441 227 210 182 0 0
4.8717 6.3171 -2.3982 -0.298 -0.783 0.546 227 210 183 0 0
7.6087 8.1158 -2.7615 0.170 -0.958 -0.232 175 176 175 0 0
7.7799 7.6618 -2.7945 -0.057 -0.998 0.007 215 215 215 0 0
7.9514 7.7085 -2.8184 -0.448 -0.204 0.870 220 220 218 0 0
8.2598 7.9106 -2.8594 -0.657 -0.178 0.732 223 224 220 0 0
8.3481 7.9578 -2.8713 -0.701 -0.042 0.712 224 224 221 0 0
8.2210 7.8082 -2.8556 0.469 -0.832 -0.298 226 226 224 0 0
8.3419 7.8810 -2.8718 0.048 -0.978 0.201 226 226 224 0 0
1.0381 9.7967 -1.7967 -0.568 -0.638 0.520 189 141 124 0 0
1.1810 9.6535 -1.8199 -0.080 -0.810 0.580 177 130 115 0 0
1.6355 9.3600 -1.8909 -0.114 -0.700 0.705 174 122 104 0 0
2.0891 9.0610 -1.9620 -0.115 -0.598 0.793 188 137 117 0 0
2.1044 9.0577 -1.9642 -0.549 -0.423 0.721 188 137 117 0 0
2.1099 9.0320 -1.9655 -0.767 -0.299 0.568 191 140 121 0 0
2.2680 8.9354 -1.9901 -0.087 -0.665 0.742 182 130 108 0 0
2.4617 8.8052 -2.0205 -0.652 -0.681 0.333 183 134 116 0 0
2.4818 8.8113 -2.0233 -0.663 -0.595 0.455 184 136 118 0 0
2.8960 8.7305 -2.0849 -0.077 -0.952 0.295 180 125 105 0 0
2.9099 8.7230 -2.0871 -0.086 -0.967 0.239 169 117 96 0 0
2.9772 8.7146 -2.0970 -0.230 -0.711 0.664 127 76 56 0 0
3.0502 8.7815 -2.1065 0.332 -0.937 -0.105 114 66 47 0 0
3.1078 8.8195 -2.1142 0.105 -0.992 0.071 113 66 51 0 0
3.1281 8.8229 -2.1171 0.031 -0.904 0.427 101 54 38 0 0
3.1481 8.8258 -2.1200 0.341 -0.940 -0.007 111 64 48 0 0
3.1802 8.8500 -2.1243 0.500 -0.866 -0.024 112 66 50 0 0
3.2064 8.8636 -2.1279 0.521 -0.847 -0.105 110 66 49 0 0
3.2363 8.8835 -2.1319 0.543 -0.840 -0.005 99 54 39 0 0
3.3745 7.3369 -2.1780 -0.044 -0.742 0.669 230 213 185 0 0
3.3843 7.3256 -2.1796 -0.270 -0.637 0.722 230 212 184 0 0
3.4153 7.3195 -2.1842 -0.425 -0.598 0.680 227 208 180 0 0
3.4272 7.3112 -2.1861 -0.246 -0.671 0.700 229 209 182 0 0
3.4841 7.2662 -2.1951 -0.405 -0.393 0.826 231 212 182 0 0
3.5869 7.1860 -2.2114 -0.206 -0.623 0.755 225 206 174 0 0
3.8927 7.0141 -2.2588 -0.473 -0.488 0.734 232 213 183 0 0
4.1968 6.7926 -2.3068 -0.417 -0.845 0.335 229 209 182 0 0
4.2072 6.7826 -2.3085 -0.215 -0.701 0.680 229 209 181 0 0
4.2472 6.7409 -2.3150 -0.449 -0.793 0.412 232 211 182 0 0
4.2661 6.7406 -2.3177 -0.399 -0.901 0.169 229 209 180 0 0
4.6055 6.4754 -2.3716 -0.300 -0.733 0.611 229 210 183 0 0
4.6166 6.4663 -2.3733 -0.191 -0.821 0.538 224 206 178 0 0
4.6319 6.4617 -2.3756 -0.114 -0.843 0.526 228 208 181 0 0
4.9782 6.1678 -2.4310 -0.095 -0.761 0.642 230 211 184 0 0
4.9932 6.1626 -2.4332 -0.094 -0.913 0.396 226 207 181 0 0
5.0104 6.1595 -2.4358 -0.151 -0.849 0.507 227 207 182 0 0
8.0693 8.1456 -2.8475 -0.642 -0.618 -0.453 201 202 198 0 0
7.9982 8.0610 -2.8386 0.118 -0.948 -0.294 202 202 200 0 0
7.7658 7.6764 -2.8113 0.137 -0.991 0.009 214 214 214 0 0
7.7764 7.6619 -2.8130 -0.057 -0.998 0.007 215 215 215 0 0
7.9257 7.7608 -2.8331 -0.800 -0.431 0.418 217 217 217 0 0
8.1720 7.7955 -2.8684 0.358 -0.774 -0.522 225 226 223 0 0
8.2866 7.8636 -2.8839 0.410 -0.792 -0.452 227 227 225 0 0
8.4362 7.9592 -2.9041 0.378 -0.808 -0.453 227 227 227 0 0
8.3917 7.8997 -2.8986 0.504 -0.853 -0.137 227 227 227 0 0
8.5772 8.0230 -2.9235 0.503 -0.840 -0.202 227 227 225 0 0
0.7518 10.1050 -1.7658 -0.402 -0.915 -0.019 181 130 108 0 0
1.6259 9.3399 -1.9057 -0.072 -0.741 0.668 188 137 116 0 0
1.8283 9.1925 -1.9376 -0.210 -0.661 0.721 180 127 106 0 0
2.1034 9.0222 -1.9805 -0.737 -0.373 0.563 191 143 124 0 0
2.2284 8.9271 -2.0003 -0.315 -0.625 0.715 188 132 109 0 0
2.6319 8.7355 -2.0623 -0.153 -0.929 -0.338 145 90 70 0 0
2.7228 8.7087 -2.0760 -0.585 -0.748 0.313 164 110 89 0 0
2.7358 8.6999 -2.0781 -0.537 -0.835 0.116 167 115 93 0 0
2.9607 8.7218 -2.1107 0.115 -0.942 0.315 125 74 55 0 0
2.9756 8.7159 -2.1129 -0.012 -0.889 0.457 122 72 52 0 0
3.0546 8.7939 -2.1233 0.216 -0.926 -0.310 117 71 52 0 0
3.1041 8.8172 -2.1302 0.263 -0.963 -0.061 112 66 51 0 0
3.1213 8.8150 -2.1327 0.111 -0.932 0.344 109 63 48 0 0
3.1452 8.8248 -2.1361 0.341 -0.940 -0.007 114 67 52 0 0
3.1774 8.8494 -2.1404 0.441 -0.781 -0.443 101 55 39 0 0
3.2088 8.8723 -2.1447 0.350 -0.713 -0.608 116 70 54 0 0
3.2388 8.8924 -2.1487 0.382 -0.733 -0.562 105 59 45 0 0
3.3126 8.9561 -2.1585 0.415 -0.813 -0.408 117 71 55 0 0
2.7826 7.6183 -2.1017 -0.313 -0.584 0.749 228 209 179 0 0
3.4199 7.3041 -2.1999 -0.327 -0.616 0.716 230 212 185 0 0
3.7844 7.0667 -2.2569 -0.452 -0.581 0.676 234 215 188 0 0
4.1398 6.8396 -2.3124 -0.617 -0.394 0.681 231 214 186 0 0
4.1415 6.8194 -2.3130 -0.418 -0.531 0.737 231 214 186 0 0
4.2378 6.7330 -2.3284 -0.207 -0.771 0.602 230 209 180 0 0
4.4794 6.5522 -2.3666 -0.585 -0.689 0.427 232 212 184 0 0
4.5949 6.4670 -2.3848 -0.319 -0.739 0.593 226 207 180 0 0
4.6243 6.4564 -2.3893 -0.349 -0.745 0.569 231 211 184 0 0
4.6790 6.3906 -2.3983 -0.374 -0.730 0.572 231 213 186 0 0
4.6909 6.3825 -2.4002 -0.357 -0.775 0.521 231 214 188 0 0
4.9851 6.1576 -2.4468 -0.094 -0.913 0.396 226 207 182 0 0
5.0055 6.1574 -2.4498 -0.494 -0.558 0.667 226 209 183 0 0
7.7498 8.1716 -2.8203 -0.182 -0.942 0.282 184 184 182 0 0
8.0882 8.0661 -2.8715 -0.065 -0.731 -0.679 208 208 206 0 0
7.8296 7.6852 -2.8395 -0.008 -0.851 0.525 218 218 218 0 0
7.9326 7.7459 -2.8537 -0.831 -0.546 0.106 220 220 220 0 0
8.5789 8.0274 -2.9439 0.509 -0.850 -0.139 227 227 225 0 0
1.1427 9.6439 -1.8460 -0.649 -0.631 0.424 170 123 104 0 0
1.1690 9.6285 -1.8501 -0.261 -0.648 0.716 184 141 126 0 0
1.1925 9.6043 -1.8539 -0.457 -0.545 0.703 193 149 133 0 0
1.4495 9.4324 -1.8942 -0.250 -0.631 0.734 174 124 105 0 0
2.2192 8.9118 -2.0149 -0.282 -0.686 0.670 176 120 97 0 0
2.2323 8.9037 -2.0170 -0.363 -0.623 0.693 171 114 92 0 0
2.6768 8.7257 -2.0850 -0.396 -0.918 0.009 173 118 98 0 0
2.6935 8.7242 -2.0874 -0.632 -0.775 0.021 181 126 105 0 0
2.7058 8.7141 -2.0894 -0.632 -0.775 0.021 165 110 89 0 0
2.7183 8.7045 -2.0914 -0.610 -0.777 -0.157 141 86 65 0 0
2.7309 8.6950 -2.0934 -0.610 -0.777 -0.157 152 99 78 0 0
2.8377 8.6967 -2.1091 -0.167 -0.933 0.318 178 127 107 0 0
3.1451 8.8290 -2.1525 0.434 -0.846 -0.310 117 71 56 0 0
3.1820 8.8619 -2.1574 0.489 -0.769 -0.412 111 65 49 0 0
3.2169 8.8909 -2.1622 0.411 -0.714 -0.567 118 72 56 0 0
2.7359 7.6272 -2.1093 -0.194 -0.712 0.675 224 203 174 0 0
2.7415 7.6088 -2.1104 -0.155 -0.825 0.544 232 211 182 0 0
2.7557 7.6047 -2.1125 -0.155 -0.825 0.544 231 210 181 0 0
2.7693 7.5996 -2.1146 -0.328 -0.775 0.540 230 211 181 0 0
3.0908 7.4125 -2.1646 -0.312 -0.774 0.550 227 209 183 0 0
3.4210 7.2339 -2.2157 -0.629 -0.581 0.516 228 209 179 0 0
3.4299 7.2217 -2.2172 -0.748 -0.455 0.483 231 212 183 0 0
3.6146 7.1328 -2.2457 -0.216 -0.613 0.760 231 213 185 0 0
4.2146 6.7310 -2.3398 -0.301 -0.633 0.713 228 209 180 0 0
4.2272 6.7238 -2.3417 -0.102 -0.961 0.258 230 211 181 0 0
4.2519 6.7301 -2.3453 -0.125 -0.964 0.235 230 210 181 0 0
4.5856 6.4600 -2.3983 -0.354 -0.710 0.608 230 213 183 0 0
4.5986 6.4530 -2.4003 -0.319 -0.739 0.593 228 211 183 0 0
4.6204 6.4347 -2.4038 -0.417 -0.722 0.551 230 210 185 0 0
4.6704 6.3845 -2.4118 -0.374 -0.730 0.572 229 210 184 0 0
4.6807 6.3748 -2.4135 -0.285 -0.738 0.611 234 217 191 0 0
5.0047 6.1399 -2.4645 -0.395 -0.603 0.693 229 212 187 0 0
5.0296 6.1248 -2.4684 -0.124 -0.689 0.714 229 212 186 0 0
7.6773 8.1360 -2.8298 -0.730 -0.628 -0.268 185 185 183 0 0
7.7272 8.1549 -2.8369 0.002 -0.995 0.099 186 186 184 0 0
8.0626 8.0723 -2.8875 -0.075 -0.836 -0.543 208 208 206 0 0
8.1059 8.0840 -2.8937 -0.553 -0.745 -0.373 209 209 207 0 0
8.0747 7.8888 -2.8919 -0.439 -0.824 0.358 218 218 218 0 0
8.0484 7.7256 -2.8903 -0.462 -0.875 -0.148 225 225 222 0 0
8.1584 7.7906 -2.9056 0.166 -0.839 -0.519 226 226 224 0 0
8.5804 8.0316 -2.9643 0.509 -0.850 -0.139 228 228 226 0 0
1.1093 9.6427 -1.8568 -0.725 -0.593 0.352 185 134 113 0 0
1.1261 9.6470 -1.8593 -0.549 -0.788 0.277 172 124 104 0 0
1.5532 9.3280 -1.9267 -0.233 -0.597 0.767 187 133 112 0 0
2.1938 8.8974 -2.0271 -0.306 -0.655 0.691 177 121 100 0 0
2.2045 8.8841 -2.0289 -0.472 -0.573 0.670 173 116 94 0 0
2.4061 8.7746 -2.0602 -0.290 -0.519 0.804 204 158 139 0 0
2.6742 8.7251 -2.1005 -0.244 -0.969 0.028 159 106 84 0 0
2.6925 8.7267 -2.1032 -0.505 -0.838 -0.205 171 116 95 0 0
2.7057 8.7184 -2.1053 -0.557 -0.787 -0.265 130 74 54 0 0
2.7188 8.7098 -2.1073 -0.557 -0.787 -0.265 138 82 62 0 0
2.8377 8.7011 -2.1251 -0.026 -0.850 0.526 190 145 128 0 0
2.9891 8.7827 -2.1464 0.244 -0.923 -0.298 122 73 56 0 0
3.1283 8.8364 -2.1664 0.459 -0.800 -0.386 104 58 44 0 0
3.1505 8.8430 -2.1696 0.425 -0.865 -0.266 101 55 40 0 0
3.1862 8.8737 -2.1745 0.489 -0.769 -0.412 106 60 44 0 0
3.2188 8.8986 -2.1790 0.422 -0.755 -0.503 111 65 48 0 0
3.2506 8.9219 -2.1834 0.381 -0.735 -0.561 102 57 41 0 0
3.2800 8.9408 -2.1875 0.377 -0.733 -0.566 106 61 44 0 0
2.7239 7.6105 -2.1222 -0.403 -0.620 0.673 229 208 179 0 0
2.7509 7.6002 -2.1264 -0.056 -0.819 0.571 231 210 181 0 0
2.9040 7.5224 -2.1501 -0.104 -0.721 0.685 232 212 185 0 0
2.9152 7.5133 -2.1519 -0.159 -0.703 0.693 234 215 187 0 0
2.9910 7.4726 -2.1636 -0.083 -0.715 0.694 227 209 181 0 0
3.0801 7.3995 -2.1777 -0.241 -0.637 0.733 227 208 182 0 0
3.0905 7.3892 -2.1794 -0.388 -0.571 0.724 229 208 181 0 0
3.4393 7.2134 -2.2334 -0.277 -0.678 0.681 230 211 184 0 0
3.5885 7.1250 -2.2566 -0.416 -0.684 0.600 228 211 183 0 0
3.9536 6.8919 -2.3137 -0.172 -0.886 0.431 231 210 181 0 0
4.2179 6.7159 -2.3551 -0.358 -0.677 0.643 228 208 179 0 0
4.5753 6.4518 -2.4115 -0.400 -0.519 0.756 232 215 185 0 0
4.6677 6.3642 -2.4263 -0.234 -0.679 0.695 230 213 187 0 0
4.8916 6.1512 -2.4622 -0.211 -0.853 0.478 228 209 183 0 0
4.9605 6.1394 -2.4726 -0.457 -0.521 0.721 232 214 189 0 0
4.9855 6.1436 -2.4763 -0.651 -0.436 0.622 232 213 189 0 0
7.6934 8.1532 -2.8516 -0.289 -0.820 0.493 187 187 185 0 0
7.6886 8.1242 -2.8513 -0.387 -0.747 0.540 188 188 187 0 0
7.6971 8.0823 -2.8531 -0.993 0.061 0.100 191 191 189 0 0
7.6955 8.0563 -2.8532 -0.993 0.061 0.100 192 192 190 0 0
7.9818 8.2546 -2.8930 0.159 -0.516 -0.842 194 194 192 0 0
8.0855 7.8768 -2.9133 -0.666 -0.650 0.365 219 219 218 0 0
8.0809 7.7547 -2.9141 -0.284 -0.946 0.154 225 225 223 0 0
0.7627 10.0530 -1.8161 -0.623 -0.710 0.327 176 129 108 0 0
1.2856 9.4717 -1.9008 -0.157 -0.741 0.653 187 139 123 0 0
1.3174 9.4732 -1.9055 -0.445 -0.467 0.764 186 140 120 0 0
1.3289 9.4607 -1.9074 -0.358 -0.512 0.781 171 124 102 0 0
1.3410 9.4502 -1.9093 -0.343 -0.499 0.796 194 145 125 0 0
1.5194 9.3282 -1.9373 -0.525 -0.543 0.656 183 129 108 0 0
1.5566 9.2993 -1.9432 -0.275 -0.650 0.708 179 127 105 0 0
2.1576 8.8959 -2.0375 -0.446 -0.609 0.657 178 128 108 0 0
2.1694 8.8852 -2.0394 -0.446 -0.609 0.657 184 130 110 0 0
2.1853 8.8835 -2.0417 -0.407 -0.600 0.689 186 130 110 0 0
2.2904 8.8206 -2.0581 -0.184 -0.765 0.617 200 147 126 0 0
2.6466 8.7096 -2.1125 -0.129 -0.790 0.599 160 107 86 0 0
2.6679 8.7171 -2.1156 -0.143 -0.855 0.499 162 108 86 0 0
2.8125 8.6914 -2.1375 -0.079 -0.737 0.671 181 131 110 0 0
3.0478 8.7946 -2.1713 0.302 -0.927 -0.224 117 74 57 0 0
3.1314 8.8463 -2.1832 0.459 -0.800 -0.386 110 64 49 0 0
3.1866 8.8789 -2.1911 0.555 -0.766 -0.326 106 60 44 0 0
3.2198 8.9049 -2.1957 0.527 -0.779 -0.340 106 59 42 0 0
3.3858 9.0310 -2.2190 0.532 -0.757 -0.380 115 74 56 0 0
2.6878 7.6089 -2.1314 -0.682 -0.407 0.608 220 197 163 0 0
2.7282 7.5936 -2.1376 -0.008 -0.779 0.627 217 198 168 0 0
2.7434 7.5913 -2.1399 -0.056 -0.819 0.571 227 207 177 0 0
2.7599 7.5635 -2.1427 -0.146 -0.922 0.359 227 209 179 0 0
2.8608 7.5102 -2.1583 -0.409 -0.788 0.460 232 213 183 0 0
2.8754 7.5069 -2.1606 -0.269 -0.764 0.586 230 211 182 0 0
2.8926 7.5075 -2.1631 -0.385 -0.747 0.542 228 209 180 0 0
3.0842 7.3831 -2.1931 -0.410 -0.687 0.600 229 208 181 0 0
3.0958 7.3746 -2.1949 -0.410 -0.687 0.600 230 209 182 0 0
3.6134 7.0894 -2.2754 -0.279 -0.628 0.726 235 216 190 0 0
3.8802 6.9411 -2.3169 -0.493 -0.700 0.517 232 211 183 0 0
4.1063 6.7427 -2.3529 -0.094 -0.780 0.618 229 210 180 0 0
4.2220 6.6801 -2.3708 -0.165 -0.853 0.495 228 208 181 0 0
4.2359 6.6742 -2.3730 -0.297 -0.683 0.667 233 213 188 0 0
4.3878 6.5662 -2.3969 -0.240 -0.831 0.502 231 214 186 0 0
4.4764 6.4946 -2.4109 -0.273 -0.780 0.563 233 213 186 0 0
4.5696 6.4078 -2.4258 -0.941 -0.231 0.247 230 210 183 0 0
4.6774 6.3565 -2.4425 -0.475 -0.593 0.650 229 212 186 0 0
4.6977 6.3369 -2.4457 -0.385 -0.607 0.695 229 212 186 0 0
4.8686 6.2090 -2.4727 -0.481 -0.634 0.606 231 214 186 0 0
4.9579 6.1203 -2.4870 -0.310 -0.663 0.681 232 213 187 0 0
4.9667 6.1095 -2.4885 -0.062 -0.777 0.626 230 210 184 0 0
4.9779 6.1008 -2.4902 -0.265 -0.560 0.785 230 210 183 0 0
5.0549 6.0393 -2.5024 -0.420 -0.761 0.494 223 202 172 0 0
7.6813 8.1458 -2.8695 -0.971 -0.237 0.018 189 189 187 0 0
7.6809 8.0959 -2.8700 -0.996 -0.024 -0.091 191 191 189 0 0
7.6942 8.0829 -2.8722 -0.980 -0.071 -0.188 192 192 190 0 0
7.6936 8.0578 -2.8724 -0.993 0.061 0.100 193 193 191 0 0
