ply
format ascii 1.0
element vertex 817
property float x
property float y
property float z
property float nx
property float ny
property float nz
property uchar diffuse_red
property uchar diffuse_green
property uchar diffuse_blue
property uchar class
property uchar detection
end_header
2.8964 10.8458 -0.5479 -0.114 -0.715 0.690 193 146 128 0 0
3.0844 10.8180 -0.5153 -0.233 -0.617 0.752 191 140 119 0 0
3.1029 10.8106 -0.5123 -0.255 -0.596 0.761 183 132 110 0 0
3.1220 10.8121 -0.5088 -0.384 -0.637 0.669 180 128 106 0 0
3.5925 10.7360 -0.4275 -0.605 -0.574 0.552 184 133 111 0 0
3.6102 10.7209 -0.4249 -0.710 -0.534 0.460 191 143 123 0 0
4.1585 10.6427 -0.3298 -0.329 -0.587 0.739 189 141 124 0 0
5.0378 10.4461 -0.1799 -0.346 -0.633 0.693 196 149 130 0 0
5.0565 10.4422 -0.1767 -0.523 -0.653 0.548 191 141 120 0 0
5.2045 10.4892 -0.1484 -0.086 -0.638 0.765 185 136 110 0 0
5.5666 10.4307 -0.0858 -0.233 -0.623 0.746 180 127 107 0 0
5.7685 10.3678 -0.0521 -0.205 -0.645 0.736 181 131 109 0 0
5.8239 10.3524 -0.0428 -0.081 -0.713 0.696 171 121 99 0 0
5.8437 10.3521 -0.0392 0.114 -0.726 0.679 171 120 98 0 0
5.8647 10.3558 -0.0353 -0.160 -0.642 0.750 182 131 110 0 0
5.8839 10.3532 -0.0320 -0.245 -0.648 0.721 202 153 132 0 0
5.9846 10.2882 -0.0165 -0.057 -0.691 0.720 192 140 119 0 0
6.2055 10.2917 0.0232 -0.226 -0.595 0.771 192 141 119 0 0
6.2239 10.2863 0.0263 -0.339 -0.541 0.770 193 144 122 0 0
6.3610 10.2143 0.0480 -0.413 -0.628 0.659 195 145 123 0 0
6.4047 10.2250 0.0563 0.090 -0.658 0.747 184 135 113 0 0
6.4519 10.2459 0.0655 0.104 -0.682 0.723 171 120 99 0 0
6.8653 10.3788 0.1448 -0.402 -0.560 0.724 175 128 108 0 0
1.5840 11.4479 -0.7796 -0.962 -0.186 -0.198 247 245 241 0 0
1.6726 11.2318 -0.7719 -0.338 -0.489 0.804 243 244 241 0 0
1.6918 11.2243 -0.7687 -0.329 -0.485 0.810 244 244 242 0 0
1.7697 11.1689 -0.7569 -0.671 -0.683 0.289 174 146 135 0 0
1.7890 11.1570 -0.7539 -0.587 -0.786 -0.194 154 117 104 0 0
1.8064 11.1824 -0.7498 -0.072 -0.980 0.184 147 104 88 0 0
1.9989 11.0493 -0.7204 -0.348 -0.303 0.887 194 146 126 0 0
2.0177 11.0436 -0.7172 -0.294 -0.312 0.904 195 147 129 0 0
2.3188 10.9119 -0.6683 -0.227 -0.753 0.617 185 138 117 0 0
2.3374 10.9162 -0.6648 -0.567 -0.654 0.500 189 142 122 0 0
2.3935 10.9109 -0.6550 -0.339 -0.680 0.649 195 147 129 0 0
2.4122 10.8829 -0.6527 -0.469 -0.680 0.564 197 147 128 0 0
2.4309 10.8875 -0.6492 -0.220 -0.737 0.639 183 131 112 0 0
2.4495 10.8798 -0.6462 -0.385 -0.741 0.550 196 144 124 0 0
3.0866 10.8006 -0.5352 -0.105 -0.646 0.756 182 130 109 0 0
3.1047 10.7866 -0.5325 -0.267 -0.571 0.776 183 131 109 0 0
3.1238 10.7899 -0.5289 -0.384 -0.637 0.669 173 121 99 0 0
3.1417 10.7710 -0.5265 -0.536 -0.534 0.654 173 118 97 0 0
3.1597 10.7556 -0.5238 -0.358 -0.618 0.700 185 130 109 0 0
3.2360 10.7646 -0.5098 -0.286 -0.654 0.700 175 124 103 0 0
3.2550 10.7650 -0.5064 -0.167 -0.661 0.732 193 141 119 0 0
3.3677 10.7477 -0.4869 -0.279 -0.607 0.744 194 142 121 0 0
4.0053 10.6265 -0.3774 -0.178 -0.547 0.818 207 153 131 0 0
4.7766 10.4895 -0.2447 -0.178 -0.615 0.769 159 104 82 0 0
4.8914 10.4784 -0.2246 -0.266 -0.700 0.663 195 142 124 0 0
4.9671 10.4662 -0.2115 -0.095 -0.684 0.723 179 129 108 0 0
5.0348 10.4169 -0.2012 -0.436 -0.578 0.689 190 142 123 0 0
5.0562 10.4254 -0.1971 -0.543 -0.645 0.538 179 126 105 0 0
5.0912 10.4069 -0.1915 -0.012 -0.689 0.724 179 125 105 0 0
5.5791 10.3896 -0.1049 -0.405 -0.591 0.697 180 128 107 0 0
5.5966 10.3809 -0.1021 -0.405 -0.591 0.697 189 139 118 0 0
5.6166 10.3814 -0.0985 -0.218 -0.681 0.699 188 137 118 0 0
5.6302 10.3579 -0.0970 -0.342 -0.653 0.676 191 140 122 0 0
5.7789 10.3217 -0.0717 -0.285 -0.582 0.762 181 131 109 0 0
5.8126 10.3003 -0.0665 0.057 -0.719 0.692 176 127 105 0 0
5.8333 10.3035 -0.0627 0.040 -0.752 0.658 178 128 105 0 0
5.8528 10.3020 -0.0593 -0.065 -0.777 0.626 181 129 107 0 0
5.8746 10.3088 -0.0551 -0.180 -0.731 0.659 194 142 121 0 0
5.9802 10.2621 -0.0380 0.044 -0.714 0.699 184 132 112 0 0
6.0013 10.2663 -0.0340 0.032 -0.660 0.751 191 140 119 0 0
6.0264 10.2836 -0.0289 -0.165 -0.622 0.766 185 133 112 0 0
6.1949 10.2472 -0.0001 -0.170 -0.597 0.784 181 129 107 0 0
1.6582 11.2105 -0.7950 -0.419 -0.436 0.796 245 243 237 0 0
1.6778 11.1947 -0.7921 -0.329 -0.485 0.810 248 242 238 0 0
1.6969 11.1870 -0.7890 -0.329 -0.485 0.810 244 244 238 0 0
1.7556 11.1381 -0.7803 -0.408 -0.405 0.818 156 112 98 0 0
1.7765 11.0941 -0.7781 -0.454 -0.446 0.772 158 108 92 0 0
2.3406 10.8984 -0.6845 -0.567 -0.654 0.500 193 147 126 0 0
2.3966 10.8875 -0.6749 -0.330 -0.601 0.728 185 136 117 0 0
2.4153 10.8644 -0.6724 -0.469 -0.680 0.564 189 138 118 0 0
2.4339 10.8654 -0.6690 -0.219 -0.735 0.642 179 127 106 0 0
2.4526 10.8620 -0.6658 -0.225 -0.785 0.577 192 140 118 0 0
3.1438 10.7532 -0.5463 -0.570 -0.780 0.260 181 126 105 0 0
3.1619 10.7405 -0.5435 -0.413 -0.900 0.137 192 137 116 0 0
3.1798 10.7234 -0.5410 -0.330 -0.705 0.628 185 131 110 0 0
3.1991 10.7306 -0.5372 -0.258 -0.580 0.773 187 135 113 0 0
3.2377 10.7423 -0.5299 -0.286 -0.654 0.700 189 137 115 0 0
3.2566 10.7423 -0.5266 -0.167 -0.661 0.732 192 140 117 0 0
3.3310 10.7216 -0.5140 -0.435 -0.549 0.714 182 128 107 0 0
3.3690 10.7222 -0.5072 -0.279 -0.607 0.744 189 138 116 0 0
3.8731 10.6165 -0.4210 -0.316 -0.655 0.686 159 102 82 0 0
3.8920 10.6143 -0.4177 -0.274 -0.627 0.729 180 122 101 0 0
4.0046 10.5956 -0.3983 -0.025 -0.725 0.688 196 145 124 0 0
4.1928 10.5675 -0.3657 -0.478 -0.549 0.685 183 135 116 0 0
4.2122 10.5684 -0.3622 -0.312 -0.635 0.707 173 123 103 0 0
4.2343 10.5880 -0.3576 -0.592 -0.705 0.390 176 125 103 0 0
4.2517 10.5751 -0.3549 -0.527 -0.774 0.351 186 135 114 0 0
4.3437 10.5460 -0.3395 -0.142 -0.573 0.807 183 131 111 0 0
4.3619 10.5390 -0.3366 -0.380 -0.626 0.681 206 154 136 0 0
5.0542 10.4012 -0.2179 -0.339 -0.735 0.588 187 136 115 0 0
5.5759 10.3644 -0.1261 -0.278 -0.654 0.703 181 129 108 0 0
5.6091 10.3404 -0.1210 0.012 -0.834 0.551 186 134 113 0 0
5.6297 10.3433 -0.1173 -0.045 -0.868 0.495 184 132 111 0 0
5.8315 10.2853 -0.0833 0.040 -0.752 0.658 189 139 116 0 0
5.8515 10.2856 -0.0798 -0.065 -0.777 0.626 182 130 109 0 0
5.8727 10.2906 -0.0758 -0.180 -0.731 0.659 191 139 118 0 0
5.8912 10.2858 -0.0727 -0.160 -0.683 0.712 188 137 115 0 0
5.9785 10.2449 -0.0586 -0.057 -0.691 0.720 181 130 111 0 0
6.4556 10.1771 0.0242 -0.128 -0.622 0.772 194 142 121 0 0
6.4743 10.1731 0.0274 -0.240 -0.679 0.694 184 128 107 0 0
6.4954 10.1759 0.0312 -0.250 -0.632 0.734 186 135 115 0 0
6.5149 10.1743 0.0347 -0.040 -0.674 0.738 195 146 125 0 0
6.5360 10.1773 0.0385 -0.040 -0.674 0.738 180 133 113 0 0
1.4448 11.1150 -0.8562 0.028 -0.997 -0.076 243 243 241 0 0
1.7611 11.0914 -0.8006 -0.408 -0.405 0.818 189 137 117 0 0
1.7982 11.0919 -0.7940 -0.547 -0.407 0.731 201 150 129 0 0
2.0085 10.9426 -0.7617 -0.626 -0.561 0.542 200 151 134 0 0
2.0279 10.9150 -0.7592 -0.558 -0.560 0.612 193 146 130 0 0
2.0468 10.9010 -0.7563 -0.624 -0.515 0.588 185 138 122 0 0
2.0655 10.8913 -0.7533 -0.466 -0.587 0.662 184 138 123 0 0
2.0842 10.8830 -0.7502 -0.027 -0.641 0.767 198 152 137 0 0
2.1026 10.8863 -0.7468 -0.027 -0.641 0.767 193 149 133 0 0
2.8838 10.7627 -0.6119 -0.147 -0.644 0.751 191 141 121 0 0
3.2393 10.7193 -0.5500 -0.270 -0.650 0.710 166 114 90 0 0
4.0417 10.5622 -0.4124 -0.249 -0.565 0.787 192 141 120 0 0
4.3615 10.5159 -0.3570 -0.280 -0.714 0.642 191 138 118 0 0
4.3803 10.5125 -0.3538 0.001 -0.689 0.725 188 135 117 0 0
4.3989 10.5087 -0.3506 -0.094 -0.670 0.736 197 145 127 0 0
4.4187 10.5120 -0.3470 -0.170 -0.652 0.739 197 146 127 0 0
4.4378 10.5108 -0.3436 -0.193 -0.669 0.718 190 139 120 0 0
4.5827 10.4546 -0.3197 -0.346 -0.526 0.777 189 142 123 0 0
6.1997 10.1777 -0.0411 -0.152 -0.690 0.708 187 135 112 0 0
6.4714 10.1545 0.0066 -0.238 -0.759 0.606 201 148 129 0 0
6.5077 10.1434 0.0126 0.109 -0.685 0.721 200 152 134 0 0
6.5783 10.1162 0.0243 -0.224 -0.587 0.778 190 143 124 0 0
6.5984 10.1163 0.0279 -0.237 -0.616 0.751 187 140 120 0 0
1.4672 11.1020 -0.8722 0.380 -0.911 0.163 243 243 241 0 0
1.5392 11.1286 -0.8585 -0.050 -0.932 -0.359 245 243 240 0 0
2.0320 10.8780 -0.7791 -0.488 -0.601 0.633 188 141 124 0 0
2.0506 10.8740 -0.7759 -0.558 -0.560 0.612 191 144 127 0 0
2.0692 10.8666 -0.7729 -0.419 -0.566 0.710 197 151 134 0 0
2.0878 10.8608 -0.7697 -0.029 -0.661 0.750 197 151 135 0 0
2.1618 10.8551 -0.7568 -0.304 -0.610 0.731 192 146 128 0 0
3.9446 10.5236 -0.4505 -0.022 -0.658 0.753 197 146 126 0 0
3.9640 10.5271 -0.4469 -0.022 -0.658 0.753 201 152 134 0 0
4.3790 10.4847 -0.3745 0.034 -0.636 0.771 192 139 120 0 0
4.3986 10.4866 -0.3709 -0.042 -0.671 0.740 192 140 121 0 0
4.4901 10.4583 -0.3556 -0.041 -0.635 0.771 183 131 109 0 0
4.5478 10.4572 -0.3454 -0.515 -0.588 0.623 187 138 118 0 0
5.2557 10.3140 -0.2241 -0.170 -0.626 0.761 194 142 124 0 0
5.2770 10.3215 -0.2201 -0.246 -0.577 0.779 202 155 139 0 0
5.4567 10.2575 -0.1902 -0.243 -0.579 0.778 185 131 110 0 0
6.1551 10.1516 -0.0695 -0.046 -0.673 0.738 199 147 125 0 0
6.1958 10.1548 -0.0621 -0.079 -0.704 0.705 173 121 99 0 0
6.5041 10.1232 -0.0083 0.125 -0.727 0.675 208 160 143 0 0
1.2751 11.2300 -0.9219 -0.170 -0.437 0.883 244 244 242 0 0
1.4695 11.1115 -0.8911 -0.097 -0.906 0.412 244 244 241 0 0
2.0730 10.8390 -0.7924 -0.340 -0.560 0.756 171 124 105 0 0
2.1100 10.8331 -0.7861 -0.068 -0.621 0.781 201 154 138 0 0
2.7024 10.7364 -0.6839 -0.306 -0.615 0.727 179 131 109 0 0
2.8683 10.6807 -0.6562 -0.277 -0.581 0.765 187 136 114 0 0
3.6687 10.5745 -0.5173 -0.190 -0.638 0.746 179 129 106 0 0
3.8180 10.5514 -0.4916 -0.075 -0.676 0.733 186 130 109 0 0
3.9444 10.4969 -0.4708 0.029 -0.736 0.677 190 138 120 0 0
4.5790 10.3973 -0.3612 -0.305 -0.510 0.804 184 133 116 0 0
4.8263 10.3793 -0.3179 -0.439 -0.591 0.677 190 138 116 0 0
4.8439 10.3704 -0.3150 -0.411 -0.573 0.709 181 129 108 0 0
4.8583 10.3460 -0.3132 -0.502 -0.589 0.633 176 124 103 0 0
5.2532 10.2895 -0.2449 -0.170 -0.626 0.761 196 149 132 0 0
5.4168 10.2407 -0.2173 -0.226 -0.663 0.714 182 128 107 0 0
5.4714 10.2253 -0.2081 -0.141 -0.583 0.800 162 110 89 0 0
5.6440 10.2125 -0.1779 -0.346 -0.615 0.709 197 147 126 0 0
6.2775 10.0902 -0.0692 0.142 -0.641 0.754 195 142 122 0 0
6.6521 10.0789 -0.0030 0.146 -0.843 0.517 199 157 139 0 0
6.6737 10.0834 0.0010 0.023 -0.983 0.184 181 140 122 0 0
2.0582 10.8218 -0.8150 -0.526 -0.567 0.634 190 141 119 0 0
2.0768 10.8119 -0.8120 -0.419 -0.566 0.710 182 136 113 0 0
2.1693 10.7841 -0.7964 -0.143 -0.597 0.789 190 143 125 0 0
2.2059 10.7936 -0.7896 -0.352 -0.597 0.721 184 133 114 0 0
2.6305 10.6972 -0.7172 -0.397 -0.571 0.719 176 125 104 0 0
2.8704 10.6527 -0.6760 -0.289 -0.619 0.730 189 138 115 0 0
3.6503 10.5482 -0.5408 -0.329 -0.907 0.262 190 138 119 0 0
3.6690 10.5463 -0.5376 -0.153 -0.956 0.249 186 134 114 0 0
3.6877 10.5441 -0.5343 -0.153 -0.956 0.249 183 130 109 0 0
3.7061 10.5398 -0.5312 0.323 -0.897 0.302 186 135 114 0 0
3.9456 10.4812 -0.4905 -0.312 -0.613 0.726 180 128 110 0 0
4.2268 10.4497 -0.4416 -0.327 -0.629 0.705 200 151 133 0 0
5.0474 10.3098 -0.3002 -0.113 -0.720 0.685 181 126 105 0 0
5.0805 10.2839 -0.2951 -0.163 -0.598 0.784 174 122 102 0 0
5.0994 10.2817 -0.2918 -0.202 -0.622 0.757 169 118 100 0 0
5.1190 10.2827 -0.2883 -0.333 -0.567 0.753 179 130 114 0 0
5.4343 10.2197 -0.2343 -0.480 -0.564 0.672 185 134 113 0 0
5.4508 10.2081 -0.2317 -0.343 -0.653 0.675 175 125 104 0 0
6.3901 10.0609 -0.0696 -0.048 -0.631 0.775 194 148 130 0 0
6.6868 10.0545 -0.0172 -0.013 -0.867 0.499 173 130 113 0 0
1.8789 10.8015 -0.8666 -0.241 -0.612 0.753 197 149 129 0 0
2.2833 10.7364 -0.7969 -0.205 -0.713 0.671 175 127 107 0 0
2.6521 10.6997 -0.7326 -0.269 -0.623 0.734 180 128 107 0 0
3.8733 10.4837 -0.5226 -0.549 -0.516 0.657 177 130 108 0 0
3.9271 10.4590 -0.5137 -0.220 -0.638 0.738 185 136 119 0 0
3.9457 10.4563 -0.5105 -0.220 -0.638 0.738 179 129 110 0 0
4.4637 10.3582 -0.4216 -0.563 -0.504 0.655 190 139 120 0 0
4.5750 10.3387 -0.4025 -0.323 -0.567 0.758 190 138 121 0 0
4.8732 10.2923 -0.3510 0.031 -0.679 0.733 175 118 99 0 0
4.9095 10.2819 -0.3449 -0.059 -0.804 0.592 194 142 121 0 0
5.8055 10.1349 -0.1904 -0.201 -0.826 0.526 185 133 112 0 0
6.2478 10.0388 -0.1149 -0.380 -0.569 0.729 184 133 112 0 0
6.3849 10.0353 -0.0907 -0.048 -0.631 0.775 193 145 127 0 0
1.0624 11.2323 -1.0186 -0.433 -0.317 0.844 244 244 242 0 0
1.2574 11.1167 -0.9872 -0.269 -0.441 0.856 245 244 242 0 0
2.6547 10.6756 -0.7521 -0.269 -0.623 0.734 190 138 117 0 0
2.9119 10.6071 -0.7085 -0.545 -0.526 0.653 194 143 122 0 0
3.0218 10.5750 -0.6899 -0.129 -0.613 0.780 188 137 116 0 0
3.4647 10.5071 -0.6135 -0.122 -0.611 0.782 170 114 91 0 0
3.5201 10.4981 -0.6040 0.140 -0.731 0.668 196 141 121 0 0
3.8353 10.4549 -0.5494 -0.300 -0.555 0.776 188 135 113 0 0
3.8535 10.4493 -0.5464 -0.300 -0.555 0.776 177 126 105 0 0
3.9837 10.4330 -0.5238 -0.356 -0.654 0.667 186 138 118 0 0
4.2972 10.3698 -0.4701 -0.226 -0.644 0.731 185 133 114 0 0
5.2596 10.1931 -0.3047 0.194 -0.845 0.498 189 138 117 0 0
5.3360 10.1888 -0.2914 -0.112 -0.684 0.721 191 135 115 0 0
5.5367 10.1385 -0.2572 -0.192 -0.640 0.744 176 120 97 0 0
5.5753 10.1373 -0.2505 -0.338 -0.618 0.710 167 118 96 0 0
5.5910 10.1234 -0.2481 -0.293 -0.613 0.734 183 138 116 0 0
6.2432 10.0145 -0.1357 -0.313 -0.651 0.691 184 136 115 0 0
6.3160 9.9965 -0.1233 -0.220 -0.746 0.628 191 142 124 0 0
6.3328 9.9878 -0.1206 0.120 -0.901 0.416 176 126 109 0 0
6.3569 10.0009 -0.1160 -0.047 -0.781 0.622 194 145 128 0 0
6.3779 10.0045 -0.1122 0.103 -0.794 0.600 180 132 112 0 0
6.3988 10.0078 -0.1084 0.079 -0.849 0.522 183 134 113 0 0
2.3265 10.6744 -0.8293 -0.386 -0.628 0.676 181 129 107 0 0
2.7484 10.6040 -0.7567 -0.391 -0.556 0.734 184 133 112 0 0
2.9683 10.5542 -0.7191 -0.185 -0.553 0.812 186 135 114 0 0
2.9867 10.5518 -0.7160 -0.150 -0.592 0.792 182 132 111 0 0
3.0051 10.5489 -0.7128 -0.170 -0.625 0.762 180 130 108 0 0
3.0793 10.5504 -0.6997 -0.097 -0.552 0.828 182 131 110 0 0
3.2442 10.5118 -0.6716 -0.108 -0.656 0.747 172 121 98 0 0
3.2814 10.5110 -0.6650 -0.171 -0.834 0.525 194 143 125 0 0
3.3002 10.5147 -0.6616 -0.225 -0.706 0.671 183 129 110 0 0
3.5957 10.4718 -0.6106 -0.713 -0.584 0.388 175 120 97 0 0
3.7414 10.4290 -0.5859 -0.190 -0.657 0.730 190 139 117 0 0
3.8349 10.4244 -0.5696 -0.275 -0.646 0.712 162 110 89 0 0
3.8715 10.4157 -0.5633 -0.275 -0.646 0.712 192 142 124 0 0
4.0385 10.3943 -0.5344 -0.280 -0.645 0.711 177 130 112 0 0
4.0561 10.3844 -0.5315 -0.350 -0.598 0.721 191 144 128 0 0
4.3135 10.3317 -0.4875 -0.015 -0.654 0.757 194 143 122 0 0
4.3327 10.3333 -0.4840 0.166 -0.776 0.608 183 131 110 0 0
4.6802 10.2526 -0.4248 -0.403 -0.626 0.667 186 135 114 0 0
4.6978 10.2444 -0.4219 -0.403 -0.626 0.667 171 120 101 0 0
5.2606 10.1834 -0.3241 0.265 -0.849 0.458 163 111 90 0 0
5.2777 10.1741 -0.3214 -0.234 -0.711 0.663 192 140 118 0 0
5.4971 10.1227 -0.2840 -0.002 -0.701 0.713 170 117 95 0 0
5.5173 10.1260 -0.2803 -0.301 -0.578 0.758 211 158 136 0 0
5.5353 10.1206 -0.2773 -0.301 -0.578 0.758 169 115 93 0 0
5.5707 10.1080 -0.2713 -0.333 -0.604 0.724 170 119 97 0 0
5.5881 10.1003 -0.2685 -0.293 -0.613 0.734 177 124 103 0 0
5.9070 10.0574 -0.2133 0.022 -0.673 0.739 174 122 101 0 0
5.9253 10.0535 -0.2102 -0.204 -0.573 0.794 181 129 108 0 0
5.9403 10.0383 -0.2079 -0.326 -0.603 0.728 189 139 118 0 0
6.0110 10.0136 -0.1961 -0.282 -0.583 0.762 179 127 106 0 0
6.2202 9.9939 -0.1597 -0.115 -0.661 0.742 197 150 128 0 0
6.2400 9.9943 -0.1562 -0.313 -0.651 0.691 193 146 126 0 0
6.2955 9.9839 -0.1466 -0.027 -0.705 0.708 204 157 137 0 0
6.3140 9.9802 -0.1435 -0.220 -0.746 0.628 198 150 132 0 0
6.3328 9.9777 -0.1402 0.109 -0.873 0.476 196 147 129 0 0
6.3760 9.9890 -0.1323 0.114 -0.833 0.542 208 160 139 0 0
6.3980 9.9956 -0.1283 0.105 -0.892 0.440 189 139 117 0 0
6.5299 9.9768 -0.1055 0.198 -0.979 0.047 155 107 90 0 0
6.9198 10.0592 -0.0346 -0.151 -0.813 0.562 184 137 119 0 0
6.9927 7.8478 -0.0775 -0.054 -0.643 -0.764 249 249 247 0 0
7.2414 8.1127 -0.0269 -0.780 -0.384 0.494 249 249 247 0 0
7.2008 7.9943 -0.0371 -0.632 -0.460 0.624 249 249 247 0 0
7.2099 7.9779 -0.0359 -0.487 -0.532 0.693 249 249 247 0 0
7.2171 7.9573 -0.0352 -0.613 -0.472 0.633 249 249 247 0 0
7.2648 7.8127 -0.0304 0.671 -0.567 0.477 249 249 247 0 0
7.2917 7.8320 -0.0252 0.587 -0.628 0.511 249 249 247 0 0
1.0033 10.9919 -1.0740 -0.037 -0.942 0.332 244 244 242 0 0
1.0172 11.0296 -1.0707 0.075 -0.983 0.167 244 244 242 0 0
1.2173 11.0221 -1.0356 -0.092 -0.636 0.766 244 244 238 0 0
1.8020 10.6975 -0.9403 -0.268 -0.596 0.757 201 155 135 0 0
2.6407 10.5847 -0.7953 -0.384 -0.547 0.744 191 139 118 0 0
2.6773 10.5804 -0.7890 -0.135 -0.656 0.743 187 135 114 0 0
2.8800 10.5792 -0.7533 0.108 -0.756 0.646 195 148 128 0 0
2.9701 10.5259 -0.7387 -0.170 -0.599 0.783 185 133 112 0 0
2.9885 10.5249 -0.7355 -0.170 -0.599 0.783 185 132 111 0 0
3.0068 10.5205 -0.7324 -0.112 -0.652 0.750 183 131 110 0 0
3.6481 10.4024 -0.6222 0.059 -0.758 0.650 204 153 135 0 0
3.7423 10.4085 -0.6055 -0.202 -0.607 0.769 186 134 114 0 0
4.3130 10.3088 -0.5074 0.125 -0.713 0.690 183 131 110 0 0
5.2950 10.1521 -0.3382 0.186 -0.737 0.650 184 132 110 0 0
5.3165 10.1611 -0.3342 0.186 -0.737 0.650 184 132 110 0 0
5.3329 10.1494 -0.3315 -0.151 -0.701 0.697 181 130 108 0 0
5.4956 10.1045 -0.3039 -0.018 -0.655 0.756 183 132 111 0 0
5.5143 10.1018 -0.3007 -0.294 -0.569 0.768 182 130 110 0 0
5.9365 10.0143 -0.2285 -0.318 -0.584 0.747 192 144 122 0 0
5.9542 10.0085 -0.2255 -0.318 -0.584 0.747 183 135 113 0 0
6.0067 9.9887 -0.2167 -0.282 -0.583 0.762 197 146 125 0 0
6.0642 9.9855 -0.2066 -0.207 -0.630 0.748 196 146 124 0 0
6.2716 9.9606 -0.1707 -0.027 -0.705 0.708 190 145 126 0 0
6.3322 9.9659 -0.1599 -0.062 -0.772 0.632 205 157 137 0 0
6.4906 9.9678 -0.1320 0.209 -0.976 -0.053 159 107 86 0 0
6.8257 10.0139 -0.0719 -0.258 -0.937 -0.236 171 123 101 0 0
6.9424 10.0565 -0.0503 0.193 -0.941 0.276 183 135 119 0 0
6.9828 8.1498 -0.0883 0.508 -0.733 -0.453 249 249 247 0 0
7.0069 8.1641 -0.0837 0.382 -0.681 -0.625 249 249 247 0 0
7.1477 8.3908 -0.0536 -0.557 -0.608 -0.567 249 249 247 0 0
7.0555 8.1190 -0.0762 -0.046 -0.361 0.931 249 249 247 0 0
7.0708 8.0779 -0.0745 -0.506 -0.254 0.824 249 249 247 0 0
7.0925 8.0507 -0.0713 -0.645 -0.301 0.703 249 249 247 0 0
7.1499 7.9550 -0.0635 0.712 -0.638 0.292 249 249 247 0 0
7.1891 7.9647 -0.0564 -0.618 -0.456 0.641 249 249 247 0 0
7.2001 7.9519 -0.0547 -0.681 -0.387 0.621 249 249 247 0 0
7.2167 7.9505 -0.0519 -0.614 -0.385 0.689 249 249 247 0 0
7.3198 8.0529 -0.0313 -0.355 -0.932 -0.080 249 249 247 0 0
7.3263 8.0310 -0.0307 -0.404 -0.564 -0.720 249 249 247 0 0
7.3382 8.0201 -0.0288 -0.404 -0.564 -0.720 249 249 247 0 0
7.3446 7.9983 -0.0282 -0.794 -0.579 -0.185 249 249 247 0 0
7.3517 7.9779 -0.0274 -0.579 -0.581 -0.572 249 249 247 0 0
7.5344 8.2672 0.0116 0.098 -0.289 0.952 249 249 247 0 0
7.5713 8.3040 0.0189 0.098 -0.289 0.952 249 249 247 0 0
7.6195 8.3276 0.0280 0.339 -0.445 -0.829 249 249 247 0 0
7.5947 8.2450 0.0217 -0.007 -0.490 -0.872 249 249 247 0 0
2.2784 10.6159 -0.8775 -0.623 -0.491 0.609 182 131 110 0 0
2.8813 10.5336 -0.7733 -0.097 -0.688 0.719 195 148 129 0 0
3.0271 10.4959 -0.7485 -0.184 -0.683 0.707 190 138 117 0 0
3.3569 10.4425 -0.6917 -0.296 -0.643 0.706 184 134 110 0 0
3.4659 10.4124 -0.6732 0.167 -0.778 0.605 170 117 95 0 0
3.7053 10.3838 -0.6318 -0.360 -0.564 0.743 189 138 119 0 0
4.2562 10.2874 -0.5371 -0.184 -0.595 0.782 182 127 107 0 0
5.8579 10.0006 -0.2618 -0.237 -0.601 0.764 175 122 99 0 0
5.9331 9.9921 -0.2488 -0.354 -0.634 0.688 199 150 129 0 0
5.9506 9.9855 -0.2459 -0.423 -0.588 0.689 196 147 125 0 0
6.0031 9.9663 -0.2371 -0.270 -0.626 0.732 194 142 122 0 0
6.0205 9.9595 -0.2342 -0.213 -0.622 0.753 196 147 127 0 0
6.0394 9.9577 -0.2309 -0.156 -0.688 0.709 192 145 122 0 0
6.0944 9.9467 -0.2214 -0.288 -0.571 0.768 195 144 122 0 0
7.0488 8.4803 -0.0861 -0.388 -0.073 0.919 248 248 246 0 0
7.1104 8.4581 -0.0758 -0.171 -0.154 0.973 249 249 247 0 0
7.1264 8.4153 -0.0739 0.410 -0.661 -0.628 249 249 248 0 0
7.1430 8.4125 -0.0711 -0.639 -0.551 -0.537 249 249 248 0 0
7.1541 8.3980 -0.0694 -0.639 -0.551 -0.537 249 249 247 0 0
7.0670 8.0272 -0.0929 -0.332 -0.222 0.917 249 249 244 0 0
7.4973 8.1196 -0.0152 -0.045 -0.265 0.963 249 250 246 0 0
7.5679 8.1874 -0.0013 0.053 -0.294 0.954 249 249 246 0 0
7.5987 8.2122 0.0046 0.076 -0.298 0.952 249 250 246 0 0
7.6418 8.2605 0.0133 0.248 -0.373 0.894 248 250 247 0 0
7.6941 8.3260 0.0239 0.308 -0.387 0.869 248 250 247 0 0
0.9035 10.9733 -1.1305 -0.255 -0.760 0.598 244 243 241 0 0
0.9215 10.9728 -1.1273 -0.170 -0.782 0.599 245 244 242 0 0
0.9398 10.9695 -1.1242 -0.345 -0.744 0.573 245 242 242 0 0
0.9584 10.9635 -1.1210 -0.204 -0.768 0.607 244 243 241 0 0
1.9547 10.6401 -0.9528 0.077 -0.819 0.568 192 143 124 0 0
1.9908 10.6399 -0.9465 -0.400 -0.781 0.479 202 155 135 0 0
2.0456 10.6216 -0.9373 -0.382 -0.611 0.693 194 148 128 0 0
2.0820 10.6131 -0.9311 -0.202 -0.605 0.770 194 146 124 0 0
2.1364 10.6056 -0.9217 -0.318 -0.565 0.761 166 115 94 0 0
2.1903 10.6276 -0.9118 -0.387 -0.556 0.735 177 125 103 0 0
2.2636 10.5869 -0.8997 -0.397 -0.628 0.669 179 128 106 0 0
2.2999 10.5796 -0.8935 -0.379 -0.646 0.663 179 129 108 0 0
2.4272 10.5549 -0.8717 -0.354 -0.616 0.704 177 125 103 0 0
2.4454 10.5403 -0.8688 -0.474 -0.535 0.699 174 122 100 0 0
3.3587 10.4263 -0.7109 0.008 -0.800 0.599 181 127 103 0 0
3.4167 10.4552 -0.7001 -0.003 -0.718 0.696 183 132 111 0 0
3.4356 10.4579 -0.6967 -0.138 -0.691 0.710 196 145 124 0 0
3.4677 10.3977 -0.6923 0.174 -0.739 0.651 179 127 106 0 0
3.4862 10.3972 -0.6891 0.304 -0.749 0.588 184 132 111 0 0
5.6876 10.0033 -0.3109 -0.397 -0.680 0.616 186 140 122 0 0
5.7049 9.9959 -0.3080 -0.397 -0.680 0.616 190 141 122 0 0
5.8011 9.9942 -0.2912 -0.194 -0.568 0.800 185 136 113 0 0
6.0182 9.9413 -0.2541 -0.206 -0.623 0.755 201 154 134 0 0
6.0370 9.9390 -0.2509 -0.206 -0.623 0.755 178 131 111 0 0
6.0562 9.9384 -0.2475 -0.099 -0.608 0.788 187 140 117 0 0
6.8282 8.3370 -0.1450 0.203 -0.735 0.648 249 249 247 0 0
6.8589 8.3268 -0.1398 0.212 -0.888 0.409 248 248 246 0 0
7.0765 8.7369 -0.0932 -0.229 -0.109 0.967 248 248 246 0 0
7.0907 8.7276 -0.0909 -0.229 -0.109 0.967 248 249 247 0 0
7.0953 8.6971 -0.0907 -0.235 -0.115 0.965 248 249 246 0 0
7.0560 8.3333 -0.1051 -0.171 -0.154 0.973 249 250 244 0 0
7.0734 8.3327 -0.1020 -0.133 -0.159 0.978 250 249 244 0 0
7.1288 8.4138 -0.0907 -0.022 -0.645 -0.764 249 248 241 0 0
7.1490 8.4189 -0.0870 -0.552 -0.634 -0.542 249 247 239 0 0
7.1608 8.4056 -0.0852 -0.626 -0.687 -0.369 247 244 236 0 0
6.9906 8.0050 -0.1233 -0.267 -0.248 0.931 247 242 233 0 0
7.0072 8.0038 -0.1204 -0.246 -0.226 0.942 243 239 228 0 0
7.0431 7.9707 -0.1148 -0.212 -0.297 0.931 238 230 217 0 0
7.4308 8.0185 -0.0458 -0.041 -0.263 0.964 250 250 245 0 0
7.4555 8.0324 -0.0412 -0.045 -0.265 0.963 250 250 246 0 0
7.4775 8.0411 -0.0371 -0.034 -0.271 0.962 249 249 247 0 0
7.5360 8.0860 -0.0259 0.053 -0.291 0.955 249 249 247 0 0
7.6645 8.1953 -0.0011 -0.052 -0.292 0.955 249 250 245 0 0
7.6822 8.1948 0.0019 -0.053 -0.331 0.942 249 250 246 0 0
1.0008 10.9320 -1.1334 0.768 -0.626 -0.140 243 243 239 0 0
1.8695 10.5986 -0.9876 -0.242 -0.730 0.639 194 149 128 0 0
1.9403 10.6239 -0.9747 0.232 -0.742 0.629 188 142 124 0 0
1.9582 10.6274 -0.9715 0.077 -0.819 0.568 179 131 112 0 0
2.0493 10.5986 -0.9561 -0.395 -0.704 0.590 211 165 142 0 0
2.0676 10.5895 -0.9531 -0.404 -0.741 0.537 195 148 125 0 0
2.0858 10.5817 -0.9500 -0.404 -0.741 0.537 176 127 106 0 0
2.2490 10.5477 -0.9221 -0.322 -0.580 0.748 183 133 110 0 0
2.4302 10.5196 -0.8909 -0.395 -0.649 0.650 185 133 111 0 0
2.6117 10.4944 -0.8596 -0.284 -0.648 0.707 177 122 100 0 0
2.6481 10.4962 -0.8531 -0.183 -0.731 0.658 197 151 128 0 0
2.9940 10.4454 -0.7935 -0.096 -0.626 0.774 195 142 120 0 0
3.1213 10.4206 -0.7717 -0.396 -0.594 0.700 182 133 113 0 0
3.4694 10.3823 -0.7114 0.081 -0.755 0.651 193 144 125 0 0
3.4879 10.3812 -0.7082 0.117 -0.722 0.682 188 137 117 0 0
3.5070 10.3874 -0.7047 0.101 -0.712 0.695 184 133 113 0 0
3.6320 10.3350 -0.6838 0.001 -0.640 0.769 189 136 116 0 0
4.4374 10.2020 -0.5453 -0.262 -0.687 0.678 101 50 31 0 0
4.4571 10.2070 -0.5417 0.041 -0.862 0.506 144 92 71 0 0
4.9654 10.0926 -0.4549 -0.227 -0.628 0.745 186 134 113 0 0
5.0573 10.0778 -0.4391 -0.104 -0.677 0.728 167 113 92 0 0
5.4035 10.0076 -0.3797 -0.262 -0.608 0.749 178 127 105 0 0
6.0850 9.8956 -0.2625 -0.249 -0.698 0.671 205 156 137 0 0
6.1041 9.8947 -0.2592 -0.136 -0.748 0.650 188 137 120 0 0
6.7119 9.9487 -0.1517 0.157 -0.954 0.257 188 141 123 0 0
7.0621 10.1293 -0.0869 0.724 -0.689 -0.031 228 218 212 0 0
7.0966 10.1653 -0.0802 0.724 -0.689 -0.031 247 246 243 0 0
7.1210 10.1754 -0.0757 0.613 -0.785 -0.090 248 247 245 0 0
6.9183 8.3744 -0.1454 0.565 -0.684 0.462 248 249 247 0 0
6.9352 8.3725 -0.1425 0.456 -0.764 0.457 248 249 247 0 0
7.0390 8.5645 -0.1207 -0.248 -0.095 0.964 247 249 246 0 0
7.0029 8.2115 -0.1337 -0.171 -0.154 0.973 239 234 222 0 0
7.0143 8.1983 -0.1320 -0.133 -0.159 0.978 237 230 218 0 0
7.1394 8.4301 -0.1056 -0.098 -0.733 -0.674 234 227 212 0 0
6.9663 7.9470 -0.1452 -0.266 -0.243 0.933 235 222 206 0 0
6.9806 7.9411 -0.1428 -0.174 -0.276 0.945 236 223 205 0 0
6.9957 7.9369 -0.1402 -0.260 -0.230 0.938 236 221 203 0 0
7.0308 7.9029 -0.1347 -0.309 -0.220 0.925 237 220 199 0 0
7.4122 7.9427 -0.0671 -0.034 -0.271 0.962 248 243 236 0 0
7.4362 7.9555 -0.0627 -0.034 -0.271 0.962 250 248 242 0 0
7.5624 8.0631 -0.0385 0.043 -0.266 0.963 249 249 246 0 0
7.6797 8.1842 -0.0157 0.189 -0.325 0.926 249 250 247 0 0
7.7672 8.1805 -0.0004 0.102 -0.355 0.929 249 249 247 0 0
1.8730 10.5846 -1.0061 -0.319 -0.747 0.583 192 147 128 0 0
2.1975 10.5619 -0.9498 -0.510 -0.530 0.678 179 128 107 0 0
2.2881 10.5502 -0.9342 -0.663 -0.500 0.558 180 130 107 0 0
2.3788 10.5058 -0.9191 -0.378 -0.585 0.718 197 146 125 0 0
2.3969 10.4972 -0.9161 -0.069 -0.684 0.726 191 139 118 0 0
2.4331 10.4914 -0.9098 -0.263 -0.573 0.776 186 134 112 0 0
2.5960 10.4654 -0.8818 -0.268 -0.626 0.732 169 116 94 0 0
2.6507 10.4759 -0.8720 -0.113 -0.685 0.720 181 132 110 0 0
2.6690 10.4763 -0.8689 -0.113 -0.685 0.720 183 136 114 0 0
2.6870 10.4687 -0.8658 -0.298 -0.637 0.711 167 117 97 0 0
2.7411 10.4463 -0.8568 -0.207 -0.599 0.774 187 137 116 0 0
3.1228 10.3932 -0.7909 -0.298 -0.623 0.723 212 164 144 0 0
3.4891 10.3596 -0.7275 0.036 -0.649 0.760 185 133 114 0 0
3.5076 10.3602 -0.7242 -0.146 -0.711 0.688 194 143 124 0 0
3.6146 10.3156 -0.7063 -0.328 -0.642 0.693 190 138 117 0 0
3.6331 10.3148 -0.7031 -0.121 -0.665 0.737 198 146 125 0 0
3.7518 10.2131 -0.6841 0.104 -0.866 0.488 184 133 112 0 0
3.7920 10.2417 -0.6766 0.370 -0.788 0.493 188 140 118 0 0
4.3399 10.1617 -0.5821 -0.152 -0.698 0.699 177 120 100 0 0
4.3580 10.1576 -0.5791 -0.113 -0.647 0.754 168 112 90 0 0
4.8355 10.0908 -0.4967 -0.287 -0.603 0.745 192 140 119 0 0
4.9637 10.0697 -0.4747 -0.227 -0.628 0.745 175 123 102 0 0
5.1261 10.0311 -0.4469 -0.129 -0.643 0.755 182 127 105 0 0
5.1631 10.0264 -0.4406 -0.303 -0.611 0.732 191 136 115 0 0
5.3999 9.9807 -0.3999 -0.335 -0.660 0.672 180 127 103 0 0
5.4172 9.9737 -0.3970 -0.443 -0.572 0.690 178 126 104 0 0
5.6365 9.9340 -0.3594 -0.287 -0.599 0.748 200 156 139 0 0
5.6545 9.9297 -0.3563 -0.266 -0.612 0.745 188 141 123 0 0
5.6748 9.9337 -0.3527 -0.207 -0.601 0.772 197 149 128 0 0
5.7336 9.9379 -0.3423 -0.008 -0.701 0.713 176 126 107 0 0
5.7539 9.9413 -0.3387 -0.008 -0.701 0.713 180 133 113 0 0
5.7719 9.9370 -0.3357 -0.145 -0.711 0.688 183 136 116 0 0
5.9909 9.8940 -0.2981 -0.206 -0.617 0.759 177 127 106 0 0
6.1021 9.8779 -0.2789 -0.136 -0.748 0.650 200 150 133 0 0
6.1890 9.9064 -0.2633 -0.229 -0.959 0.167 172 121 100 0 0
6.3491 9.9177 -0.2351 0.007 -0.955 0.297 140 89 69 0 0
7.0679 10.1353 -0.1056 0.661 -0.719 -0.216 233 226 220 0 0
7.1298 10.1885 -0.0938 0.661 -0.719 -0.216 247 246 244 0 0
6.9583 8.4174 -0.1547 -0.241 -0.124 0.963 249 247 240 0 0
6.9540 8.0988 -0.1610 -0.186 -0.164 0.969 234 222 203 0 0
6.9054 7.9198 -0.1727 -0.731 -0.130 0.670 235 222 202 0 0
6.9129 7.8994 -0.1717 -0.718 -0.205 0.665 235 220 201 0 0
6.9178 7.8736 -0.1713 -0.558 -0.197 0.806 236 219 199 0 0
6.9475 7.8646 -0.1663 -0.130 -0.345 0.930 236 218 197 0 0
7.3729 7.8607 -0.0919 -0.033 -0.276 0.960 234 222 208 0 0
7.3965 7.8730 -0.0876 -0.033 -0.276 0.960 236 226 213 0 0
7.4209 7.8868 -0.0831 -0.013 -0.276 0.961 238 229 218 0 0
7.7016 8.0860 -0.0305 0.072 -0.402 0.913 248 248 246 0 0
7.7379 8.1204 -0.0236 0.069 -0.368 0.927 249 249 247 0 0
7.8690 8.2959 0.0024 -0.177 -0.299 0.938 249 249 247 0 0
0.7671 11.1268 -1.2095 -0.756 -0.312 0.576 244 244 242 0 0
1.8420 10.5469 -1.0311 -0.441 -0.555 0.706 199 153 134 0 0
1.8766 10.5704 -1.0247 -0.297 -0.653 0.696 194 148 129 0 0
1.8948 10.5634 -1.0216 -0.131 -0.628 0.767 195 148 129 0 0
2.0575 10.5193 -0.9939 -0.415 -0.654 0.633 185 136 115 0 0
2.5626 10.4529 -0.9068 -0.461 -0.562 0.687 189 140 119 0 0
2.5806 10.4425 -0.9038 -0.417 -0.575 0.704 176 125 102 0 0
3.1779 10.3447 -0.8011 -0.453 -0.534 0.714 173 122 103 0 0
3.1955 10.3336 -0.7982 -0.453 -0.534 0.714 190 138 117 0 0
3.3584 10.3034 -0.7702 -0.248 -0.647 0.721 178 129 107 0 0
3.8120 10.2276 -0.6923 0.061 -0.840 0.540 196 147 127 0 0
3.9778 10.2177 -0.6635 -0.347 -0.579 0.738 175 124 106 0 0
3.9975 10.2258 -0.6599 -0.216 -0.673 0.707 191 143 125 0 0
4.1737 10.1541 -0.6303 0.043 -0.660 0.750 182 130 109 0 0
4.3217 10.1454 -0.6046 -0.201 -0.663 0.721 182 127 107 0 0
4.3780 10.1459 -0.5948 -0.267 -0.613 0.744 197 144 123 0 0
4.4141 10.1380 -0.5886 -0.097 -0.640 0.762 180 127 108 0 0
4.6448 10.0635 -0.5495 -0.506 -0.628 0.592 174 122 102 0 0
5.0159 10.0333 -0.4852 -0.266 -0.606 0.750 181 130 109 0 0
5.1063 10.0135 -0.4697 -0.217 -0.594 0.775 179 124 103 0 0
5.2498 9.9774 -0.4453 -0.059 -0.760 0.647 177 121 98 0 0
5.3982 9.9615 -0.4196 -0.335 -0.660 0.672 161 107 81 0 0
5.4145 9.9504 -0.4169 -0.472 -0.619 0.628 179 125 102 0 0
5.4479 9.9322 -0.4114 -0.393 -0.680 0.619 211 161 140 0 0
5.9669 9.8680 -0.3218 0.022 -0.727 0.686 201 153 133 0 0
5.9874 9.8721 -0.3182 0.022 -0.727 0.686 182 133 114 0 0
6.5246 9.9043 -0.2239 -0.108 -0.966 0.237 174 125 102 0 0
7.0767 10.1487 -0.1236 0.651 -0.725 -0.224 238 234 228 0 0
7.1067 10.1730 -0.1180 0.616 -0.732 -0.291 248 246 243 0 0
7.1365 10.1966 -0.1124 0.620 -0.743 -0.252 248 246 244 0 0
6.8783 8.5946 -0.1830 -0.539 0.014 0.842 248 248 246 0 0
6.9085 8.2993 -0.1824 -0.241 -0.124 0.963 233 222 208 0 0
6.8624 7.8574 -0.1975 -0.709 -0.634 0.308 236 221 198 0 0
6.8702 7.8379 -0.1964 -0.938 -0.290 0.188 235 219 196 0 0
7.7392 8.0841 -0.0408 0.037 -0.320 0.947 249 249 247 0 0
7.7979 8.1593 -0.0294 -0.034 -0.245 0.969 249 249 247 0 0
7.8296 8.1845 -0.0234 0.046 -0.288 0.956 249 249 247 0 0
7.8755 8.2354 -0.0146 -0.086 -0.752 0.654 249 249 247 0 0
7.8850 8.2198 -0.0132 0.254 -0.375 0.892 249 249 247 0 0
0.5657 11.4248 -1.2597 -0.436 -0.217 0.874 243 243 241 0 0
0.5901 11.3821 -1.2561 -0.348 -0.266 0.899 244 244 242 0 0
0.6080 11.3855 -1.2529 -0.533 -0.185 0.825 244 244 242 0 0
1.6302 10.5682 -1.0865 -0.577 -0.552 0.602 188 140 121 0 0
1.6488 10.5555 -1.0835 -0.497 -0.567 0.657 192 145 126 0 0
1.8808 10.5421 -1.0432 -0.164 -0.629 0.760 195 148 128 0 0
1.8988 10.5386 -1.0401 0.179 -0.684 0.707 192 145 125 0 0
1.9165 10.5417 -1.0370 -0.108 -0.627 0.772 182 135 115 0 0
2.5831 10.4103 -0.9227 -0.375 -0.544 0.751 185 134 111 0 0
2.8000 10.3898 -0.8852 -0.260 -0.579 0.773 189 135 114 0 0
2.8181 10.3858 -0.8821 -0.260 -0.579 0.773 191 137 117 0 0
3.1968 10.3070 -0.8173 -0.453 -0.534 0.714 184 131 112 0 0
3.3413 10.2805 -0.7925 -0.427 -0.552 0.717 197 147 127 0 0
3.7240 10.2403 -0.7264 -0.619 -0.587 0.522 183 130 110 0 0
3.7410 10.2266 -0.7236 -0.278 -0.821 0.499 196 144 123 0 0
3.7590 10.2229 -0.7205 -0.216 -0.912 0.350 168 116 95 0 0
3.9392 10.1819 -0.6897 -0.193 -0.655 0.731 189 139 118 0 0
4.1726 10.1251 -0.6499 -0.015 -0.910 0.415 183 129 108 0 0
4.3381 10.1113 -0.6212 0.006 -0.686 0.728 162 108 88 0 0
4.3571 10.1134 -0.6179 -0.060 -0.686 0.725 190 138 116 0 0
4.3748 10.1078 -0.6149 -0.472 -0.607 0.639 164 111 90 0 0
4.4125 10.1099 -0.6083 -0.288 -0.578 0.763 181 129 110 0 0
4.6823 10.0472 -0.5621 -0.286 -0.800 0.527 184 132 110 0 0
4.7003 10.0428 -0.5591 -0.286 -0.800 0.527 185 133 113 0 0
4.7747 10.0387 -0.5462 -0.334 -0.783 0.525 170 118 99 0 0
4.7931 10.0366 -0.5430 -0.685 -0.631 0.364 185 132 113 0 0
4.8664 10.0268 -0.5304 -0.275 -0.553 0.786 181 125 104 0 0
5.2278 9.9515 -0.4685 -0.022 -0.622 0.783 155 99 74 0 0
5.2478 9.9560 -0.4649 -0.118 -0.666 0.737 170 113 88 0 0
5.3771 9.9405 -0.4426 -0.167 -0.680 0.714 184 129 103 0 0
5.4125 9.9301 -0.4366 -0.458 -0.588 0.667 176 122 98 0 0
5.9490 9.8619 -0.3441 -0.345 -0.841 0.416 198 153 134 0 0
6.0014 9.8443 -0.3352 -0.196 -0.980 0.024 166 114 94 0 0
6.0205 9.8436 -0.3319 0.039 -0.973 0.227 165 112 90 0 0
6.0411 9.8477 -0.3282 -0.030 -0.895 0.445 160 104 84 0 0
6.0572 9.8375 -0.3256 -0.388 -0.880 0.274 174 118 100 0 0
6.0756 9.8346 -0.3224 -0.521 -0.846 0.113 176 121 103 0 0
6.5031 9.8893 -0.2471 -0.432 -0.864 0.257 178 130 110 0 0
6.6982 9.9376 -0.2124 0.141 -0.986 -0.092 165 119 101 0 0
6.8410 9.9997 -0.1867 -0.030 -0.970 -0.242 139 94 78 0 0
7.0866 10.1651 -0.1415 0.732 -0.655 -0.186 243 239 234 0 0
7.1161 10.1881 -0.1360 0.616 -0.732 -0.291 248 246 243 0 0
7.1455 10.2107 -0.1306 0.616 -0.732 -0.291 248 247 244 0 0
6.8138 8.6897 -0.2102 -0.631 -0.012 0.775 248 248 246 0 0
6.8613 8.7593 -0.2009 -0.544 -0.031 0.839 248 248 247 0 0
6.8445 8.6768 -0.2050 -0.634 -0.006 0.773 248 248 247 0 0
6.8463 8.6386 -0.2053 -0.611 -0.013 0.792 248 248 247 0 0
6.8464 8.5968 -0.2059 -0.620 -0.016 0.784 248 248 246 0 0
6.8598 8.1838 -0.2095 -0.241 -0.124 0.963 235 218 199 0 0
7.8649 8.0801 -0.0358 -0.058 -0.200 0.978 249 249 247 0 0
0.5189 11.3876 -1.2882 -0.505 -0.184 0.843 242 245 242 0 0
1.3680 10.5685 -1.1509 -0.497 -0.558 0.664 177 128 107 0 0
1.5121 10.5286 -1.1264 -0.193 -0.682 0.706 203 157 136 0 0
1.5288 10.5403 -1.1233 -0.178 -0.600 0.780 200 155 134 0 0
1.6167 10.5476 -1.1080 -0.641 -0.630 0.439 204 156 136 0 0
1.6355 10.5315 -1.1049 -0.598 -0.686 0.414 205 158 139 0 0
1.6541 10.5171 -1.1018 -0.598 -0.686 0.414 192 147 128 0 0
1.6716 10.5191 -1.0988 -0.423 -0.729 0.538 194 149 130 0 0
1.7959 10.5164 -1.0772 -0.256 -0.584 0.770 194 147 127 0 0
1.8848 10.5177 -1.0617 -0.267 -0.605 0.750 187 139 119 0 0
1.9032 10.5042 -1.0587 -0.181 -0.660 0.729 183 133 114 0 0
2.9455 10.3175 -0.8797 -0.339 -0.582 0.739 184 133 113 0 0
3.1981 10.2802 -0.8363 -0.385 -0.568 0.728 189 134 114 0 0
3.7425 10.2127 -0.7424 -0.211 -0.621 0.755 189 137 116 0 0
3.7942 10.1798 -0.7339 -0.541 -0.570 0.619 195 140 120 0 0
3.8863 10.1787 -0.7179 -0.284 -0.748 0.600 192 143 125 0 0
3.9240 10.1839 -0.7112 0.092 -0.782 0.617 176 128 110 0 0
3.9405 10.1680 -0.7086 0.281 -0.869 0.407 188 136 117 0 0
4.1748 10.1193 -0.6684 -0.020 -0.957 0.288 170 114 94 0 0
4.3746 10.0877 -0.6341 -0.244 -0.632 0.735 166 112 91 0 0
4.3931 10.0869 -0.6309 -0.408 -0.540 0.736 189 136 118 0 0
4.6990 10.0198 -0.5785 -0.320 -0.650 0.689 185 133 115 0 0
4.7167 10.0147 -0.5755 0.116 -0.724 0.680 183 132 113 0 0
4.7785 10.0423 -0.5644 0.177 -0.933 0.313 174 120 99 0 0
4.7965 10.0377 -0.5613 -0.417 -0.698 0.582 177 123 102 0 0
5.0095 9.9755 -0.5251 -0.289 -0.509 0.811 181 129 107 0 0
5.2258 9.9299 -0.4880 0.019 -0.670 0.742 184 127 102 0 0
5.2441 9.9275 -0.4849 -0.037 -0.735 0.677 174 117 92 0 0
5.8648 9.8267 -0.3782 -0.258 -0.787 0.561 185 134 111 0 0
6.0050 9.8450 -0.3536 -0.330 -0.924 -0.192 142 90 69 0 0
6.0220 9.8378 -0.3507 -0.014 -0.970 0.244 157 102 82 0 0
6.4075 9.8870 -0.2830 -0.057 -0.926 0.374 158 108 85 0 0
7.0983 10.1859 -0.1590 0.697 -0.659 -0.282 246 243 239 0 0
7.1316 10.2186 -0.1528 0.697 -0.659 -0.282 247 246 243 0 0
6.7937 8.6775 -0.2314 -0.643 -0.014 0.766 248 248 246 0 0
6.7946 8.6368 -0.2317 -0.651 -0.016 0.759 248 247 246 0 0
6.7806 8.3542 -0.2378 -0.496 0.000 0.868 248 248 242 0 0
7.4386 7.7397 -0.1312 0.128 -0.366 0.922 237 223 202 0 0
7.4653 7.7578 -0.1263 0.103 -0.347 0.932 235 221 201 0 0
7.5019 7.7942 -0.1195 0.175 -0.366 0.914 238 225 207 0 0
7.7738 8.0062 -0.0694 -0.200 -0.101 0.974 249 248 246 0 0
7.7720 7.9709 -0.0702 -0.172 -0.148 0.974 249 249 248 0 0
7.7930 7.9768 -0.0665 -0.124 -0.161 0.979 248 248 247 0 0
7.8236 8.0000 -0.0609 -0.061 -0.187 0.980 249 249 247 0 0
7.8173 7.9254 -0.0629 -0.092 -0.213 0.973 248 249 247 0 0
7.8603 7.9392 -0.0553 0.221 -0.458 0.861 248 248 246 0 0
7.8982 7.9750 -0.0482 0.293 -0.440 0.849 248 248 246 0 0
0.4921 11.2189 -1.3145 -0.729 -0.265 0.631 243 243 241 0 0
0.5165 11.1758 -1.3107 -0.580 -0.265 0.770 243 243 241 0 0
0.7374 10.8748 -1.2757 -0.433 -0.229 0.872 244 240 235 0 0
1.2459 10.5897 -1.1906 -0.392 -0.619 0.681 190 146 128 0 0
1.2651 10.5723 -1.1875 -0.574 -0.564 0.593 182 135 116 0 0
1.6578 10.5042 -1.1201 -0.480 -0.611 0.629 186 141 120 0 0
1.7118 10.4873 -1.1109 -0.413 -0.564 0.715 194 147 127 0 0
1.7822 10.4944 -1.0986 -0.254 -0.588 0.768 198 152 134 0 0
1.9066 10.4924 -1.0770 -0.279 -0.568 0.774 188 140 121 0 0
1.9246 10.4878 -1.0739 -0.279 -0.568 0.774 190 143 123 0 0
2.6963 10.3479 -0.9415 -0.349 -0.599 0.721 168 120 100 0 0
2.7141 10.3400 -0.9385 -0.366 -0.588 0.722 148 100 79 0 0
2.7320 10.3345 -0.9355 -0.367 -0.602 0.709 188 139 117 0 0
2.9474 10.2926 -0.8985 -0.339 -0.582 0.739 183 132 110 0 0
3.2897 10.2419 -0.8397 -0.021 -0.594 0.804 179 126 104 0 0
3.3259 10.2384 -0.8334 -0.379 -0.543 0.749 183 131 109 0 0
3.7950 10.1605 -0.7528 -0.492 -0.613 0.618 174 120 100 0 0
3.9048 10.1535 -0.7338 -0.342 -0.677 0.652 191 144 127 0 0
4.2630 10.0685 -0.6726 -0.576 -0.805 0.141 159 101 82 0 0
4.2790 10.0518 -0.6700 -0.691 -0.707 0.153 171 113 95 0 0
4.3922 10.0624 -0.6502 -0.435 -0.510 0.742 202 149 131 0 0
5.2269 9.9213 -0.5069 0.154 -0.767 0.623 175 117 93 0 0
5.2438 9.9128 -0.5040 0.037 -0.818 0.574 181 123 99 0 0
5.8476 9.8222 -0.4002 -0.374 -0.806 0.459 183 131 109 0 0
5.8826 9.8111 -0.3943 -0.399 -0.679 0.617 182 127 106 0 0
6.0032 9.8287 -0.3731 -0.212 -0.880 0.425 164 113 92 0 0
6.0235 9.8321 -0.3696 -0.107 -0.958 0.265 170 116 96 0 0
6.0364 9.8116 -0.3675 -0.216 -0.881 0.421 154 100 79 0 0
6.1066 9.7902 -0.3556 -0.344 -0.893 0.290 166 114 92 0 0
6.4460 9.8753 -0.2957 -0.185 -0.882 0.433 176 122 101 0 0
6.7821 8.5157 -0.2526 -0.631 0.046 0.775 248 248 245 0 0
6.7514 8.3610 -0.2597 -0.547 0.010 0.837 249 248 242 0 0
6.7499 8.3168 -0.2605 -0.549 0.012 0.836 246 242 233 0 0
6.7622 7.8775 -0.2633 -0.326 -0.246 0.913 232 215 190 0 0
6.7718 7.8615 -0.2618 -0.423 -0.275 0.863 232 214 190 0 0
6.7819 7.8467 -0.2602 -0.440 -0.266 0.858 233 216 191 0 0
6.8053 7.8242 -0.2564 -0.384 -0.280 0.880 231 215 190 0 0
7.4004 7.6620 -0.1549 0.203 -0.419 0.885 238 223 201 0 0
7.5270 7.7712 -0.1317 0.144 -0.350 0.926 239 225 206 0 0
7.6829 7.8671 -0.1035 -0.238 -0.098 0.966 249 249 242 0 0
7.7041 7.8422 -0.1001 -0.187 -0.150 0.971 248 250 245 0 0
7.7173 7.8345 -0.0979 -0.109 -0.187 0.976 249 249 246 0 0
7.7475 7.8576 -0.0924 -0.026 -0.218 0.976 249 249 246 0 0
7.6560 7.6621 -0.1105 0.189 -0.700 0.688 249 250 245 0 0
7.6788 7.6723 -0.1064 0.189 -0.700 0.688 250 249 245 0 0
7.8053 7.8360 -0.0826 0.182 -0.426 0.886 248 249 247 0 0
7.8578 7.8979 -0.0728 0.425 -0.514 0.745 249 249 247 0 0
7.9029 7.9465 -0.0644 0.321 -0.457 0.830 249 249 247 0 0
8.0280 8.1038 -0.0409 0.429 -0.446 0.786 249 248 245 0 0
0.3928 10.9569 -1.3537 -0.049 -0.288 0.956 243 243 241 0 0
0.4316 10.9342 -1.3472 -0.309 -0.296 0.904 243 243 241 0 0
0.7520 10.7869 -1.2931 -0.497 -0.246 0.832 192 171 160 0 0
1.2513 10.5630 -1.2087 -0.505 -0.618 0.602 185 141 125 0 0
1.2694 10.5570 -1.2056 -0.676 -0.556 0.484 195 149 132 0 0
1.6620 10.4821 -1.1383 -0.433 -0.608 0.665 180 135 114 0 0
1.9106 10.4658 -1.0954 -0.231 -0.660 0.715 205 160 141 0 0
2.1798 10.3816 -1.0495 -0.322 -0.615 0.719 187 141 118 0 0
2.1978 10.3717 -1.0465 -0.048 -0.669 0.742 191 144 121 0 0
2.3404 10.3685 -1.0218 -0.526 -0.567 0.634 185 137 116 0 0
2.8053 10.2730 -0.9421 -0.231 -0.696 0.680 186 134 113 0 0
3.7778 10.1440 -0.7748 -0.498 -0.550 0.671 170 117 97 0 0
3.7958 10.1408 -0.7717 -0.492 -0.613 0.618 186 134 113 0 0
3.8120 10.1224 -0.7691 -0.220 -0.655 0.722 197 145 124 0 0
3.8306 10.1239 -0.7659 -0.230 -0.628 0.743 185 133 113 0 0
3.8486 10.1210 -0.7628 -0.157 -0.685 0.711 170 118 99 0 0
3.8708 10.1519 -0.7586 -0.382 -0.728 0.569 181 131 113 0 0
3.8885 10.1458 -0.7556 -0.423 -0.723 0.546 182 133 117 0 0
3.9059 10.1378 -0.7527 -0.423 -0.723 0.546 186 139 123 0 0
4.2655 10.0644 -0.6911 -0.529 -0.804 0.272 167 108 90 0 0
4.2805 10.0418 -0.6887 -0.640 -0.731 0.237 164 107 89 0 0
4.5146 9.9986 -0.6485 -0.330 -0.560 0.760 182 129 111 0 0
5.1865 9.8969 -0.5330 -0.253 -0.702 0.666 177 123 99 0 0
5.2062 9.9006 -0.5296 0.078 -0.796 0.600 184 129 105 0 0
5.6732 9.8022 -0.4496 0.108 -0.717 0.689 207 160 141 0 0
6.0356 9.7986 -0.3868 -0.181 -0.875 0.450 157 105 84 0 0
6.7512 8.5196 -0.2752 -0.664 -0.005 0.748 246 248 244 0 0
6.7512 8.4775 -0.2756 -0.663 0.005 0.749 248 249 243 0 0
6.7231 7.8967 -0.2861 -0.671 -0.169 0.722 234 217 191 0 0
6.7406 7.8605 -0.2834 -0.370 -0.381 0.847 232 215 189 0 0
6.7440 7.8308 -0.2831 -0.576 -0.322 0.752 229 212 186 0 0
6.7520 7.8115 -0.2819 -0.565 -0.489 0.664 232 215 189 0 0
7.1799 7.5558 -0.2102 -0.017 -0.620 0.784 234 216 192 0 0
7.6002 7.6177 -0.1368 0.261 -0.706 0.659 248 243 234 0 0
7.6491 7.6445 -0.1280 0.070 -0.679 0.731 249 249 243 0 0
7.6708 7.6527 -0.1242 0.189 -0.700 0.688 247 249 245 0 0
8.0335 8.0765 -0.0572 0.540 -0.538 0.646 249 249 247 0 0
8.0594 8.0903 -0.0526 0.653 -0.581 0.486 249 249 247 0 0
0.2923 11.0487 -1.3894 -0.244 -0.221 0.944 243 243 241 0 0
0.4595 10.7749 -1.3627 0.375 -0.599 0.708 244 243 241 0 0
1.1720 10.5114 -1.2416 -0.313 -0.597 0.738 187 142 126 0 0
1.2559 10.5449 -1.2268 -0.429 -0.569 0.702 196 153 137 0 0
1.2743 10.5354 -1.2237 -0.676 -0.556 0.484 195 151 134 0 0
1.6845 10.4495 -1.1534 -0.454 -0.655 0.604 183 137 118 0 0
1.7026 10.4416 -1.1503 -0.449 -0.604 0.658 196 149 131 0 0
1.8638 10.3893 -1.1228 -0.091 -0.788 0.610 185 137 117 0 0
1.8814 10.3896 -1.1198 -0.183 -0.836 0.517 175 128 109 0 0
1.8990 10.3909 -1.1167 0.002 -0.871 0.491 190 145 126 0 0
2.2722 10.3500 -1.0525 -0.234 -0.747 0.622 180 127 106 0 0
2.2901 10.3435 -1.0494 -0.326 -0.696 0.639 182 127 106 0 0
2.3079 10.3398 -1.0464 -0.414 -0.635 0.652 200 148 127 0 0
2.3258 10.3352 -1.0433 -0.203 -0.701 0.684 207 158 136 0 0
2.3435 10.3451 -1.0402 -0.526 -0.567 0.634 195 147 127 0 0
3.0039 10.2115 -0.9270 -0.222 -0.683 0.696 169 117 95 0 0
3.0219 10.2119 -0.9239 0.009 -0.755 0.656 166 115 92 0 0
3.0399 10.2120 -0.9208 0.240 -0.785 0.570 181 129 108 0 0
3.0583 10.2178 -0.9175 0.007 -0.744 0.668 179 127 105 0 0
3.0771 10.2309 -0.9142 -0.109 -0.626 0.772 168 114 92 0 0
3.3272 10.1760 -0.8713 -0.399 -0.586 0.705 192 140 118 0 0
3.8722 10.1385 -0.7773 -0.269 -0.882 0.386 203 155 137 0 0
3.9211 10.0877 -0.7693 -0.578 -0.553 0.600 184 138 122 0 0
4.1164 10.0358 -0.7359 -0.329 -0.552 0.766 181 126 106 0 0
4.2819 10.0311 -0.7073 -0.391 -0.643 0.658 168 114 98 0 0
4.8721 9.9040 -0.6062 -0.288 -0.613 0.736 175 116 95 0 0
4.8893 9.8970 -0.6033 -0.385 -0.688 0.615 163 106 84 0 0
5.2050 9.8823 -0.5488 0.267 -0.748 0.607 193 138 116 0 0
5.4364 9.8263 -0.5092 -0.299 -0.606 0.737 191 137 116 0 0
5.4536 9.8196 -0.5063 -0.240 -0.688 0.685 181 127 106 0 0
5.4907 9.8167 -0.4999 -0.088 -0.699 0.709 179 125 104 0 0
6.4488 9.8641 -0.3337 -0.277 -0.960 -0.024 188 141 123 0 0
6.4885 9.8657 -0.3268 -0.068 -0.984 -0.163 163 118 101 0 0
6.5508 9.8751 -0.3160 -0.025 -0.994 0.105 133 89 73 0 0
7.1542 10.2489 -0.2085 0.557 -0.764 -0.325 246 247 243 0 0
7.1317 10.1402 -0.2133 -0.155 -0.970 -0.187 244 246 243 0 0
6.6757 8.1709 -0.3083 -0.617 0.021 0.786 230 214 192 0 0
6.7290 7.8285 -0.3018 -0.505 -0.277 0.818 232 215 187 0 0
6.7444 7.7883 -0.2995 -0.351 -0.520 0.779 232 215 188 0 0
6.7576 7.7807 -0.2973 -0.407 -0.502 0.763 233 216 190 0 0
6.9239 7.6031 -0.2700 -0.753 -0.355 0.553 229 212 186 0 0
7.1703 7.5316 -0.2279 -0.053 -0.745 0.665 235 218 193 0 0
7.6203 7.5874 -0.1496 0.362 -0.671 0.648 238 233 220 0 0
8.0048 8.0208 -0.0795 0.540 -0.538 0.646 249 249 247 0 0
8.1107 8.1426 -0.0602 0.509 -0.506 0.697 249 249 247 0 0
0.4681 10.7374 -1.3802 0.606 -0.726 0.324 244 243 239 0 0
0.4989 10.7627 -1.3747 0.164 -0.892 0.421 244 243 239 0 0
0.5289 10.7948 -1.3694 -0.030 -0.657 0.753 243 244 238 0 0
1.1765 10.4950 -1.2595 -0.161 -0.678 0.717 186 140 124 0 0
1.1939 10.4940 -1.2565 -0.161 -0.678 0.717 196 153 137 0 0
1.2979 10.5003 -1.2385 -0.347 -0.629 0.696 178 135 118 0 0
1.3160 10.4928 -1.2354 -0.224 -0.622 0.750 184 141 123 0 0
2.2398 10.3350 -1.0769 -0.225 -0.683 0.695 188 140 118 0 0
2.2577 10.3263 -1.0738 -0.116 -0.710 0.695 183 133 112 0 0
2.2755 10.3226 -1.0708 -0.198 -0.650 0.734 173 120 99 0 0
2.2932 10.3210 -1.0677 -0.412 -0.649 0.639 176 122 101 0 0
2.3110 10.3190 -1.0647 -0.414 -0.635 0.652 188 137 116 0 0
2.3289 10.3111 -1.0616 -0.283 -0.659 0.696 205 158 136 0 0
2.6495 10.2596 -1.0066 -0.225 -0.546 0.807 195 147 129 0 0
3.0605 10.2026 -0.9360 0.101 -0.768 0.632 211 159 139 0 0
3.8124 10.0735 -0.8069 0.223 -0.755 0.616 184 133 114 0 0
3.8495 10.0779 -0.8005 -0.043 -0.778 0.627 190 141 123 0 0
4.0614 10.0147 -0.7643 -0.040 -0.645 0.763 183 127 107 0 0
4.5837 9.9357 -0.6746 -0.263 -0.568 0.780 175 123 102 0 0
4.8696 9.8773 -0.6256 -0.237 -0.658 0.715 156 94 72 0 0
5.1910 9.8106 -0.5706 0.350 -0.895 0.276 156 101 80 0 0
5.2139 9.8279 -0.5665 -0.135 -0.787 0.602 173 117 94 0 0
6.1976 9.8021 -0.3967 -0.168 -0.984 -0.058 172 121 100 0 0
6.2167 9.8014 -0.3934 -0.256 -0.960 -0.115 169 117 95 0 0
6.4917 9.8650 -0.3455 -0.376 -0.915 -0.148 153 106 90 0 0
6.5602 9.8919 -0.3335 0.288 -0.951 -0.109 136 90 74 0 0
6.9043 10.0684 -0.2729 0.454 -0.891 -0.021 146 100 84 0 0
6.8219 7.6614 -0.3030 -0.403 -0.506 0.762 230 213 185 0 0
7.4074 7.5324 -0.2028 0.091 -0.550 0.830 235 218 194 0 0
0.4717 10.7323 -1.3984 0.606 -0.726 0.324 243 240 234 0 0
0.5031 10.7541 -1.3929 0.140 -0.875 0.463 244 243 237 0 0
0.6998 10.5938 -1.3597 -0.404 -0.358 0.842 190 148 132 0 0
0.9000 10.5148 -1.3256 -0.316 -0.692 0.649 199 156 140 0 0
1.3024 10.4818 -1.2564 -0.474 -0.556 0.683 213 170 153 0 0
1.8183 10.3586 -1.1681 -0.333 -0.647 0.686 187 137 115 0 0
1.8361 10.3526 -1.1650 -0.333 -0.647 0.686 183 132 110 0 0
1.8538 10.3509 -1.1620 -0.087 -0.715 0.694 179 128 107 0 0
1.9070 10.3380 -1.1529 -0.378 -0.642 0.667 187 136 117 0 0
2.2964 10.3011 -1.0859 -0.412 -0.649 0.639 195 144 123 0 0
2.7056 10.2384 -1.0157 -0.307 -0.658 0.688 180 127 108 0 0
2.9183 10.1737 -0.9793 -0.074 -0.634 0.770 185 134 115 0 0
2.9363 10.1754 -0.9762 -0.074 -0.634 0.770 186 134 116 0 0
3.2932 10.1247 -0.9149 0.077 -0.596 0.799 173 117 95 0 0
3.5607 10.0767 -0.8691 -0.443 -0.625 0.643 179 128 110 0 0
3.9731 10.0174 -0.7982 -0.462 -0.785 0.413 184 136 120 0 0
4.1512 9.9801 -0.7677 -0.401 -0.556 0.728 173 121 100 0 0
4.1692 9.9776 -0.7646 -0.135 -0.700 0.702 166 114 94 0 0
4.6900 9.8931 -0.6753 -0.266 -0.561 0.784 191 136 113 0 0
4.8685 9.8570 -0.6447 -0.237 -0.658 0.715 180 121 97 0 0
4.9954 9.8406 -0.6229 -0.339 -0.625 0.703 190 138 115 0 0
5.0296 9.8266 -0.6170 -0.365 -0.620 0.695 188 133 112 0 0
5.0467 9.8198 -0.6141 -0.365 -0.620 0.695 188 133 112 0 0
5.1725 9.7985 -0.5925 -0.119 -0.681 0.723 190 137 115 0 0
5.1930 9.8056 -0.5890 0.196 -0.739 0.645 173 121 97 0 0
5.2028 9.7689 -0.5875 0.020 -0.833 0.553 180 124 99 0 0
5.2393 9.7650 -0.5812 -0.583 -0.573 0.576 171 113 91 0 0
5.4080 9.7648 -0.5521 -0.081 -0.974 0.214 194 142 120 0 0
6.1668 9.8161 -0.4210 0.075 -0.992 0.105 140 90 67 0 0
6.1867 9.8180 -0.4176 0.075 -0.992 0.105 161 110 88 0 0
6.1997 9.7986 -0.4154 0.053 -0.998 -0.024 167 117 96 0 0
6.2204 9.8026 -0.4118 -0.158 -0.977 -0.141 173 121 99 0 0
6.6724 7.8013 -0.3440 -0.506 -0.649 0.568 230 213 187 0 0
6.6851 7.7924 -0.3419 -0.486 -0.435 0.758 233 215 188 0 0
6.7039 7.7599 -0.3388 -0.325 -0.499 0.803 233 213 186 0 0
6.9169 7.5428 -0.3032 -0.384 -0.691 0.613 221 204 178 0 0
7.4042 7.4901 -0.2194 0.382 -0.850 0.364 232 216 191 0 0
7.4175 7.4839 -0.2171 0.400 -0.916 0.031 234 218 193 0 0
0.3582 10.6009 -1.4371 0.317 -0.944 -0.096 243 243 241 0 0
0.3626 10.6772 -1.4361 0.013 -0.913 0.407 244 243 240 0 0
0.3801 10.6755 -1.4331 -0.013 -0.856 0.517 240 244 239 0 0
0.3970 10.6770 -1.4301 -0.013 -0.856 0.517 246 244 237 0 0
0.4140 10.6786 -1.4272 -0.184 -0.726 0.663 226 216 206 0 0
