ply
format ascii 1.0
element vertex 813
property float x
property float y
property float z
property float nx
property float ny
property float nz
property uchar diffuse_red
property uchar diffuse_green
property uchar diffuse_blue
property uchar class
property uchar detection
end_header
0.6798 11.3571 -2.0686 -0.941 0.314 -0.129 240 236 233 0 0
0.6566 11.2928 -2.0675 -0.945 0.324 -0.048 241 236 235 0 0
0.5943 10.8971 -2.1017 -0.880 -0.427 -0.208 172 115 95 0 0
0.7593 10.5974 -2.2360 -0.856 -0.476 -0.199 180 126 106 0 0
0.7689 10.5892 -2.2423 -0.816 -0.523 -0.247 170 115 95 0 0
0.8129 10.5187 -2.2765 -0.977 -0.199 -0.076 189 132 113 0 0
0.9930 10.1546 -2.4292 -0.987 -0.152 -0.060 178 123 103 0 0
1.1599 9.8844 -2.5594 -0.960 -0.142 -0.242 153 104 86 0 0
1.1661 9.8714 -2.5648 -0.846 -0.326 -0.422 158 109 90 0 0
1.2167 9.7679 -2.6079 -0.916 -0.365 -0.166 173 122 104 0 0
1.3167 9.5814 -2.6901 -0.824 -0.479 -0.302 180 128 111 0 0
1.3239 9.5697 -2.6957 -0.919 -0.278 -0.279 164 115 98 0 0
1.3296 9.5561 -2.7009 -0.919 -0.278 -0.279 171 120 103 0 0
1.4423 9.4059 -2.7835 -0.759 -0.561 -0.330 170 119 103 0 0
1.4744 9.2824 -2.8205 -0.779 -0.621 -0.093 168 113 95 0 0
1.4809 9.2698 -2.8259 -0.727 -0.504 -0.467 159 103 85 0 0
1.5260 9.2417 -2.8536 -0.735 -0.595 -0.326 183 128 110 0 0
1.5380 9.2155 -2.8641 -0.909 -0.412 0.068 163 112 93 0 0
1.5811 9.0082 -2.9207 -0.846 -0.390 -0.364 164 117 102 0 0
1.7097 8.8565 -3.0117 -0.992 -0.112 -0.055 173 124 109 0 0
1.7115 8.8391 -3.0155 -0.870 -0.394 -0.297 173 124 109 0 0
1.7178 8.8266 -3.0208 -0.836 -0.465 -0.290 175 123 109 0 0
1.7256 8.8156 -3.0266 -0.806 -0.506 -0.308 176 125 109 0 0
1.7342 8.8056 -3.0327 -0.806 -0.506 -0.308 173 124 106 0 0
1.9026 8.7103 -3.1345 -0.681 -0.649 -0.340 166 120 105 0 0
1.9140 8.7027 -3.1416 -0.835 -0.488 -0.255 150 104 89 0 0
2.8699 8.9614 -3.5863 -0.765 -0.598 -0.238 216 211 205 0 0
2.9433 8.7865 -3.6529 -0.625 -0.634 0.456 218 213 207 0 0
3.0554 8.6456 -3.7337 -0.844 0.500 0.197 184 168 151 0 0
2.9314 8.3313 -3.7229 -0.971 -0.054 -0.233 199 175 142 0 0
2.8280 8.1176 -3.7058 -0.846 -0.395 -0.357 204 180 146 0 0
2.8489 8.0791 -3.7229 -0.955 -0.074 -0.288 209 184 152 0 0
2.8487 8.0606 -3.7258 -0.966 0.225 -0.129 205 179 148 0 0
2.8434 8.0382 -3.7269 -0.982 0.094 -0.165 209 184 151 0 0
2.8166 7.7135 -3.7674 -0.993 -0.112 -0.048 208 184 150 0 0
2.8208 7.6990 -3.7720 -0.943 -0.310 -0.119 205 181 147 0 0
2.8259 7.6853 -3.7769 -0.943 -0.310 -0.119 204 180 146 0 0
2.8892 7.3011 -3.8733 -0.947 -0.321 -0.032 208 184 150 0 0
2.9113 7.2657 -3.8905 -0.825 -0.528 -0.202 202 178 145 0 0
2.9532 7.1270 -3.9350 -0.742 -0.669 0.042 200 173 143 0 0
2.9623 7.1164 -3.9415 -0.742 -0.669 0.042 203 178 147 0 0
3.0296 6.9788 -3.9988 -0.822 -0.568 -0.037 200 177 146 0 0
3.0471 6.9245 -4.0168 -0.963 -0.268 -0.009 203 180 149 0 0
3.2736 6.8181 -4.1501 -0.891 -0.452 0.029 199 177 146 0 0
3.2737 6.8019 -4.1529 -0.809 -0.587 -0.038 197 174 143 0 0
4.6079 6.7893 -4.8359 -0.064 -0.850 -0.523 212 213 208 0 0
4.5766 6.7041 -4.8342 -0.490 -0.054 0.870 218 218 216 0 0
4.5522 6.6747 -4.8267 -0.588 -0.049 0.807 218 218 216 0 0
4.5591 6.6095 -4.8410 -0.484 -0.399 0.779 220 220 218 0 0
4.5666 6.5960 -4.8471 -0.267 -0.842 0.468 221 221 218 0 0
4.5715 6.5813 -4.8521 -0.073 -0.768 0.636 221 222 217 0 0
4.5779 6.5674 -4.8577 -0.117 -0.784 0.609 222 223 218 0 0
4.5595 6.5414 -4.8526 -0.157 -0.389 0.908 223 223 220 0 0
0.5778 10.9531 -2.1007 -0.956 -0.156 -0.248 178 124 106 0 0
0.6019 10.9210 -2.1184 -0.976 -0.140 -0.169 165 108 88 0 0
0.6918 10.7583 -2.1914 -0.986 -0.162 -0.043 174 117 97 0 0
0.7134 10.6759 -2.2162 -0.774 -0.397 -0.493 163 112 92 0 0
0.7502 10.6173 -2.2447 -0.856 -0.476 -0.199 173 121 99 0 0
0.7733 10.5837 -2.2621 -0.806 -0.541 -0.239 178 122 105 0 0
0.8148 10.5322 -2.2919 -0.970 -0.244 -0.022 186 129 110 0 0
0.8157 10.5107 -2.2959 -0.908 -0.329 -0.259 181 124 105 0 0
0.9132 10.3388 -2.3743 -0.874 -0.289 -0.391 178 123 105 0 0
0.9198 10.3261 -2.3799 -0.874 -0.289 -0.391 169 116 98 0 0
0.9350 10.3035 -2.3914 -0.906 -0.275 -0.322 164 113 92 0 0
0.9427 10.2923 -2.3972 -0.847 -0.371 -0.381 177 124 104 0 0
1.1689 9.8847 -2.5806 -0.846 -0.326 -0.422 160 111 95 0 0
1.2159 9.7765 -2.6227 -0.916 -0.365 -0.166 165 113 97 0 0
1.2929 9.6649 -2.6806 -0.869 -0.356 -0.343 173 121 103 0 0
1.3023 9.6557 -2.6869 -0.803 -0.472 -0.362 176 123 104 0 0
1.3109 9.6457 -2.6930 -0.803 -0.472 -0.362 176 123 104 0 0
1.4422 9.4149 -2.7985 -0.759 -0.561 -0.330 157 107 92 0 0
1.4544 9.3888 -2.8091 -0.926 -0.316 -0.208 170 121 106 0 0
1.4602 9.3753 -2.8143 -0.926 -0.316 -0.208 174 121 105 0 0
1.4755 9.3126 -2.8325 -0.958 -0.268 -0.101 180 125 106 0 0
1.4801 9.2979 -2.8373 -0.958 -0.268 -0.101 173 118 100 0 0
1.5257 9.2503 -2.8686 -0.735 -0.595 -0.326 173 117 98 0 0
1.5366 9.2428 -2.8754 -0.894 -0.324 -0.311 174 122 101 0 0
1.6366 8.9800 -2.9702 -0.756 -0.555 -0.348 155 108 92 0 0
1.6945 8.9451 -3.0056 -0.883 -0.395 -0.255 163 114 99 0 0
1.9151 8.7122 -3.1573 -0.766 -0.636 -0.090 136 88 74 0 0
2.8705 8.9707 -3.6034 -0.735 -0.654 -0.181 217 212 206 0 0
3.0295 8.7504 -3.7213 -0.987 -0.158 -0.000 219 215 210 0 0
3.1813 8.8401 -3.7841 -0.864 0.496 -0.081 218 214 208 0 0
3.0694 8.6658 -3.7558 -0.849 0.529 0.006 201 191 181 0 0
3.0438 8.6247 -3.7495 -0.849 0.529 0.006 182 165 146 0 0
2.9671 8.4639 -3.7370 -0.933 0.358 -0.048 194 169 139 0 0
2.9070 8.3006 -3.7333 -0.998 -0.013 -0.057 204 179 148 0 0
2.9122 8.2860 -3.7384 -0.971 0.190 0.148 204 179 148 0 0
2.8647 8.1547 -3.7359 -0.996 -0.074 0.057 204 180 146 0 0
2.8658 8.1371 -3.7394 -0.996 -0.074 0.057 206 182 148 0 0
2.8629 8.1163 -3.7413 -0.929 -0.162 0.331 206 181 147 0 0
2.8638 8.0986 -3.7447 -0.967 -0.056 0.249 207 180 149 0 0
2.8275 7.6938 -3.7933 -0.876 -0.311 -0.370 206 183 150 0 0
2.8170 7.5298 -3.8152 -0.940 -0.013 -0.340 207 184 152 0 0
2.8208 7.4981 -3.8224 -0.961 -0.174 -0.214 204 179 148 0 0
2.8327 7.4723 -3.8328 -0.722 -0.601 -0.342 207 183 149 0 0
2.9062 7.3029 -3.8985 -0.755 -0.474 -0.452 203 179 145 0 0
2.9165 7.2930 -3.9054 -0.755 -0.474 -0.452 203 179 146 0 0
2.9260 7.2658 -3.9148 -0.949 -0.273 -0.157 204 181 149 0 0
2.9639 7.1243 -3.9577 -0.784 -0.607 0.129 204 181 150 0 0
3.2727 6.8242 -4.1656 -0.777 -0.593 0.212 197 174 143 0 0
3.4940 6.6917 -4.3009 -0.515 -0.748 -0.419 187 167 138 0 0
4.5345 6.5361 -4.8593 -0.217 -0.343 0.914 222 223 220 0 0
0.6849 11.3647 -2.1045 -0.941 0.332 -0.067 238 237 235 0 0
0.6191 11.1790 -2.1014 -0.948 0.310 -0.078 239 234 231 0 0
0.5975 10.9490 -2.1283 -0.982 -0.186 -0.033 186 132 112 0 0
0.6011 10.9310 -2.1331 -0.982 -0.186 -0.033 169 114 94 0 0
0.6439 10.8578 -2.1671 -0.920 -0.324 -0.223 173 118 98 0 0
0.6499 10.8440 -2.1725 -0.944 -0.211 -0.254 172 116 96 0 0
0.6619 10.8160 -2.1833 -0.890 -0.237 -0.390 170 115 94 0 0
0.6879 10.7634 -2.2053 -0.864 -0.488 -0.122 181 124 104 0 0
0.7015 10.7614 -2.2126 -0.794 -0.522 -0.312 183 126 104 0 0
0.7488 10.6261 -2.2593 -0.869 -0.493 -0.036 176 124 102 0 0
0.7664 10.6070 -2.2714 -0.928 -0.343 -0.148 177 124 104 0 0
0.7739 10.5954 -2.2772 -0.669 -0.676 -0.308 179 124 106 0 0
0.9085 10.3874 -2.3806 -0.941 -0.312 -0.131 171 120 99 0 0
1.1704 9.8965 -2.5961 -0.865 -0.455 -0.209 152 102 85 0 0
1.1866 9.8752 -2.6080 -0.809 -0.458 -0.367 173 122 105 0 0
1.2928 9.7160 -2.6888 -0.902 -0.276 -0.331 177 125 110 0 0
1.4527 9.3959 -2.8236 -0.861 -0.351 -0.369 155 105 91 0 0
1.5357 9.2707 -2.8869 -0.917 -0.284 -0.282 176 119 99 0 0
1.5727 9.1140 -2.9318 -0.815 -0.466 -0.344 168 119 102 0 0
1.6051 9.0128 -2.9651 -0.815 -0.464 -0.347 164 114 97 0 0
1.6182 9.0076 -2.9727 -0.934 -0.258 -0.246 158 108 92 0 0
1.6373 8.9894 -2.9855 -0.779 -0.494 -0.386 156 109 93 0 0
1.8476 8.7289 -3.1365 -0.963 -0.193 0.187 158 112 96 0 0
1.9167 8.7221 -3.1731 -0.638 -0.718 -0.278 139 91 76 0 0
2.9176 9.2066 -3.6070 0.209 -0.785 -0.583 212 205 197 0 0
2.8536 8.9843 -3.6108 -0.640 -0.728 0.246 217 212 206 0 0
2.8653 8.9747 -3.6184 -0.577 -0.812 -0.087 218 213 207 0 0
2.8763 8.9645 -3.6257 -0.735 -0.616 -0.283 218 213 207 0 0
2.8874 8.9543 -3.6331 -0.883 -0.112 0.455 217 212 206 0 0
3.1468 8.8193 -3.7885 -0.907 0.396 0.143 219 216 209 0 0
3.0799 8.6831 -3.7767 -0.843 0.537 -0.014 214 208 201 0 0
3.0319 8.6035 -3.7652 -0.886 0.461 0.053 182 166 148 0 0
2.9829 8.4851 -3.7596 -0.919 0.360 0.161 193 167 136 0 0
2.9543 8.4231 -3.7551 -0.986 0.147 -0.081 196 170 137 0 0
2.9184 8.2990 -3.7572 -0.965 0.148 -0.218 203 178 147 0 0
2.8552 8.1549 -3.7485 -0.878 -0.379 -0.293 202 178 145 0 0
2.8643 8.1253 -3.7581 -0.998 0.020 -0.052 201 177 144 0 0
2.8699 8.1113 -3.7633 -0.973 -0.107 -0.203 206 182 149 0 0
2.8295 7.9701 -3.7658 -0.967 -0.068 -0.246 213 188 157 0 0
2.9104 7.3127 -3.9159 -0.755 -0.474 -0.452 208 184 151 0 0
2.9180 7.3010 -3.9217 -0.830 -0.346 -0.438 204 181 149 0 0
3.2668 6.8273 -4.1789 -0.777 -0.593 0.212 192 170 139 0 0
3.2671 6.8112 -4.1818 -0.756 -0.651 0.065 192 171 141 0 0
3.4772 6.7050 -4.3072 -0.538 -0.765 -0.354 192 173 143 0 0
3.4935 6.6980 -4.3167 -0.538 -0.765 -0.354 190 171 143 0 0
4.3193 6.5055 -4.7724 -0.380 -0.883 0.274 220 220 218 0 0
4.3316 6.4948 -4.7805 -0.320 -0.904 -0.284 222 222 219 0 0
4.5181 6.5519 -4.8668 -0.785 -0.304 0.540 223 224 219 0 0
4.4765 6.4980 -4.8544 -0.516 -0.588 0.623 224 224 222 0 0
0.7035 11.4082 -2.1243 -0.912 0.295 -0.286 237 237 235 0 0
0.6103 11.1514 -2.1184 -0.948 0.311 -0.067 223 207 201 0 0
0.5963 10.9584 -2.1429 -0.982 -0.186 -0.033 175 122 101 0 0
0.6375 10.9063 -2.1726 -0.782 -0.520 -0.345 165 110 89 0 0
0.6503 10.8795 -2.1836 -0.841 -0.378 -0.388 176 119 100 0 0
0.6572 10.8668 -2.1893 -0.864 -0.296 -0.407 175 119 99 0 0
0.6641 10.8543 -2.1949 -0.864 -0.296 -0.407 160 106 85 0 0
0.9076 10.3965 -2.3954 -0.941 -0.312 -0.131 159 108 87 0 0
0.9131 10.3821 -2.4006 -0.941 -0.312 -0.131 164 112 90 0 0
1.0510 10.1343 -2.5122 -0.801 -0.392 -0.452 170 115 96 0 0
1.1875 9.8860 -2.6233 -0.809 -0.458 -0.367 166 115 99 0 0
1.1960 9.8758 -2.6293 -0.809 -0.458 -0.367 157 104 91 0 0
1.5774 9.1281 -2.9484 -0.948 -0.315 -0.046 166 117 100 0 0
1.5812 9.0539 -2.9626 -0.873 -0.323 -0.364 175 127 111 0 0
1.6071 9.0236 -2.9808 -0.840 -0.399 -0.368 168 117 99 0 0
1.7067 8.9559 -3.0432 -0.884 -0.261 -0.387 165 114 95 0 0
2.9280 9.2253 -3.6279 0.188 -0.779 -0.598 212 205 197 0 0
3.0383 8.6172 -3.7845 -0.882 0.468 0.053 200 189 178 0 0
3.0195 8.5820 -3.7806 -0.881 0.471 0.042 188 168 148 0 0
2.8605 8.1485 -3.7699 -0.923 -0.342 -0.176 206 180 149 0 0
2.8657 8.1342 -3.7749 -0.893 -0.348 -0.284 201 176 145 0 0
2.8729 8.1214 -3.7807 -0.980 -0.098 -0.171 206 181 148 0 0
2.8325 7.8541 -3.8038 -0.960 0.039 -0.278 208 185 153 0 0
2.8327 7.8364 -3.8067 -0.960 0.039 -0.278 206 183 151 0 0
2.9021 7.3478 -3.9226 -0.960 -0.164 0.228 204 179 147 0 0
2.9039 7.3321 -3.9262 -0.960 -0.164 0.228 207 183 149 0 0
2.9339 7.2851 -3.9493 -0.913 -0.313 -0.263 203 182 151 0 0
3.0067 7.0996 -4.0173 -0.605 -0.758 -0.243 203 179 145 0 0
3.4053 6.7520 -4.2795 -0.889 -0.357 -0.286 193 176 150 0 0
4.3325 6.5019 -4.7980 -0.479 -0.877 -0.036 222 222 219 0 0
4.4771 6.5049 -4.8720 -0.311 -0.586 0.748 224 224 222 0 0
0.5884 11.0533 -2.1401 -0.967 0.109 -0.231 161 110 89 0 0
0.6412 10.8998 -2.1924 -0.667 -0.694 -0.271 164 106 86 0 0
0.6529 10.8951 -2.1993 -0.919 -0.316 -0.233 176 118 98 0 0
0.6591 10.8812 -2.2047 -0.919 -0.316 -0.233 167 110 89 0 0
0.6641 10.8656 -2.2099 -0.899 -0.305 -0.314 166 110 87 0 0
0.6671 10.8467 -2.2145 -0.840 -0.352 -0.413 179 125 101 0 0
0.6724 10.8315 -2.2197 -0.942 -0.182 -0.282 176 122 98 0 0
0.8889 10.4474 -2.3942 -0.903 -0.327 -0.280 173 121 103 0 0
0.9026 10.4223 -2.4053 -0.939 -0.294 -0.180 173 124 104 0 0
0.9120 10.3910 -2.4153 -0.895 -0.382 -0.232 158 105 86 0 0
0.9830 10.2918 -2.4681 -0.997 -0.077 -0.010 184 128 111 0 0
0.9935 10.2846 -2.4748 -0.900 -0.428 -0.083 189 132 113 0 0
1.0465 10.1601 -2.5224 -0.861 -0.310 -0.404 183 128 108 0 0
1.0533 10.1476 -2.5280 -0.801 -0.392 -0.452 173 121 101 0 0
1.1288 10.0112 -2.5892 -0.891 -0.412 -0.193 176 120 101 0 0
1.1966 9.8865 -2.6446 -0.743 -0.584 -0.328 165 110 94 0 0
1.2063 9.8778 -2.6510 -0.743 -0.584 -0.328 178 121 105 0 0
1.2160 9.8691 -2.6574 -0.743 -0.584 -0.328 175 118 101 0 0
1.2258 9.8606 -2.6639 -0.652 -0.682 -0.331 168 115 96 0 0
1.2338 9.8497 -2.6698 -0.826 -0.540 -0.162 158 106 86 0 0
1.2588 9.7761 -2.6947 -0.887 -0.340 -0.313 170 114 98 0 0
1.2806 9.7616 -2.7083 -0.838 -0.480 -0.259 175 119 104 0 0
1.2886 9.7507 -2.7142 -0.838 -0.480 -0.259 150 96 79 0 0
1.3037 9.7487 -2.7223 -0.704 -0.676 -0.216 173 120 102 0 0
1.4045 9.5200 -2.8117 -0.927 -0.346 -0.146 170 117 99 0 0
1.4301 9.4688 -2.8333 -0.755 -0.554 -0.351 169 118 99 0 0
1.5806 9.1404 -2.9646 -0.951 -0.295 -0.094 175 124 107 0 0
1.7092 8.9672 -3.0593 -0.877 -0.318 -0.361 160 110 95 0 0
1.8088 8.8590 -3.1284 -0.949 -0.248 -0.196 162 113 96 0 0
1.8423 8.7593 -3.1619 -0.689 -0.675 -0.265 169 122 106 0 0
3.0874 8.7261 -3.8104 -0.916 0.388 0.101 221 216 210 0 0
3.0859 8.7051 -3.8130 -0.861 0.499 0.095 220 215 208 0 0
3.0646 8.6674 -3.8082 -0.861 0.499 0.095 218 214 207 0 0
3.0446 8.6309 -3.8038 -0.881 0.471 0.042 216 211 201 0 0
3.0259 8.5957 -3.7999 -0.881 0.471 0.042 203 191 177 0 0
2.9512 8.4178 -3.7903 -0.919 0.360 0.161 196 170 136 0 0
2.8712 8.0728 -3.8053 -0.964 0.156 -0.215 204 178 145 0 0
2.8423 8.0135 -3.8000 -0.953 -0.304 0.020 206 181 150 0 0
2.8468 7.9989 -3.8048 -0.953 -0.304 0.020 211 186 155 0 0
2.8355 7.8639 -3.8209 -0.957 -0.145 -0.251 206 182 147 0 0
2.8390 7.8487 -3.8252 -0.957 -0.169 -0.235 210 185 153 0 0
2.8334 7.6502 -3.8547 -0.821 -0.448 -0.354 206 181 150 0 0
2.9547 7.2221 -3.9872 -0.963 -0.058 -0.262 204 183 149 0 0
2.9685 7.1978 -3.9983 -0.752 -0.619 0.227 204 181 147 0 0
2.9730 7.1841 -4.0028 -0.913 -0.361 0.190 204 181 147 0 0
2.9774 7.1703 -4.0074 -0.913 -0.361 0.190 204 180 148 0 0
3.5004 6.7150 -4.3517 -0.707 -0.634 -0.313 187 168 139 0 0
4.1269 6.5727 -4.6985 -0.513 -0.710 0.482 214 214 212 0 0
4.1156 6.5338 -4.6990 -0.938 -0.236 0.252 218 219 214 0 0
4.1354 6.4777 -4.7184 -0.465 -0.857 -0.221 221 221 219 0 0
4.1588 6.4728 -4.7313 -0.338 -0.926 -0.167 221 221 219 0 0
4.3298 6.4904 -4.8167 -0.708 -0.706 0.014 223 223 221 0 0
0.6866 11.3784 -2.1552 -0.951 0.288 -0.112 237 236 234 0 0
0.6151 11.1583 -2.1538 -0.948 0.311 -0.067 199 176 167 0 0
0.6390 10.9075 -2.2069 -0.667 -0.694 -0.271 171 113 93 0 0
0.6483 10.8989 -2.2131 -0.798 -0.602 0.025 171 113 91 0 0
0.6590 10.8924 -2.2197 -0.919 -0.316 -0.233 169 113 90 0 0
0.6649 10.8781 -2.2251 -0.900 -0.376 -0.221 175 119 98 0 0
0.6723 10.8663 -2.2308 -0.740 -0.547 -0.392 177 122 100 0 0
0.9656 10.3668 -2.4637 -0.932 -0.363 0.023 180 125 105 0 0
0.9687 10.3488 -2.4682 -0.895 -0.440 -0.066 163 108 89 0 0
0.9759 10.3368 -2.4739 -0.898 -0.439 0.014 167 114 96 0 0
0.9823 10.3236 -2.4794 -0.898 -0.439 0.014 186 132 114 0 0
0.9892 10.3111 -2.4850 -0.857 -0.403 -0.321 183 126 109 0 0
0.9962 10.2988 -2.4906 -0.734 -0.576 -0.359 182 125 107 0 0
1.0031 10.2863 -2.4962 -0.826 -0.458 -0.328 177 120 101 0 0
1.0789 10.1273 -2.5613 -0.910 -0.233 -0.343 170 120 105 0 0
1.0994 10.0681 -2.5815 -0.800 -0.496 -0.339 166 114 97 0 0
1.1279 10.0200 -2.6041 -0.891 -0.412 -0.193 184 128 108 0 0
1.1961 9.8955 -2.6595 -0.743 -0.584 -0.328 174 119 102 0 0
1.2346 9.8605 -2.6852 -0.806 -0.492 -0.330 171 119 98 0 0
1.3129 9.7489 -2.7438 -0.742 -0.572 -0.349 171 118 100 0 0
1.3895 9.5522 -2.8154 -0.807 -0.476 -0.351 151 96 79 0 0
1.4039 9.5286 -2.8267 -0.888 -0.434 -0.150 173 121 101 0 0
1.4593 9.4515 -2.8679 -0.922 -0.297 -0.248 168 117 98 0 0
1.6001 9.0529 -3.0055 -0.928 -0.279 -0.245 192 144 128 0 0
1.6044 9.0381 -3.0101 -0.810 -0.501 -0.305 166 115 98 0 0
1.6132 9.0282 -3.0163 -0.866 -0.418 -0.273 162 111 93 0 0
1.6469 9.0257 -3.0341 -0.806 -0.426 -0.410 164 113 96 0 0
1.7107 8.9774 -3.0750 -0.860 -0.406 -0.309 180 130 116 0 0
1.8068 8.8847 -3.1398 -0.814 -0.546 -0.198 160 110 93 0 0
1.8096 8.8683 -3.1439 -0.949 -0.248 -0.196 156 107 90 0 0
1.8004 8.8013 -3.1500 -0.760 -0.460 -0.459 162 109 91 0 0
1.8454 8.7708 -3.1783 -0.789 -0.592 -0.167 154 107 91 0 0
1.8539 8.7604 -3.1844 -0.791 -0.580 -0.195 160 113 97 0 0
2.8293 8.8881 -3.6689 -0.467 -0.740 -0.484 221 216 212 0 0
3.0882 8.7353 -3.8278 -0.858 0.409 0.311 222 217 211 0 0
3.0886 8.7158 -3.8311 -0.874 0.476 0.094 221 216 210 0 0
3.0152 8.5755 -3.8159 -0.894 0.447 0.031 204 192 179 0 0
2.9561 8.4300 -3.8089 -0.962 0.152 -0.227 198 168 136 0 0
2.9503 8.4062 -3.8097 -0.894 0.096 -0.439 197 167 136 0 0
2.8734 8.0639 -3.8254 -0.993 0.113 -0.039 200 176 142 0 0
2.8594 7.9257 -3.8406 -0.603 -0.736 -0.309 208 184 150 0 0
2.8581 7.9067 -3.8430 -0.914 -0.221 -0.341 207 183 149 0 0
2.8378 7.8732 -3.8379 -0.957 -0.169 -0.235 203 179 144 0 0
2.8415 7.8582 -3.8422 -0.957 -0.169 -0.235 204 179 147 0 0
2.8334 7.7808 -3.8506 -0.965 -0.143 -0.220 206 182 148 0 0
2.8344 7.7461 -3.8567 -0.952 -0.290 -0.096 205 181 148 0 0
2.8479 7.7386 -3.8650 -0.837 -0.546 -0.045 209 186 153 0 0
2.8517 7.7237 -3.8693 -0.943 -0.300 0.141 206 183 150 0 0
2.8570 7.6399 -3.8857 -0.927 -0.187 -0.326 211 186 155 0 0
2.9601 7.1991 -4.0106 -0.530 -0.774 0.347 202 178 144 0 0
2.9675 7.1874 -4.0163 -0.795 -0.511 0.327 201 177 143 0 0
3.2996 6.8177 -4.2483 -0.655 -0.664 -0.361 191 170 139 0 0
4.5480 6.8286 -4.8931 0.013 -0.856 -0.516 212 213 208 0 0
4.0990 6.5320 -4.7087 -0.889 -0.299 0.347 218 219 214 0 0
4.1039 6.4850 -4.7188 -0.925 0.079 0.370 220 221 218 0 0
4.2082 6.4872 -4.7725 -0.893 -0.105 0.437 222 222 220 0 0
4.3140 6.5227 -4.8215 -0.807 -0.572 -0.146 222 222 220 0 0
4.3064 6.5023 -4.8209 -0.537 -0.818 -0.205 222 222 220 0 0
0.6265 11.1891 -2.1718 -0.948 0.311 -0.067 220 204 198 0 0
0.6166 10.9541 -2.2046 -0.926 -0.377 -0.026 190 133 112 0 0
0.9785 10.3509 -2.4898 -0.956 -0.186 -0.228 166 113 95 0 0
0.9819 10.3335 -2.4944 -0.977 -0.147 -0.154 182 128 110 0 0
1.0766 10.1562 -2.5722 -0.957 -0.233 -0.170 171 121 106 0 0
1.0833 10.1435 -2.5777 -0.844 -0.444 -0.300 157 107 92 0 0
1.0882 10.1283 -2.5827 -0.943 -0.195 -0.269 178 128 113 0 0
1.0934 10.1136 -2.5878 -0.861 -0.355 -0.364 162 114 98 0 0
1.1007 10.1018 -2.5935 -0.861 -0.355 -0.364 170 121 105 0 0
1.1271 10.0288 -2.6189 -0.891 -0.412 -0.193 149 93 73 0 0
1.2260 9.8804 -2.6943 -0.784 -0.580 -0.220 146 91 71 0 0
1.2387 9.8755 -2.7016 -0.966 -0.245 -0.084 169 116 95 0 0
1.2470 9.8649 -2.7076 -0.905 -0.395 -0.160 175 123 101 0 0
1.2539 9.8526 -2.7132 -0.875 -0.334 -0.350 176 124 102 0 0
1.2742 9.7938 -2.7332 -0.724 -0.569 -0.389 178 123 105 0 0
1.2943 9.7772 -2.7464 -0.724 -0.569 -0.389 148 95 79 0 0
1.3232 9.7504 -2.7657 -0.768 -0.486 -0.417 161 109 91 0 0
1.3315 9.6980 -2.7785 -0.635 -0.619 -0.462 175 122 106 0 0
1.4499 9.4904 -2.8734 -0.871 -0.388 -0.300 154 105 87 0 0
1.4559 9.4771 -2.8787 -0.918 -0.328 -0.221 143 93 73 0 0
1.4602 9.4617 -2.8834 -0.922 -0.297 -0.248 171 119 100 0 0
1.5835 9.2408 -2.9831 -0.887 -0.227 -0.403 185 132 114 0 0
1.6031 9.0650 -3.0216 -0.908 -0.264 -0.325 185 138 122 0 0
1.6088 9.0516 -3.0267 -0.825 -0.375 -0.424 171 120 103 0 0
1.7132 8.9887 -3.0911 -0.873 -0.363 -0.325 174 125 109 0 0
1.8056 8.8919 -3.1547 -0.814 -0.546 -0.198 180 129 113 0 0
2.7441 8.9999 -3.6249 -0.249 -0.966 -0.073 216 211 205 0 0
3.1010 8.7547 -3.8498 -0.919 0.394 0.010 224 219 215 0 0
3.0933 8.7283 -3.8500 -0.882 0.468 0.053 223 219 214 0 0
2.9627 8.4244 -3.8312 -0.869 0.056 -0.492 196 166 134 0 0
2.9500 8.3949 -3.8293 -0.814 -0.091 -0.574 197 172 138 0 0
2.9040 8.2443 -3.8298 -0.915 0.043 -0.402 201 175 142 0 0
2.8784 7.9661 -3.8613 -0.874 -0.408 -0.264 208 184 150 0 0
2.8591 7.9332 -3.8566 -0.830 -0.501 -0.246 211 187 153 0 0
2.8749 7.9272 -3.8657 -0.617 -0.734 -0.282 206 182 149 0 0
2.8415 7.8836 -3.8554 -0.957 -0.145 -0.251 206 181 149 0 0
2.8418 7.8660 -3.8584 -0.955 -0.210 -0.210 206 181 150 0 0
2.8477 7.8526 -3.8637 -0.957 -0.169 -0.235 203 178 147 0 0
2.8301 7.8213 -3.8595 -0.931 -0.181 -0.318 216 191 160 0 0
2.8359 7.7901 -3.8676 -0.965 -0.143 -0.220 205 181 145 0 0
2.8381 7.7741 -3.8713 -0.955 -0.101 -0.279 207 183 148 0 0
2.8395 7.7574 -3.8747 -0.948 -0.311 0.065 207 183 149 0 0
2.8508 7.7128 -3.8878 -0.974 -0.205 0.099 207 183 149 0 0
2.8416 7.6885 -3.8869 -0.998 -0.056 0.026 205 181 147 0 0
2.8639 7.5825 -3.9156 -0.990 -0.080 0.117 204 181 149 0 0
3.2664 6.8536 -4.2422 -0.765 -0.551 -0.332 204 183 153 0 0
3.2924 6.8364 -4.2585 -0.686 -0.671 -0.282 194 173 143 0 0
3.3070 6.8287 -4.2673 -0.582 -0.780 -0.231 194 173 142 0 0
4.5444 6.8337 -4.9093 -0.004 -0.869 -0.494 212 213 208 0 0
4.3433 6.5775 -4.8462 0.077 -0.580 0.811 222 222 220 0 0
4.2140 6.4967 -4.7921 -0.986 0.165 0.020 222 222 219 0 0
4.3155 6.5301 -4.8394 -0.619 -0.597 -0.511 222 222 219 0 0
4.2100 6.4616 -4.7956 -0.897 -0.120 0.426 222 223 219 0 0
4.2458 6.4626 -4.8140 -0.521 -0.853 -0.037 223 223 221 0 0
0.7089 11.3899 -2.1997 -0.926 0.377 -0.015 239 235 233 0 0
0.6379 11.2202 -2.1899 -0.948 0.311 -0.067 235 226 221 0 0
0.6147 10.9623 -2.2191 -0.929 -0.310 -0.200 187 131 109 0 0
0.8541 10.5872 -2.4039 -0.901 -0.308 -0.306 188 134 115 0 0
0.8609 10.5745 -2.4095 -0.886 -0.336 -0.321 189 136 118 0 0
0.8677 10.5619 -2.4151 -0.886 -0.336 -0.321 185 133 115 0 0
0.8849 10.5417 -2.4273 -0.826 -0.420 -0.376 177 121 103 0 0
0.9734 10.3765 -2.4999 -0.894 -0.277 -0.352 182 129 110 0 0
1.0023 10.2836 -2.5298 -0.969 -0.239 0.055 177 120 101 0 0
1.0078 10.2691 -2.5350 -0.982 -0.183 0.043 177 122 101 0 0
1.0757 10.1651 -2.5871 -0.867 -0.395 -0.305 171 119 103 0 0
1.0832 10.1535 -2.5928 -0.793 -0.505 -0.340 169 116 101 0 0
1.0929 10.1448 -2.5993 -0.874 -0.333 -0.353 184 131 116 0 0
1.1722 9.9910 -2.6652 -0.894 -0.261 -0.364 168 111 93 0 0
1.1856 9.9656 -2.6763 -0.926 -0.278 -0.254 178 121 102 0 0
1.1907 9.9509 -2.6813 -0.914 -0.320 -0.251 160 105 85 0 0
1.1984 9.9396 -2.6871 -0.762 -0.537 -0.362 181 126 106 0 0
1.2464 9.8740 -2.7227 -0.713 -0.559 -0.422 173 121 99 0 0
1.2566 9.8445 -2.7327 -0.866 -0.417 -0.278 176 123 103 0 0
1.2724 9.8436 -2.7411 -0.910 -0.254 -0.329 181 127 109 0 0
1.2767 9.8278 -2.7458 -0.785 -0.557 -0.271 186 132 114 0 0
1.2857 9.8181 -2.7521 -0.785 -0.557 -0.271 164 111 93 0 0
1.2863 9.7977 -2.7556 -0.740 -0.499 -0.451 178 125 107 0 0
1.3589 9.6996 -2.8092 -0.940 -0.341 0.016 166 113 93 0 0
1.3649 9.6862 -2.8145 -0.926 -0.366 0.092 176 122 103 0 0
1.4305 9.5586 -2.8691 -0.680 -0.640 -0.357 174 123 102 0 0
1.4420 9.5108 -2.8828 -0.825 -0.547 -0.142 154 104 86 0 0
1.4502 9.5000 -2.8888 -0.825 -0.547 -0.142 170 120 101 0 0
1.4552 9.4855 -2.8937 -0.932 -0.345 -0.108 169 118 99 0 0
1.4609 9.4718 -2.8989 -0.932 -0.345 -0.108 173 121 103 0 0
1.4666 9.4581 -2.9040 -0.932 -0.345 -0.108 175 122 104 0 0
1.4722 9.4444 -2.9092 -0.932 -0.345 -0.108 176 123 105 0 0
1.4779 9.4307 -2.9143 -0.932 -0.345 -0.108 172 119 102 0 0
1.6117 9.0635 -3.0429 -0.825 -0.375 -0.424 171 121 105 0 0
1.7784 8.9302 -3.1511 -0.706 -0.651 -0.278 174 126 108 0 0
2.8403 9.3879 -3.6310 0.453 -0.836 -0.308 205 199 193 0 0
2.6240 8.8385 -3.6064 -0.508 -0.786 0.353 220 215 209 0 0
2.6345 8.8283 -3.6135 -0.474 -0.789 0.391 221 216 210 0 0
2.8548 8.9283 -3.7122 -0.988 -0.146 0.054 221 218 212 0 0
2.8471 8.9013 -3.7126 -0.515 -0.746 -0.423 221 218 213 0 0
2.8672 8.8792 -3.7266 -0.863 -0.504 -0.027 222 218 214 0 0
2.9477 8.3631 -3.8512 -0.966 0.221 -0.136 200 174 142 0 0
2.9443 8.3414 -3.8529 -0.941 0.254 -0.222 205 180 149 0 0
2.8998 8.1557 -3.8595 -0.987 0.052 -0.152 204 180 146 0 0
2.8811 8.1039 -3.8581 -0.985 0.168 -0.026 203 179 145 0 0
2.8631 7.9982 -3.8656 -0.957 -0.224 -0.182 204 180 146 0 0
2.8773 7.9729 -3.8770 -0.969 -0.244 -0.028 208 184 150 0 0
2.8669 7.9468 -3.8758 -0.933 0.030 0.358 207 182 150 0 0
2.8395 7.8181 -3.8822 -0.917 -0.161 -0.366 206 182 149 0 0
2.8463 7.8055 -3.8878 -0.910 -0.227 -0.346 206 182 146 0 0
2.9429 7.3362 -4.0133 -0.808 -0.483 -0.338 206 182 148 0 0
3.4642 6.8124 -4.3688 -0.643 -0.672 -0.368 184 165 133 0 0
3.4780 6.8039 -4.3774 -0.643 -0.672 -0.368 190 171 140 0 0
4.3877 6.8120 -4.8501 -0.181 -0.688 -0.703 209 210 205 0 0
4.4323 6.8177 -4.8724 -0.170 -0.738 -0.654 211 212 207 0 0
4.1420 6.5337 -4.7667 -0.720 -0.651 -0.241 222 223 218 0 0
4.2073 6.5165 -4.8034 -0.695 -0.696 -0.179 221 221 219 0 0
4.2172 6.4882 -4.8131 -0.930 0.064 0.362 222 223 218 0 0
0.7340 11.4698 -2.2175 -0.927 0.320 -0.195 239 235 234 0 0
0.6301 11.1942 -2.2071 -0.967 0.240 -0.087 201 173 167 0 0
0.6133 10.9955 -2.2299 -0.982 -0.071 -0.176 167 112 91 0 0
0.6170 10.9775 -2.2347 -0.929 -0.237 -0.285 176 122 99 0 0
0.6173 10.9541 -2.2387 -0.896 -0.168 -0.411 163 110 86 0 0
0.7815 10.7190 -2.3619 -0.984 -0.067 0.164 186 130 113 0 0
0.7873 10.7047 -2.3672 -0.960 -0.279 0.005 176 121 101 0 0
0.8565 10.6017 -2.4198 -0.784 -0.441 -0.437 182 130 109 0 0
0.8646 10.5909 -2.4257 -0.774 -0.452 -0.444 187 136 115 0 0
0.8937 10.5426 -2.4486 -0.877 -0.472 -0.088 182 125 108 0 0
0.8996 10.5286 -2.4540 -0.952 -0.301 -0.060 178 120 100 0 0
0.9755 10.3901 -2.5157 -0.854 -0.340 -0.393 167 114 96 0 0
1.0077 10.2793 -2.5501 -0.981 -0.013 0.193 159 104 83 0 0
1.1908 9.9609 -2.6965 -0.872 -0.127 0.473 166 113 92 0 0
1.2025 9.9549 -2.7036 -0.663 -0.653 -0.366 176 124 103 0 0
1.2110 9.9445 -2.7097 -0.832 -0.392 -0.392 180 125 104 0 0
1.2256 9.9207 -2.7211 -0.940 -0.316 -0.128 177 123 103 0 0
1.2311 9.9065 -2.7262 -0.942 -0.298 -0.152 175 120 100 0 0
1.2429 9.9006 -2.7334 -0.856 -0.406 -0.320 171 116 96 0 0
1.2519 9.8695 -2.7430 -0.805 -0.474 -0.356 180 128 107 0 0
1.2606 9.8594 -2.7492 -0.805 -0.474 -0.356 180 130 110 0 0
1.3413 9.7713 -2.8054 -0.655 -0.669 -0.351 173 117 99 0 0
1.4568 9.4967 -2.9095 -0.851 -0.515 -0.104 151 100 81 0 0
1.4672 9.4681 -2.9195 -0.971 -0.226 0.081 167 115 98 0 0
1.5904 9.2066 -3.0255 -0.972 -0.031 -0.234 179 125 108 0 0
1.8004 8.9230 -3.1804 -0.923 -0.289 -0.255 164 113 96 0 0
1.8079 8.9115 -3.1862 -0.833 -0.430 -0.349 186 135 117 0 0
1.9489 8.7854 -3.2800 -0.760 -0.521 -0.387 154 107 89 0 0
2.8654 9.4213 -3.6576 0.450 -0.818 -0.359 207 200 194 0 0
2.7849 9.3021 -3.6345 0.402 -0.806 -0.435 210 203 197 0 0
2.6502 8.8117 -3.6422 -0.496 -0.867 0.043 221 217 210 0 0
2.8498 8.9123 -3.7305 -0.619 -0.680 -0.394 222 218 214 0 0
2.9827 8.4573 -3.8724 -0.995 0.096 0.021 196 170 141 0 0
2.9554 8.3775 -3.8709 -0.968 0.246 -0.048 190 164 131 0 0
2.9291 8.2993 -3.8696 -0.971 0.233 -0.053 204 178 145 0 0
2.9129 8.2673 -3.8662 -0.955 0.171 -0.244 202 176 143 0 0
2.9194 8.2351 -3.8748 -0.936 0.059 -0.348 203 179 145 0 0
2.9146 8.2126 -3.8758 -0.934 0.149 -0.325 201 177 143 0 0
2.9006 8.1828 -3.8733 -0.981 -0.025 -0.194 202 178 144 0 0
2.8887 8.1362 -3.8745 -0.972 0.229 -0.048 207 183 149 0 0
2.8706 8.0118 -3.8848 -0.868 -0.394 -0.303 202 178 144 0 0
2.8782 7.9995 -3.8908 -0.868 -0.394 -0.303 206 182 148 0 0
2.8680 7.9371 -3.8953 -0.894 -0.300 -0.334 208 183 152 0 0
2.8504 7.8161 -3.9055 -0.910 -0.227 -0.346 205 181 147 0 0
2.8429 7.7394 -3.9137 -0.935 -0.132 -0.328 207 184 150 0 0
2.8465 7.7245 -3.9180 -0.935 -0.132 -0.328 204 180 146 0 0
2.9014 7.5372 -3.9765 -0.947 -0.252 -0.201 205 181 147 0 0
2.9106 7.4403 -3.9968 -0.849 -0.433 -0.303 204 180 148 0 0
2.9404 7.3245 -4.0308 -0.982 -0.187 -0.027 203 179 147 0 0
2.9433 7.3096 -4.0347 -0.982 -0.187 -0.027 205 180 149 0 0
3.1456 7.0069 -4.1886 -0.896 -0.315 -0.315 194 173 142 0 0
3.1789 6.9781 -4.2106 -0.834 -0.437 -0.337 200 177 146 0 0
3.8720 6.7657 -4.6066 -0.650 -0.757 -0.069 176 159 127 0 0
4.4206 6.8360 -4.8821 -0.181 -0.688 -0.703 211 211 208 0 0
4.4652 6.8417 -4.9045 -0.143 -0.741 -0.655 212 213 208 0 0
4.5660 6.8764 -4.9516 -0.091 -0.861 -0.501 213 214 209 0 0
4.6066 6.8797 -4.9723 -0.149 -0.912 -0.383 215 216 212 0 0
4.1987 6.5355 -4.8140 -0.979 -0.186 0.089 221 221 219 0 0
4.2013 6.5201 -4.8178 -0.979 -0.186 0.089 222 223 220 0 0
0.7093 11.3895 -2.2348 -0.926 0.377 -0.015 236 235 233 0 0
0.6378 11.2189 -2.2243 -0.967 0.240 -0.087 222 205 201 0 0
0.6265 11.0046 -2.2523 -0.913 -0.304 -0.272 164 109 87 0 0
0.7677 10.7554 -2.3658 -0.897 -0.442 0.016 186 134 116 0 0
0.7742 10.7421 -2.3713 -0.897 -0.442 0.016 182 129 112 0 0
0.7807 10.7288 -2.3768 -0.897 -0.442 0.016 179 123 104 0 0
0.7851 10.7122 -2.3817 -0.960 -0.279 0.005 181 126 106 0 0
1.0678 10.2408 -2.6045 -0.865 -0.312 -0.393 158 105 84 0 0
1.2213 9.9250 -2.7350 -0.955 -0.296 -0.012 176 121 102 0 0
1.2302 9.9152 -2.7412 -0.940 -0.316 -0.128 171 114 95 0 0
1.2436 9.9113 -2.7489 -0.856 -0.406 -0.320 162 107 87 0 0
1.2692 9.8802 -2.7672 -0.884 -0.312 -0.349 170 120 103 0 0
1.2827 9.8550 -2.7783 -0.910 -0.254 -0.329 180 129 113 0 0
1.4476 9.5155 -2.9184 -0.567 -0.792 -0.226 156 101 84 0 0
1.4555 9.5044 -2.9243 -0.871 -0.467 -0.156 168 115 97 0 0
1.5396 9.3990 -2.9851 -0.868 -0.352 -0.350 170 115 98 0 0
1.5560 9.3571 -3.0003 -0.847 -0.516 -0.128 153 102 86 0 0
1.5633 9.3453 -3.0060 -0.867 -0.493 -0.077 146 95 79 0 0
1.5819 9.3262 -3.0188 -0.799 -0.562 -0.213 166 116 99 0 0
1.5996 9.2659 -3.0376 -0.955 -0.143 -0.258 177 121 104 0 0
1.6753 9.0719 -3.1080 -0.762 -0.566 -0.316 156 109 92 0 0
1.8084 8.9205 -3.2017 -0.761 -0.488 -0.428 162 111 93 0 0
1.9503 8.7952 -3.2960 -0.760 -0.521 -0.387 163 115 99 0 0
2.5798 8.8545 -3.6165 -0.257 -0.964 -0.062 219 214 208 0 0
2.6284 8.8399 -3.6443 -0.634 -0.618 0.465 222 217 213 0 0
2.8622 8.8921 -3.7585 -0.798 -0.601 0.047 223 219 215 0 0
2.9053 8.6918 -3.8128 -0.850 -0.450 -0.273 227 222 218 0 0
2.9054 8.6723 -3.8160 -0.842 -0.387 -0.376 227 222 218 0 0
2.8970 8.6455 -3.8158 -0.588 -0.805 -0.073 225 221 217 0 0
2.9137 8.6403 -3.8254 -0.491 -0.854 -0.175 225 222 217 0 0
2.9203 8.5874 -3.8372 -0.860 -0.485 -0.157 225 222 217 0 0
2.9832 8.4659 -3.8894 -0.995 0.096 0.021 194 175 156 0 0
2.9309 8.3088 -3.8869 -0.970 0.241 0.022 203 178 144 0 0
2.9179 8.2794 -3.8847 -0.943 -0.006 0.332 202 177 143 0 0
2.9177 8.2605 -3.8876 -0.919 -0.130 0.372 204 177 146 0 0
2.9242 8.2469 -3.8932 -0.991 0.061 -0.115 202 176 144 0 0
2.9258 8.2295 -3.8968 -0.949 -0.010 -0.316 199 175 139 0 0
2.8832 8.0294 -3.9061 -0.978 -0.120 -0.173 206 180 147 0 0
2.8647 7.9603 -3.9073 -0.894 -0.300 -0.334 207 181 149 0 0
2.8711 7.9472 -3.9128 -0.894 -0.300 -0.334 206 180 149 0 0
2.8438 7.8543 -3.9132 -0.910 -0.227 -0.346 202 178 143 0 0
2.8466 7.7674 -3.9284 -0.855 -0.306 -0.419 207 184 150 0 0
2.8787 7.6326 -3.9666 -0.912 -0.246 -0.329 206 182 150 0 0
2.9531 7.3233 -4.0546 -0.849 -0.372 -0.375 202 179 147 0 0
2.9608 7.3116 -4.0605 -0.849 -0.372 -0.375 205 182 150 0 0
3.1330 7.0223 -4.1965 -0.921 -0.388 0.032 196 174 143 0 0
3.4704 6.8294 -4.4039 -0.744 -0.657 -0.119 184 164 134 0 0
3.8661 6.7693 -4.6208 -0.443 -0.875 -0.192 168 148 116 0 0
4.0536 6.5188 -4.7587 -0.812 -0.574 -0.105 221 221 218 0 0
4.1744 6.5466 -4.8176 -0.869 -0.105 0.483 222 222 220 0 0
0.7279 11.4837 -2.2471 -0.937 0.260 -0.232 237 236 234 0 0
0.7464 10.8036 -2.3639 -0.798 -0.453 -0.397 165 108 87 0 0
0.7845 10.7223 -2.3967 -0.934 -0.271 -0.235 166 114 94 0 0
0.8687 10.6187 -2.4573 -0.783 -0.381 -0.492 161 110 89 0 0
0.9645 10.4858 -2.5286 -0.850 -0.274 -0.451 186 139 123 0 0
1.0038 10.3617 -2.5688 -0.870 -0.284 -0.403 162 110 95 0 0
1.1546 10.1499 -2.6814 -0.765 -0.518 -0.383 183 127 108 0 0
1.1827 10.0784 -2.7074 -0.916 -0.381 -0.123 184 128 111 0 0
1.1890 10.0650 -2.7128 -0.916 -0.381 -0.123 187 131 114 0 0
1.1890 9.9784 -2.7264 -0.989 -0.144 -0.015 171 119 101 0 0
1.2222 9.9361 -2.7506 -0.892 -0.415 0.179 170 115 95 0 0
1.5537 9.3839 -3.0117 -0.855 -0.400 -0.329 143 91 74 0 0
1.5613 9.3724 -3.0175 -0.855 -0.400 -0.329 156 104 88 0 0
1.5675 9.3592 -3.0228 -0.933 -0.309 -0.186 150 97 80 0 0
1.5691 9.3409 -3.0266 -0.941 -0.227 0.253 156 103 86 0 0
1.5819 9.3353 -3.0342 -0.907 -0.393 -0.153 178 125 109 0 0
1.6017 9.2772 -3.0537 -0.953 -0.165 -0.255 183 128 110 0 0
1.6200 9.1581 -3.0821 -0.985 -0.175 0.014 163 114 98 0 0
1.6163 9.1342 -3.0839 -0.909 -0.243 -0.340 151 103 88 0 0
1.7597 8.9948 -3.1812 -0.877 -0.441 -0.190 175 129 113 0 0
1.8340 8.8782 -3.2386 -0.524 -0.850 0.048 155 105 88 0 0
2.5877 8.8703 -3.6360 -0.624 -0.759 0.185 220 215 209 0 0
2.5996 8.8615 -3.6436 -0.605 -0.796 0.000 221 216 210 0 0
2.7791 8.7868 -3.7497 -0.957 -0.229 0.178 221 221 215 0 0
2.7813 8.7690 -3.7537 -0.946 -0.211 0.244 222 222 215 0 0
2.7915 8.7386 -3.7638 -0.887 -0.396 0.236 224 221 215 0 0
2.8453 8.7663 -3.7877 -0.093 -0.926 0.366 225 222 216 0 0
2.8729 8.7313 -3.8078 -0.997 -0.079 0.013 225 222 217 0 0
2.8997 8.7348 -3.8213 -0.868 -0.491 -0.077 223 222 217 0 0
2.8765 8.6950 -3.8154 -0.945 -0.076 0.317 226 222 218 0 0
2.8752 8.6743 -3.8180 -0.991 0.015 0.136 227 222 218 0 0
2.8921 8.6693 -3.8276 -0.803 -0.529 -0.276 227 222 218 0 0
2.8959 8.6529 -3.8322 -0.875 -0.440 -0.199 227 223 219 0 0
3.0016 8.5087 -3.9105 -0.952 0.283 -0.117 221 217 208 0 0
2.9868 8.4771 -3.9076 -0.982 0.091 0.167 216 207 197 0 0
2.9779 8.4505 -3.9071 -0.965 0.261 0.036 201 185 172 0 0
2.9268 8.2946 -3.9048 -0.972 0.211 0.103 200 176 142 0 0
2.9298 8.2782 -3.9090 -0.993 0.094 0.072 202 175 146 0 0
2.9077 8.2416 -3.9031 -0.481 -0.723 -0.496 198 171 141 0 0
2.9236 8.2356 -3.9124 -0.703 -0.541 -0.462 199 176 140 0 0
2.9419 8.2316 -3.9227 -0.775 -0.488 -0.403 203 179 144 0 0
2.9510 8.2201 -3.9293 -0.521 -0.542 -0.659 206 180 148 0 0
2.8854 8.0388 -3.9233 -0.992 -0.034 -0.123 205 179 147 0 0
2.8713 7.9731 -3.9262 -0.838 -0.296 -0.460 205 179 146 0 0
2.8763 7.9589 -3.9311 -0.942 -0.125 -0.313 206 181 149 0 0
2.8550 7.8704 -3.9339 -0.707 -0.469 -0.530 204 179 145 0 0
2.8586 7.8373 -3.9410 -0.910 -0.227 -0.346 205 179 145 0 0
2.8951 7.6519 -3.9894 -0.915 -0.365 -0.174 207 183 151 0 0
2.9225 7.4286 -4.0389 -0.964 -0.155 -0.217 206 182 150 0 0
2.9566 7.3327 -4.0719 -0.874 -0.329 -0.357 204 180 148 0 0
2.9643 7.3210 -4.0778 -0.849 -0.372 -0.375 203 180 148 0 0
3.0251 7.2773 -4.1166 -0.911 -0.370 -0.180 202 179 145 0 0
3.4681 6.8347 -4.4191 -0.744 -0.657 -0.119 189 170 140 0 0
3.8630 6.7743 -4.6362 -0.423 -0.895 -0.139 164 144 114 0 0
4.2159 6.7601 -4.8239 -0.615 -0.645 -0.454 212 211 206 0 0
4.2068 6.7383 -4.8225 -0.716 -0.416 -0.560 213 214 208 0 0
4.2526 6.5089 -4.8827 -0.727 -0.407 -0.553 224 224 221 0 0
0.6441 11.2283 -2.2605 -0.976 0.193 -0.105 199 174 168 0 0
0.6241 11.1211 -2.2667 -0.960 -0.039 -0.276 166 115 95 0 0
0.6269 11.1013 -2.2713 -0.981 -0.095 -0.171 173 121 100 0 0
0.7471 10.8159 -2.3793 -0.798 -0.453 -0.397 170 112 91 0 0
0.7558 10.8059 -2.3854 -0.798 -0.453 -0.397 166 112 91 0 0
0.7645 10.7960 -2.3916 -0.798 -0.453 -0.397 180 130 110 0 0
0.7956 10.7506 -2.4151 -0.753 -0.419 -0.508 170 120 103 0 0
0.8036 10.7396 -2.4210 -0.768 -0.449 -0.456 183 131 112 0 0
0.8189 10.7164 -2.4327 -0.821 -0.413 -0.394 186 131 110 0 0
0.8359 10.6958 -2.4449 -0.856 -0.341 -0.388 186 129 109 0 0
0.8634 10.6448 -2.4674 -0.865 -0.287 -0.412 169 117 98 0 0
0.8709 10.6329 -2.4732 -0.822 -0.353 -0.447 168 117 98 0 0
0.9457 10.5145 -2.5311 -0.850 -0.365 -0.379 182 136 120 0 0
1.0105 10.3816 -2.5861 -0.745 -0.450 -0.492 162 111 94 0 0
1.0200 10.3728 -2.5925 -0.745 -0.450 -0.492 161 109 91 0 0
1.0792 10.2329 -2.6456 -0.960 -0.279 -0.003 160 108 87 0 0
1.1820 10.0875 -2.7225 -0.762 -0.495 -0.418 176 120 104 0 0
1.1872 10.0727 -2.7276 -0.822 -0.414 -0.392 177 122 105 0 0
1.2257 9.9504 -2.7670 -0.748 -0.604 -0.274 162 107 87 0 0
1.2427 9.9297 -2.7792 -0.790 -0.508 -0.345 173 117 99 0 0
1.2513 9.9194 -2.7853 -0.751 -0.552 -0.362 170 115 98 0 0
1.2594 9.9085 -2.7913 -0.747 -0.573 -0.337 145 92 76 0 0
1.2656 9.8952 -2.7967 -0.834 -0.527 -0.162 155 103 89 0 0
1.2966 9.8497 -2.8201 -0.826 -0.506 -0.248 187 133 115 0 0
1.3082 9.8432 -2.8272 -0.826 -0.475 -0.303 171 116 96 0 0
1.3232 9.8198 -2.8388 -0.889 -0.327 -0.321 157 104 86 0 0
1.4058 9.6701 -2.9057 -0.910 -0.320 -0.262 161 108 90 0 0
1.5473 9.4263 -3.0185 -0.912 -0.328 -0.248 172 119 101 0 0
1.5539 9.4136 -3.0239 -0.895 -0.373 -0.245 167 114 96 0 0
1.5558 9.3955 -3.0278 -0.948 -0.254 -0.194 173 119 101 0 0
1.6212 9.2081 -3.0916 -0.849 -0.358 0.390 169 118 101 0 0
1.8005 8.9684 -3.2236 -0.895 -0.362 -0.259 191 141 125 0 0
1.9524 8.8142 -3.3278 -0.817 -0.494 -0.299 158 112 97 0 0
2.7297 9.3389 -3.6554 0.472 -0.833 -0.289 207 200 193 0 0
2.5945 8.8654 -3.6582 -0.605 -0.796 0.000 222 217 211 0 0
2.5314 8.7876 -3.6371 -0.644 -0.350 0.680 222 217 211 0 0
2.7536 8.9316 -3.7317 -0.698 -0.629 -0.341 222 217 211 0 0
2.7860 8.7423 -3.7784 -0.887 -0.396 0.236 225 221 217 0 0
2.8101 8.7439 -3.7909 -0.756 -0.444 0.481 226 221 217 0 0
2.8156 8.7290 -3.7961 -0.756 -0.444 0.481 226 221 217 0 0
2.8721 8.7390 -3.8243 -0.997 -0.079 0.013 226 223 218 0 0
2.8709 8.6986 -3.8300 -0.733 -0.680 -0.011 226 223 218 0 0
2.8623 8.6716 -3.8297 -0.984 -0.125 0.129 227 222 218 0 0
2.8641 8.6536 -3.8335 -0.984 -0.125 0.129 228 223 219 0 0
2.8975 8.6627 -3.8496 -0.828 -0.561 -0.005 227 224 219 0 0
2.9072 8.5930 -3.8657 -0.595 -0.740 -0.313 227 224 219 0 0
2.9373 8.5990 -3.8806 -0.484 -0.845 -0.227 226 222 218 0 0
2.9950 8.5114 -3.9247 -0.976 0.133 0.171 224 220 216 0 0
2.9917 8.4894 -3.9264 -0.976 0.133 0.171 222 220 215 0 0
2.9797 8.4602 -3.9246 -0.975 0.142 0.170 218 214 207 0 0
2.9757 8.4377 -3.9261 -0.943 0.179 0.279 210 200 192 0 0
2.9293 8.2858 -3.9254 -0.993 0.094 0.072 200 173 142 0 0
2.9105 8.2519 -3.9208 -0.481 -0.723 -0.496 201 173 142 0 0
2.9252 8.2449 -3.9296 -0.608 -0.680 -0.409 203 179 145 0 0
2.8861 8.0655 -3.9371 -0.992 -0.034 -0.123 205 178 148 0 0
2.8872 8.0479 -3.9404 -0.992 -0.034 -0.123 206 179 148 0 0
2.8605 7.8641 -3.9550 -0.856 -0.341 -0.388 202 176 143 0 0
2.8627 7.8479 -3.9588 -0.910 -0.227 -0.346 204 178 143 0 0
2.8953 7.6593 -4.0054 -0.915 -0.365 -0.174 201 176 145 0 0
3.0256 7.2846 -4.1328 -0.945 -0.234 -0.230 205 182 149 0 0
3.0296 7.2704 -4.1371 -0.969 -0.147 0.198 203 180 147 0 0
3.0297 7.2535 -4.1398 -0.883 -0.430 -0.186 203 180 148 0 0
3.0350 7.2401 -4.1447 -0.902 -0.412 -0.131 206 183 150 0 0
3.0308 7.2205 -4.1455 -0.935 -0.355 -0.010 200 177 143 0 0
3.3552 6.9072 -4.3655 -0.746 -0.609 -0.270 192 171 140 0 0
4.0835 6.7312 -4.7770 -0.477 -0.844 0.245 210 210 206 0 0
4.0966 6.7213 -4.7855 -0.455 -0.862 0.225 211 212 207 0 0
0.6255 11.1351 -2.2824 -0.950 -0.008 -0.313 152 101 83 0 0
0.7030 10.9953 -2.3450 -0.894 -0.303 -0.330 169 112 92 0 0
0.7078 10.9789 -2.3501 -0.907 -0.263 -0.329 168 110 90 0 0
0.8759 10.6514 -2.4899 -0.811 -0.502 -0.300 158 105 87 0 0
0.9474 10.5276 -2.5469 -0.805 -0.461 -0.374 154 107 91 0 0
0.9951 10.4153 -2.5897 -0.895 -0.335 -0.296 175 124 105 0 0
1.0023 10.4031 -2.5954 -0.948 -0.173 -0.267 178 127 108 0 0
1.1189 10.2095 -2.6871 -0.913 -0.171 -0.370 169 116 98 0 0
1.1583 10.1532 -2.7167 -0.814 -0.434 -0.386 179 123 103 0 0
1.2073 10.0660 -2.7561 -0.814 -0.360 -0.455 166 111 94 0 0
1.2678 9.9078 -2.8127 -0.927 -0.296 -0.229 166 114 99 0 0
1.5453 9.4332 -3.0332 -0.945 -0.270 -0.184 168 117 99 0 0
1.5479 9.4158 -3.0373 -0.868 -0.429 -0.248 164 111 93 0 0
1.5564 9.4053 -3.0434 -0.948 -0.254 -0.194 174 121 103 0 0
1.5610 9.3903 -3.0482 -0.938 -0.262 -0.228 172 116 100 0 0
1.7691 9.0613 -3.2093 -0.821 -0.491 -0.290 153 105 89 0 0
1.7839 9.0378 -3.2208 -0.919 -0.331 -0.214 159 113 98 0 0
1.8013 8.9778 -3.2393 -0.895 -0.362 -0.259 173 125 109 0 0
1.8101 8.9676 -3.2456 -0.815 -0.544 -0.198 168 119 104 0 0
2.5887 8.9084 -3.6664 -0.834 -0.279 0.477 221 216 210 0 0
2.5099 8.7959 -3.6422 -0.985 -0.166 0.043 222 217 211 0 0
2.8672 9.0440 -3.7925 -0.960 0.210 0.184 223 218 212 0 0
2.7872 8.9308 -3.7678 -0.961 -0.112 -0.251 224 219 213 0 0
2.7908 8.9139 -3.7723 -0.707 -0.410 -0.576 224 219 213 0 0
2.7934 8.7770 -3.7950 -0.847 -0.484 0.221 223 222 217 0 0
2.8026 8.7654 -3.8017 -0.702 -0.621 0.349 226 223 218 0 0
2.8132 8.7353 -3.8120 -0.849 -0.423 0.317 227 223 218 0 0
2.8654 8.7023 -3.8447 -0.982 -0.132 0.134 228 224 220 0 0
2.8562 8.6747 -3.8441 -0.831 -0.500 -0.244 227 224 219 0 0
2.8787 8.6745 -3.8560 -0.946 -0.270 -0.182 228 224 219 0 0
2.9353 8.6057 -3.8967 -0.552 -0.814 -0.178 227 224 219 0 0
2.9154 8.2638 -3.9393 -0.997 -0.060 -0.053 205 175 141 0 0
2.9013 8.2337 -3.9365 -0.984 0.059 0.169 203 176 142 0 0
2.9348 8.2418 -3.9530 -0.396 -0.918 -0.015 202 176 143 0 0
2.9550 8.2392 -3.9641 -0.611 -0.790 0.044 207 178 145 0 0
2.8549 7.8675 -3.9689 -0.841 -0.487 -0.235 204 179 145 0 0
2.8954 7.6667 -4.0215 -0.915 -0.365 -0.174 207 183 149 0 0
2.9180 7.4742 -4.0635 -0.831 -0.439 -0.341 200 176 142 0 0
2.9229 7.4604 -4.0682 -0.916 -0.278 -0.290 203 179 145 0 0
3.4766 6.8531 -4.4553 -0.715 -0.549 -0.433 188 169 139 0 0
3.4909 6.8448 -4.4642 -0.762 -0.572 -0.304 185 166 136 0 0
3.8961 6.7891 -4.6870 -0.420 -0.776 -0.469 174 158 136 0 0
0.6267 11.1487 -2.2980 -0.994 0.006 -0.108 169 118 104 0 0
0.6286 11.1273 -2.3022 -0.988 -0.079 -0.129 158 105 89 0 0
0.6344 11.1126 -2.3076 -0.972 -0.140 -0.187 165 112 94 0 0
0.7116 10.9966 -2.3665 -0.851 -0.452 -0.267 172 112 91 0 0
0.7195 10.9852 -2.3724 -0.851 -0.452 -0.267 175 116 95 0 0
0.7237 10.9680 -2.3773 -0.978 -0.195 0.073 164 109 86 0 0
0.7267 10.9489 -2.3819 -0.993 -0.112 0.029 160 106 84 0 0
0.7371 10.9175 -2.3922 -0.924 -0.382 -0.011 175 116 95 0 0
0.7501 10.8905 -2.4033 -0.876 -0.416 -0.245 167 111 89 0 0
0.7573 10.8782 -2.4090 -0.727 -0.519 -0.449 174 119 97 0 0
0.8499 10.7159 -2.4832 -0.822 -0.375 -0.428 176 120 100 0 0
0.8781 10.6656 -2.5059 -0.814 -0.451 -0.366 158 106 87 0 0
0.9341 10.5646 -2.5512 -0.874 -0.363 -0.324 174 124 107 0 0
0.9413 10.5523 -2.5569 -0.874 -0.363 -0.324 159 108 91 0 0
0.9487 10.5403 -2.5627 -0.850 -0.365 -0.379 146 97 82 0 0
1.0010 10.4343 -2.6068 -0.843 -0.346 -0.413 160 109 91 0 0
1.0099 10.4245 -2.6130 -0.915 -0.180 -0.361 169 118 99 0 0
1.0134 10.4069 -2.6176 -0.937 -0.129 -0.325 163 111 91 0 0
1.0272 10.3816 -2.6288 -0.968 -0.159 -0.194 193 138 118 0 0
1.1122 10.2994 -2.6866 -0.731 -0.608 -0.310 174 122 102 0 0
1.1759 10.1213 -2.7479 -0.852 -0.449 -0.268 180 127 109 0 0
1.2641 9.9343 -2.8235 -0.900 -0.308 -0.308 182 127 111 0 0
1.2678 9.9176 -2.8281 -0.921 -0.317 -0.225 164 111 95 0 0
1.2734 9.9034 -2.8332 -0.789 -0.507 -0.348 176 123 107 0 0
1.4574 9.6268 -2.9735 -0.764 -0.457 -0.456 181 126 109 0 0
1.6258 9.1911 -3.1301 -0.942 -0.170 -0.288 179 130 113 0 0
1.6900 9.1229 -3.1747 -0.625 -0.680 -0.383 155 106 91 0 0
1.7692 9.0703 -3.2249 -0.821 -0.491 -0.290 175 125 108 0 0
1.7727 9.0542 -3.2291 -0.699 -0.648 -0.301 176 128 112 0 0
1.7842 9.0468 -3.2364 -0.872 -0.398 -0.283 167 120 104 0 0
1.7895 9.0328 -3.2414 -0.968 -0.179 -0.174 174 127 111 0 0
1.8131 8.9793 -3.2621 -0.915 -0.311 -0.256 165 115 100 0 0
2.5543 8.9247 -3.6636 -0.840 -0.347 0.418 220 216 210 0 0
2.5524 8.7847 -3.6842 -0.915 -0.389 -0.106 221 218 211 0 0
2.8988 9.0612 -3.8251 -0.848 -0.181 0.499 224 219 213 0 0
2.8733 9.0177 -3.8183 -0.541 -0.553 0.634 224 219 213 0 0
2.8789 9.0025 -3.8237 -0.741 -0.426 0.519 224 220 214 0 0
2.6833 8.6878 -3.7686 -0.578 -0.815 -0.046 225 223 218 0 0
2.8011 8.7529 -3.8210 -0.849 -0.423 0.317 227 224 219 0 0
2.8231 8.7329 -3.8357 -0.964 -0.204 0.170 226 223 220 0 0
2.8023 8.6950 -3.8306 -0.856 -0.133 0.499 227 223 220 0 0
2.8499 8.6777 -3.8585 -0.937 -0.310 -0.160 227 224 221 0 0
2.8557 8.6631 -3.8638 -0.937 -0.310 -0.160 228 225 220 0 0
2.8843 8.6682 -3.8782 -0.946 -0.122 -0.301 228 225 220 0 0
3.1189 8.6310 -4.0083 -0.831 0.418 -0.366 225 222 217 0 0
2.9463 8.2403 -3.9772 -0.387 -0.631 0.672 202 176 141 0 0
2.9069 8.1901 -3.9640 -0.995 0.091 0.038 202 176 141 0 0
2.8531 7.8916 -3.9816 -0.754 -0.488 0.440 201 177 143 0 0
2.8664 7.8838 -3.9899 -0.850 -0.522 -0.072 205 180 146 0 0
2.8741 7.6761 -4.0260 -0.900 -0.355 -0.251 205 181 147 0 0
2.8827 7.6649 -4.0324 -0.895 -0.437 -0.086 205 180 147 0 0
2.9203 7.4830 -4.0804 -0.831 -0.439 -0.341 203 179 146 0 0
2.9189 7.4647 -4.0825 -0.852 -0.417 -0.316 201 177 143 0 0
2.9344 7.4412 -4.0943 -0.822 -0.493 -0.285 203 179 145 0 0
3.0345 7.2876 -4.1711 -0.896 -0.261 -0.358 198 174 143 0 0
3.2701 6.9853 -4.3428 -0.557 -0.792 -0.249 187 166 133 0 0
3.3440 6.9471 -4.3878 -0.700 -0.671 -0.243 191 170 139 0 0
4.0601 6.8001 -4.7902 -0.249 -0.846 -0.472 209 208 203 0 0
4.0097 6.7225 -4.7755 -0.877 -0.377 0.299 212 213 208 0 0
4.0229 6.7126 -4.7840 -0.693 -0.468 0.549 212 213 208 0 0
0.6382 11.1797 -2.3164 -0.979 0.107 -0.174 176 126 111 0 0
0.6319 11.1445 -2.3184 -0.981 -0.003 -0.195 173 122 104 0 0
0.7024 11.0173 -2.3755 -0.781 -0.599 -0.175 174 118 97 0 0
0.7096 11.0048 -2.3812 -0.866 -0.477 -0.148 166 107 86 0 0
0.7172 10.9929 -2.3871 -0.866 -0.477 -0.148 162 104 83 0 0
0.7210 10.9751 -2.3919 -0.959 -0.271 -0.080 164 110 88 0 0
0.7292 10.9642 -2.3979 -0.972 -0.232 -0.050 167 116 94 0 0
0.7351 10.9496 -2.4033 -0.938 -0.339 -0.072 175 123 101 0 0
0.7390 10.9320 -2.4081 -0.942 -0.333 0.033 160 105 83 0 0
0.7492 10.9004 -2.4183 -0.826 -0.482 -0.294 169 115 94 0 0
0.7559 10.8872 -2.4239 -0.842 -0.416 -0.344 182 129 109 0 0
0.7633 10.8751 -2.4297 -0.912 -0.373 -0.171 169 116 95 0 0
0.7727 10.8662 -2.4361 -0.753 -0.521 -0.402 141 89 68 0 0
0.8747 10.6714 -2.5202 -0.811 -0.502 -0.300 172 120 99 0 0
0.9104 10.6093 -2.5488 -0.921 -0.237 -0.309 184 134 117 0 0
0.9353 10.5772 -2.5669 -0.861 -0.343 -0.376 173 122 103 0 0
0.9587 10.5429 -2.5846 -0.766 -0.465 -0.444 132 85 69 0 0
0.9682 10.5338 -2.5910 -0.753 -0.524 -0.398 141 95 79 0 0
0.9840 10.4884 -2.6064 -0.953 -0.235 -0.190 186 136 120 0 0
1.0033 10.4481 -2.6229 -0.843 -0.346 -0.413 173 119 103 0 0
1.1215 10.2336 -2.7187 -0.945 -0.189 -0.266 175 123 104 0 0
1.1317 10.2255 -2.7253 -0.909 -0.170 -0.381 156 103 86 0 0
1.1700 10.1674 -2.7546 -0.860 -0.430 -0.273 171 114 95 0 0
1.2423 9.9803 -2.8218 -0.835 -0.341 -0.431 178 126 109 0 0
1.3087 9.9159 -2.8670 -0.798 -0.484 -0.359 165 110 91 0 0
1.3669 9.8192 -2.9128 -0.874 -0.427 -0.232 178 125 105 0 0
1.3744 9.8074 -2.9186 -0.915 -0.371 -0.161 174 122 103 0 0
1.3817 9.7952 -2.9243 -0.874 -0.427 -0.232 164 114 96 0 0
1.8150 8.9900 -3.2784 -0.901 -0.307 -0.307 161 111 96 0 0
2.5038 9.1265 -3.6236 -0.406 -0.437 0.803 209 203 200 0 0
2.4686 9.0723 -3.6133 -0.064 -0.986 0.155 210 204 199 0 0
2.5087 8.6561 -3.6985 -0.950 -0.246 0.194 223 222 215 0 0
2.6844 8.6972 -3.7856 -0.796 -0.514 -0.319 226 223 218 0 0
2.7341 8.7217 -3.8082 -0.736 0.047 0.675 226 224 219 0 0
2.7241 8.6934 -3.8073 -0.295 -0.401 0.867 225 224 219 0 0
2.7120 8.6437 -3.8085 -0.574 -0.534 0.620 227 224 221 0 0
2.7352 8.6446 -3.8207 -0.665 -0.744 -0.056 228 224 221 0 0
2.8358 8.6739 -3.8697 -0.904 -0.377 -0.201 229 226 222 0 0
2.8565 8.6722 -3.8809 -0.940 -0.260 -0.222 229 226 221 0 0
2.8575 8.6535 -3.8843 -0.879 -0.288 -0.381 229 226 221 0 0
2.6231 8.4134 -3.7966 -0.412 -0.853 -0.319 230 227 222 0 0
3.1324 8.6507 -4.0309 -0.831 0.404 -0.383 225 224 218 0 0
2.9235 8.2299 -3.9845 -0.986 0.164 -0.026 197 173 137 0 0
2.9110 8.2013 -3.9822 -0.972 0.202 -0.118 198 174 139 0 0
2.9117 8.1832 -3.9854 -0.979 0.184 -0.082 203 177 144 0 0
2.9069 8.1607 -3.9863 -0.965 -0.091 -0.247 203 177 145 0 0
2.8995 8.0809 -3.9946 -0.974 -0.126 -0.190 204 179 146 0 0
2.9018 8.0643 -3.9983 -0.978 -0.051 -0.201 204 178 147 0 0
2.8460 7.8938 -3.9949 -0.670 -0.697 0.254 206 182 149 0 0
2.8573 7.8845 -4.0023 -0.387 -0.918 0.082 209 184 151 0 0
2.8707 7.8766 -4.0106 -0.786 -0.571 -0.237 205 179 147 0 0
2.8936 7.6802 -4.0530 -0.843 -0.400 -0.359 202 176 142 0 0
2.9061 7.6717 -4.0609 -0.912 -0.296 -0.285 200 175 141 0 0
2.9237 7.4753 -4.1005 -0.844 -0.504 -0.184 201 177 145 0 0
3.0640 7.2465 -4.2102 -0.807 -0.540 -0.239 197 173 137 0 0
3.0755 7.2203 -4.2203 -0.737 -0.577 -0.352 195 171 136 0 0
3.0973 7.2008 -4.2349 -0.834 -0.552 -0.026 197 173 139 0 0
3.1143 7.1445 -4.2526 -0.781 -0.587 -0.212 200 177 145 0 0
3.1240 7.1340 -4.2593 -0.762 -0.526 -0.378 197 173 142 0 0
4.0867 6.6688 -4.8427 -0.229 -0.972 0.059 219 220 215 0 0
4.0135 6.4983 -4.8299 -0.498 -0.801 -0.332 224 224 222 0 0
0.6387 11.1677 -2.3357 -0.981 -0.017 -0.195 169 120 101 0 0
0.7196 10.9842 -2.4068 -0.963 -0.145 -0.227 143 91 72 0 0
0.7255 10.9696 -2.4122 -0.954 -0.205 -0.217 160 109 90 0 0
0.7339 10.9591 -2.4183 -0.881 -0.350 -0.318 172 120 100 0 0
0.7409 10.9463 -2.4239 -0.834 -0.422 -0.354 163 111 90 0 0
0.7432 10.9260 -2.4283 -0.921 -0.286 -0.266 164 112 91 0 0
0.7729 10.8778 -2.4515 -0.753 -0.521 -0.402 151 99 80 0 0
0.7802 10.8418 -2.4609 -0.868 -0.436 -0.237 172 122 103 0 0
0.7870 10.8288 -2.4665 -0.833 -0.492 -0.254 171 123 105 0 0
0.7951 10.8178 -2.4725 -0.848 -0.502 -0.173 178 132 113 0 0
0.8079 10.8141 -2.4798 -0.723 -0.687 0.066 183 136 121 0 0
0.8155 10.8024 -2.4857 -0.641 -0.751 -0.156 175 127 113 0 0
