ply
format ascii 1.0
element vertex 824
property float x
property float y
property float z
property float nx
property float ny
property float nz
property uchar diffuse_red
property uchar diffuse_green
property uchar diffuse_blue
property uchar class
property uchar detection
end_header
5.0936 6.3139 -2.3121 -0.232 -0.736 0.636 229 212 186 0 0
1.9977 11.2547 -0.6476 -0.375 -0.389 0.841 213 195 189 0 0
2.4443 10.4883 -0.9004 -0.839 -0.209 0.503 194 143 124 0 0
2.4539 10.4452 -0.9109 -0.411 -0.752 0.516 195 148 128 0 0
2.5303 10.3866 -0.9403 -0.597 -0.344 0.725 177 124 98 0 0
2.5356 10.3660 -0.9455 -0.636 -0.310 0.706 171 118 91 0 0
2.5461 10.3530 -0.9505 -0.502 -0.593 0.630 179 128 102 0 0
2.6393 10.3179 -0.9794 -0.398 -0.420 0.816 183 138 117 0 0
2.8373 10.0945 -1.0692 -0.604 -0.424 0.675 171 121 100 0 0
2.8345 10.0634 -1.0744 -0.728 -0.338 0.597 190 139 120 0 0
2.8278 10.0274 -1.0798 -0.334 -0.751 0.569 181 130 111 0 0
2.8442 10.0224 -1.0846 -0.365 -0.684 0.631 191 141 121 0 0
2.8732 10.0340 -1.0893 -0.336 -0.510 0.792 194 144 124 0 0
3.0393 9.8235 -1.1690 -0.654 -0.496 0.571 191 143 126 0 0
3.0472 9.8072 -1.1740 -0.654 -0.496 0.571 170 123 105 0 0
3.1215 9.7698 -1.1989 -0.756 -0.560 0.339 197 150 136 0 0
3.1197 9.7415 -1.2039 -0.647 -0.399 0.649 182 135 121 0 0
3.3926 9.4809 -1.3186 -0.319 -0.605 0.730 186 131 108 0 0
3.4039 9.4689 -1.3236 -0.319 -0.605 0.730 193 138 114 0 0
3.4115 9.4525 -1.3285 -0.550 -0.427 0.718 174 119 95 0 0
3.4402 9.4103 -1.3434 -0.345 -0.522 0.780 187 132 111 0 0
3.7068 9.1405 -1.4584 -0.046 -0.928 0.371 173 120 97 0 0
3.7254 9.1361 -1.4637 -0.112 -0.821 0.560 175 121 97 0 0
3.8338 9.1061 -1.4952 -0.438 -0.769 0.465 170 119 100 0 0
3.9013 9.1042 -1.5116 -0.195 -0.877 0.439 189 141 121 0 0
4.0067 9.0925 -1.5389 -0.160 -0.836 0.524 189 141 121 0 0
4.4074 9.3025 -1.5941 0.421 -0.765 -0.487 142 98 81 0 0
4.4691 9.3392 -1.6017 0.404 -0.787 -0.467 131 88 71 0 0
4.5360 9.3809 -1.6097 0.483 -0.753 -0.447 133 90 74 0 0
4.6028 9.4221 -1.6177 0.457 -0.768 -0.449 127 84 68 0 0
4.6865 9.4797 -1.6266 0.451 -0.775 -0.443 144 99 83 0 0
4.7712 9.5378 -1.6356 0.442 -0.778 -0.447 134 91 74 0 0
3.4056 8.1083 -1.5841 0.097 -0.994 -0.051 146 106 88 0 0
3.4269 8.1079 -1.5893 0.254 -0.925 -0.283 146 112 89 0 0
3.5064 8.1422 -1.6016 0.104 -0.982 -0.156 221 198 169 0 0
3.5028 8.1175 -1.6055 -0.432 -0.564 0.704 238 217 188 0 0
3.6775 7.8830 -1.6919 -0.773 -0.400 0.493 232 215 187 0 0
3.6816 7.8661 -1.6961 -0.733 -0.189 0.653 233 216 188 0 0
3.7502 7.7841 -1.7281 -0.337 -0.654 0.677 231 213 185 0 0
3.9475 7.6313 -1.8043 -0.523 -0.679 0.515 233 213 186 0 0
3.9937 7.5701 -1.8269 -0.141 -0.825 0.547 223 206 177 0 0
4.0102 7.5639 -1.8321 -0.141 -0.825 0.547 229 212 182 0 0
4.5290 7.0359 -2.0564 -0.199 -0.835 0.512 232 213 183 0 0
4.5453 7.0288 -2.0617 -0.199 -0.835 0.512 225 205 177 0 0
5.0483 6.3617 -2.3088 -0.538 -0.690 0.485 231 214 186 0 0
5.1191 6.2472 -2.3476 -0.297 -0.604 0.740 228 210 182 0 0
5.1075 6.2232 -2.3494 -0.390 -0.531 0.752 230 213 183 0 0
5.2511 6.2023 -2.3876 -0.798 0.193 0.571 228 208 181 0 0
5.2460 6.1821 -2.3902 -0.935 0.222 0.277 213 194 169 0 0
5.2335 6.1580 -2.3919 -0.885 0.436 0.166 215 203 183 0 0
8.2812 7.6721 -2.8272 0.271 -0.696 0.665 232 232 230 0 0
1.9465 11.4012 -0.6259 -0.060 -0.381 0.923 244 244 242 0 0
1.9534 11.3809 -0.6314 -0.075 -0.392 0.917 245 244 242 0 0
1.9815 11.2048 -0.6716 -0.460 -0.589 0.664 159 109 93 0 0
1.9891 11.1862 -0.6769 -0.456 -0.497 0.738 165 117 97 0 0
2.0142 10.9165 -0.7342 -0.620 -0.331 0.712 199 150 132 0 0
2.5053 10.3875 -0.9522 -0.424 -0.457 0.782 181 131 106 0 0
2.5628 10.3016 -0.9823 -0.878 -0.455 0.150 179 128 105 0 0
2.5735 10.2889 -0.9872 -0.753 -0.575 0.319 193 142 120 0 0
2.5857 10.2782 -0.9922 -0.673 -0.739 -0.004 187 135 115 0 0
2.6285 10.2834 -1.0014 -0.486 -0.499 0.717 202 155 136 0 0
2.6371 10.2677 -1.0065 -0.463 -0.497 0.733 168 121 104 0 0
2.6459 10.2521 -1.0115 -0.463 -0.497 0.733 194 145 129 0 0
2.7300 10.1482 -1.0514 -0.306 -0.529 0.792 178 127 106 0 0
2.8248 10.0862 -1.0859 -0.609 -0.539 0.582 189 133 113 0 0
2.8235 10.0572 -1.0911 -0.703 -0.344 0.623 184 128 109 0 0
2.8174 10.0219 -1.0963 -0.395 -0.710 0.582 177 123 104 0 0
2.8306 10.0125 -1.1012 -0.429 -0.566 0.704 166 112 93 0 0
3.1086 9.7357 -1.2203 -0.508 -0.493 0.707 185 138 123 0 0
3.9861 9.0787 -1.5550 -0.269 -0.715 0.645 184 134 113 0 0
4.0139 9.0831 -1.5608 -0.057 -0.877 0.478 150 100 79 0 0
4.3511 9.2783 -1.6043 0.433 -0.750 -0.500 123 81 63 0 0
4.4171 9.3197 -1.6122 0.431 -0.757 -0.491 133 90 74 0 0
4.4747 9.3523 -1.6198 0.416 -0.792 -0.447 135 92 76 0 0
4.5455 9.3979 -1.6281 0.483 -0.753 -0.447 126 83 67 0 0
4.6101 9.4369 -1.6361 0.482 -0.795 -0.368 129 85 69 0 0
4.6960 9.4967 -1.6453 0.473 -0.803 -0.363 146 101 85 0 0
4.7775 9.5517 -1.6543 0.464 -0.798 -0.385 123 80 63 0 0
3.3809 8.1120 -1.5942 -0.194 -0.916 0.351 132 90 73 0 0
3.3928 8.1023 -1.5988 0.160 -0.980 -0.117 139 101 82 0 0
3.4315 8.1188 -1.6049 0.206 -0.966 -0.157 198 171 146 0 0
3.4607 8.1258 -1.6106 -0.229 -0.616 0.754 231 207 179 0 0
3.4778 8.1211 -1.6156 -0.250 -0.708 0.661 228 206 177 0 0
3.4886 8.1102 -1.6202 -0.564 -0.416 0.713 226 206 177 0 0
3.4647 8.0032 -1.6349 -0.617 -0.520 0.590 237 219 192 0 0
3.6678 7.8804 -1.7068 -0.774 -0.408 0.484 232 216 187 0 0
3.9166 7.6112 -1.8174 -0.337 -0.847 0.411 230 210 183 0 0
4.3708 7.1719 -2.0095 -0.346 -0.652 0.674 231 215 187 0 0
4.4204 7.0947 -2.0360 -0.170 -0.640 0.749 229 210 182 0 0
4.4390 7.0894 -2.0415 -0.500 -0.508 0.701 229 209 182 0 0
4.4515 7.0609 -2.0499 -0.453 -0.456 0.766 230 212 184 0 0
4.6195 6.8814 -2.1242 -0.276 -0.641 0.716 228 209 180 0 0
4.6491 6.8464 -2.1379 -0.429 -0.545 0.720 229 209 180 0 0
4.6642 6.7652 -2.1570 -0.447 -0.742 0.500 229 210 182 0 0
4.8697 6.5392 -2.2491 -0.353 -0.759 0.548 227 210 182 0 0
4.8902 6.4988 -2.2617 -0.549 -0.614 0.567 228 210 183 0 0
4.9110 6.4940 -2.2675 -0.362 -0.687 0.630 232 211 186 0 0
4.9994 6.3724 -2.3118 -0.391 -0.627 0.674 230 213 184 0 0
4.9903 6.3494 -2.3140 -0.620 -0.386 0.683 228 211 183 0 0
5.1101 6.2469 -2.3621 -0.263 -0.667 0.697 228 210 183 0 0
5.1119 6.1792 -2.3754 -0.562 -0.273 0.780 230 210 184 0 0
5.2071 6.1650 -2.4009 -0.189 -0.551 0.813 228 208 180 0 0
5.2167 6.1534 -2.4054 -0.469 -0.325 0.821 217 201 176 0 0
2.0282 11.5906 -0.6281 -0.469 0.035 0.882 245 245 243 0 0
1.8770 11.1915 -0.6672 0.202 -0.979 -0.029 245 243 241 0 0
1.9600 11.2094 -0.6838 -0.626 -0.267 0.733 180 147 136 0 0
1.9606 11.1787 -0.6897 -0.725 -0.171 0.667 181 133 116 0 0
1.9701 11.1634 -0.6949 -0.647 -0.333 0.685 195 148 125 0 0
1.9896 10.9158 -0.7464 -0.689 -0.215 0.692 174 124 107 0 0
2.6037 10.2569 -1.0185 -0.247 -0.662 0.708 178 131 111 0 0
2.6163 10.2469 -1.0234 -0.247 -0.662 0.708 167 119 100 0 0
2.7153 10.1365 -1.0681 -0.214 -0.663 0.718 187 136 116 0 0
2.9623 9.8469 -1.1822 -0.143 -0.741 0.656 194 145 129 0 0
3.0913 9.7482 -1.2318 -0.313 -0.751 0.581 176 127 111 0 0
3.0894 9.7199 -1.2367 -0.618 -0.305 0.725 182 134 117 0 0
3.3822 9.4341 -1.3611 -0.495 -0.587 0.641 158 100 78 0 0
3.5561 9.2347 -1.4406 -0.251 -0.785 0.567 177 122 98 0 0
3.7122 9.1128 -1.5011 -0.277 -0.796 0.538 184 132 110 0 0
3.9658 9.0652 -1.5711 -0.452 -0.642 0.619 181 129 109 0 0
4.3353 9.2699 -1.6211 0.422 -0.726 -0.543 127 84 67 0 0
4.4203 9.3305 -1.6301 0.432 -0.765 -0.478 137 94 77 0 0
4.4907 9.3759 -1.6385 0.518 -0.814 -0.262 135 92 75 0 0
4.5592 9.4191 -1.6467 0.521 -0.840 -0.151 123 80 63 0 0
4.6231 9.4574 -1.6548 0.459 -0.770 -0.443 131 86 69 0 0
4.7084 9.5167 -1.6642 0.454 -0.769 -0.451 135 89 73 0 0
3.3600 8.1191 -1.6043 0.049 -0.931 0.363 148 106 89 0 0
3.3692 8.1069 -1.6089 -0.193 -0.883 0.428 134 94 76 0 0
3.3938 8.1098 -1.6142 0.270 -0.962 -0.047 190 160 137 0 0
3.4311 8.1248 -1.6204 -0.146 -0.657 0.739 233 209 180 0 0
3.4427 8.1148 -1.6250 -0.229 -0.616 0.754 224 200 172 0 0
3.4567 8.0019 -1.6497 -0.765 -0.322 0.557 232 215 187 0 0
3.4608 7.9849 -1.6539 -0.765 -0.322 0.557 236 219 192 0 0
3.4669 7.9490 -1.6622 -0.661 -0.316 0.681 230 213 185 0 0
3.6780 7.8136 -1.7385 -0.594 -0.482 0.644 232 214 189 0 0
3.6849 7.7993 -1.7429 -0.594 -0.482 0.644 232 215 187 0 0
4.2068 7.2636 -1.9695 -0.491 -0.574 0.655 235 217 189 0 0
4.2475 7.2373 -1.9843 -0.307 -0.830 0.466 234 214 187 0 0
4.4433 7.0228 -2.0719 -0.477 -0.472 0.741 231 214 186 0 0
4.6249 6.7804 -2.1613 -0.625 -0.766 -0.148 228 208 181 0 0
4.6441 6.7752 -2.1669 -0.468 -0.867 0.172 232 212 185 0 0
4.6578 6.7662 -2.1719 -0.557 -0.792 0.248 229 212 182 0 0
4.6700 6.7561 -2.1767 -0.557 -0.792 0.248 230 212 182 0 0
4.6821 6.7461 -2.1816 -0.557 -0.792 0.248 229 210 181 0 0
4.9602 6.3712 -2.3193 -0.481 -0.383 0.789 232 215 186 0 0
5.0436 6.2993 -2.3529 -0.504 -0.451 0.737 232 211 187 0 0
5.0695 6.2800 -2.3628 -0.136 -0.819 0.558 228 208 181 0 0
5.0783 6.2162 -2.3769 -0.433 -0.657 0.617 227 210 184 0 0
5.1655 6.1464 -2.4111 0.004 -0.723 0.691 225 208 180 0 0
5.1953 6.1461 -2.4183 -0.204 -0.600 0.774 223 206 179 0 0
1.9828 11.5201 -0.6491 -0.528 0.058 0.847 246 245 241 0 0
1.9669 11.4588 -0.6568 -0.454 0.023 0.891 247 243 242 0 0
1.9247 11.2220 -0.6911 0.005 -0.709 0.705 226 215 210 0 0
2.4319 10.3541 -0.9767 -0.181 -0.718 0.672 166 115 95 0 0
2.4584 10.3649 -0.9811 -0.557 -0.593 0.581 179 132 112 0 0
2.4700 10.3536 -0.9860 -0.363 -0.602 0.711 187 140 121 0 0
2.4826 10.3439 -0.9909 -0.575 -0.345 0.742 203 155 136 0 0
2.4823 10.3151 -0.9962 -0.740 -0.310 0.597 174 124 104 0 0
2.5888 10.2445 -1.0352 -0.247 -0.662 0.708 163 112 92 0 0
3.0129 9.7621 -1.2283 -0.465 -0.653 0.598 189 141 123 0 0
3.0238 9.7498 -1.2333 -0.465 -0.653 0.598 174 127 109 0 0
3.0347 9.7375 -1.2382 -0.465 -0.653 0.598 181 135 118 0 0
3.0456 9.7252 -1.2431 -0.465 -0.653 0.598 193 146 130 0 0
3.5252 9.2081 -1.4561 -0.036 -0.828 0.560 164 108 85 0 0
3.5414 9.2016 -1.4613 -0.366 -0.631 0.684 169 113 90 0 0
3.5529 9.1899 -1.4662 -0.428 -0.514 0.743 186 130 107 0 0
3.5694 9.1595 -1.4760 -0.856 -0.364 0.368 130 76 53 0 0
3.9390 9.0691 -1.5822 -0.272 -0.635 0.723 166 115 93 0 0
4.2706 9.2369 -1.6307 0.448 -0.756 -0.477 135 91 74 0 0
4.3532 9.2954 -1.6397 0.478 -0.798 -0.367 131 87 70 0 0
4.4216 9.3393 -1.6480 0.488 -0.836 -0.252 135 92 75 0 0
4.4775 9.3703 -1.6556 0.524 -0.843 -0.120 133 90 73 0 0
4.5467 9.4143 -1.6641 0.522 -0.844 -0.124 128 85 68 0 0
4.6172 9.4593 -1.6726 0.526 -0.824 -0.209 133 88 71 0 0
4.7177 9.5336 -1.6829 0.485 -0.780 -0.397 138 94 77 0 0
3.3484 8.1354 -1.6150 -0.195 -0.581 0.790 143 101 84 0 0
3.3469 8.1127 -1.6189 0.049 -0.931 0.363 146 106 88 0 0
3.3676 8.1118 -1.6241 0.049 -0.931 0.363 156 123 101 0 0
3.4108 8.1328 -1.6306 -0.149 -0.919 0.365 228 204 177 0 0
3.4167 8.1173 -1.6349 -0.267 -0.586 0.765 223 200 169 0 0
3.4340 8.0284 -1.6558 -0.485 -0.565 0.668 231 213 185 0 0
3.5390 7.9399 -1.6978 -0.635 -0.579 0.512 232 215 188 0 0
3.5491 7.9285 -1.7024 -0.714 -0.546 0.438 233 216 188 0 0
3.6728 7.7947 -1.7574 -0.573 -0.546 0.611 232 215 187 0 0
3.7301 7.7237 -1.7846 -0.364 -0.693 0.622 235 215 188 0 0
3.9096 7.5773 -1.8555 -0.221 -0.832 0.509 234 213 186 0 0
3.9404 7.5633 -1.8655 -0.404 -0.830 0.385 231 213 186 0 0
4.0186 7.4501 -1.9057 -0.440 -0.657 0.612 234 215 185 0 0
4.6233 6.7846 -2.1768 -0.625 -0.766 -0.148 232 212 185 0 0
4.6096 6.7571 -2.1786 -0.755 -0.538 0.375 230 212 184 0 0
4.6382 6.7583 -2.1853 -0.456 -0.574 0.680 226 209 181 0 0
4.8603 6.4727 -2.2926 -0.532 -0.638 0.557 229 210 183 0 0
4.8721 6.4448 -2.3007 -0.181 -0.843 0.507 229 212 184 0 0
5.0621 6.1775 -2.3969 -0.276 -0.789 0.549 230 213 187 0 0
5.1720 6.1378 -2.4308 -0.204 -0.600 0.774 227 210 182 0 0
5.1839 6.1276 -2.4357 -0.204 -0.600 0.774 226 209 182 0 0
8.2691 7.6399 -2.8965 0.404 -0.827 0.390 232 232 230 0 0
1.9122 11.4371 -0.6661 -0.347 -0.123 0.930 245 245 242 0 0
1.9778 10.8238 -0.7966 -0.323 -0.554 0.767 198 151 135 0 0
2.4367 10.3703 -0.9928 -0.552 -0.429 0.715 179 130 111 0 0
2.4673 10.3303 -1.0076 -0.393 -0.480 0.784 188 139 122 0 0
2.4653 10.2993 -1.0130 -0.095 -0.785 0.612 179 128 109 0 0
2.4795 10.2918 -1.0178 -0.242 -0.633 0.736 170 117 97 0 0
2.6975 10.0746 -1.1113 -0.248 -0.674 0.696 195 143 122 0 0
2.9875 9.8167 -1.2299 -0.215 -0.769 0.603 191 140 120 0 0
3.1588 9.5895 -1.3139 -0.370 -0.851 0.372 188 135 117 0 0
3.1725 9.5806 -1.3189 -0.452 -0.806 0.382 192 137 118 0 0
3.2400 9.4840 -1.3533 -0.447 -0.478 0.756 192 135 115 0 0
3.5164 9.2059 -1.4724 -0.273 -0.774 0.572 174 118 95 0 0
3.5282 9.1945 -1.4774 -0.357 -0.526 0.772 172 115 93 0 0
4.2805 9.2544 -1.6488 0.448 -0.762 -0.469 133 89 73 0 0
4.3458 9.2954 -1.6569 0.463 -0.770 -0.439 136 92 75 0 0
4.4177 9.3429 -1.6655 0.464 -0.810 -0.360 134 91 74 0 0
4.4672 9.3676 -1.6729 0.522 -0.834 -0.179 135 92 75 0 0
4.5411 9.4163 -1.6817 0.502 -0.842 -0.197 126 83 66 0 0
4.6155 9.4652 -1.6907 0.533 -0.834 -0.146 131 86 70 0 0
3.3234 8.1172 -1.6289 0.055 -0.899 0.435 146 101 85 0 0
3.3439 8.1162 -1.6341 0.097 -0.917 0.387 142 104 85 0 0
3.3750 8.1254 -1.6399 -0.039 -0.814 0.580 211 182 158 0 0
3.3898 8.1187 -1.6448 -0.183 -0.697 0.693 228 206 179 0 0
3.3982 8.1057 -1.6493 -0.398 -0.517 0.758 220 198 166 0 0
3.4777 7.9302 -1.7013 -0.244 -0.622 0.744 231 214 187 0 0
3.6993 7.7430 -1.7901 -0.547 -0.566 0.617 234 214 187 0 0
3.7182 7.7193 -1.7991 -0.430 -0.734 0.526 232 212 185 0 0
3.7831 7.6350 -1.8306 -0.613 -0.558 0.560 233 213 186 0 0
3.8799 7.5384 -1.8722 -0.230 -0.933 0.275 230 210 183 0 0
3.9252 7.5169 -1.8872 -0.438 -0.661 0.609 228 211 183 0 0
3.9806 7.4642 -1.9105 -0.301 -0.737 0.605 234 217 189 0 0
4.4499 6.9640 -2.1178 -0.327 -0.815 0.479 231 212 182 0 0
4.4898 6.9181 -2.1361 -0.390 -0.717 0.578 227 208 181 0 0
4.4931 6.9020 -2.1399 -0.465 -0.696 0.547 228 211 183 0 0
4.8687 6.4303 -2.3192 -0.439 -0.791 0.426 229 210 182 0 0
4.8899 6.4083 -2.3285 -0.659 -0.691 0.295 230 210 184 0 0
4.8827 6.3864 -2.3308 -0.777 -0.111 0.619 230 210 184 0 0
4.8909 6.3566 -2.3384 -0.884 -0.144 0.445 230 213 185 0 0
4.8925 6.3402 -2.3418 -0.839 -0.108 0.533 229 212 184 0 0
4.8934 6.3234 -2.3452 -0.728 -0.343 0.594 228 211 184 0 0
4.9107 6.3165 -2.3506 -0.523 -0.833 0.177 231 213 189 0 0
4.9259 6.3084 -2.3559 -0.828 -0.464 0.314 232 215 189 0 0
4.9375 6.2981 -2.3606 -0.807 -0.551 0.211 233 216 190 0 0
5.0310 6.2328 -2.3955 -0.377 -0.756 0.535 229 212 186 0 0
5.0417 6.1876 -2.4065 -0.734 -0.559 0.386 229 212 186 0 0
5.0866 6.1283 -2.4285 -0.427 -0.486 0.762 226 209 181 0 0
5.1607 6.1193 -2.4482 -0.204 -0.600 0.774 226 209 180 0 0
5.2046 6.1270 -2.4574 -0.863 0.141 0.485 228 208 180 0 0
8.1731 7.5939 -2.9038 -0.882 0.005 -0.471 232 232 230 0 0
1.8665 10.9208 -0.7693 -0.395 -0.485 0.780 192 140 117 0 0
1.9880 10.7899 -0.8233 -0.478 -0.534 0.697 180 132 115 0 0
2.2097 10.5527 -0.9214 -0.556 -0.375 0.741 183 132 111 0 0
2.2390 10.5400 -0.9309 -0.498 -0.367 0.786 185 134 111 0 0
2.3517 10.3665 -0.9906 -0.286 -0.648 0.706 178 127 106 0 0
2.4520 10.3168 -1.0243 -0.321 -0.504 0.802 153 103 85 0 0
2.4613 10.3023 -1.0293 -0.400 -0.455 0.795 167 116 97 0 0
2.4665 10.2817 -1.0344 -0.410 -0.733 0.543 187 137 117 0 0
2.4846 10.2800 -1.0391 -0.063 -0.897 0.438 194 145 124 0 0
2.4905 10.2606 -1.0442 -0.567 -0.577 0.588 194 146 123 0 0
2.6816 10.0612 -1.1278 -0.273 -0.680 0.680 199 151 130 0 0
2.7826 9.9283 -1.1771 -0.506 -0.372 0.778 188 137 117 0 0
3.1278 9.5342 -1.3345 -0.374 -0.499 0.782 172 118 97 0 0
3.2249 9.4738 -1.3694 -0.552 -0.394 0.735 182 124 104 0 0
3.2296 9.4542 -1.3742 -0.110 -0.812 0.573 184 127 107 0 0
3.4083 9.2392 -1.4578 -0.244 -0.765 0.596 188 131 109 0 0
3.4508 9.2136 -1.4729 -0.182 -0.765 0.618 185 129 106 0 0
3.4674 9.1834 -1.4826 -0.357 -0.597 0.718 198 142 119 0 0
3.5032 9.1987 -1.4884 -0.273 -0.774 0.572 181 125 102 0 0
3.5221 9.1710 -1.4982 -0.385 -0.596 0.704 193 140 120 0 0
4.2261 9.2314 -1.6587 0.474 -0.787 -0.395 142 99 83 0 0
4.2862 9.2676 -1.6666 0.508 -0.825 -0.249 129 83 67 0 0
4.3484 9.3056 -1.6747 0.504 -0.825 -0.257 132 88 72 0 0
4.4140 9.3467 -1.6831 0.473 -0.826 -0.306 131 88 71 0 0
4.5237 9.4317 -1.6941 0.457 -0.805 -0.378 124 81 64 0 0
4.5918 9.4746 -1.7027 0.424 -0.805 -0.415 130 87 70 0 0
3.7128 7.7004 -1.8179 -0.458 -0.540 0.706 235 218 190 0 0
3.7219 7.6882 -1.8224 -0.412 -0.513 0.753 235 218 191 0 0
3.8190 7.5721 -1.8676 -0.311 -0.674 0.670 226 209 181 0 0
4.1491 7.2551 -2.0070 -0.733 -0.218 0.645 232 211 184 0 0
4.4261 6.9710 -2.1274 -0.413 -0.823 0.389 234 215 188 0 0
4.6403 6.6798 -2.2337 -0.579 -0.564 0.588 228 208 183 0 0
4.7183 6.5521 -2.2764 -0.122 -0.871 0.476 231 214 186 0 0
4.8353 6.4321 -2.3273 -0.553 -0.622 0.555 226 209 181 0 0
4.8430 6.4194 -2.3315 -0.602 -0.575 0.554 227 210 182 0 0
4.8713 6.4019 -2.3417 -0.533 -0.455 0.713 229 210 184 0 0
4.8882 6.3426 -2.3568 -0.905 -0.193 0.380 227 210 182 0 0
4.9041 6.3175 -2.3653 -0.523 -0.833 0.177 231 213 189 0 0
5.0150 6.2284 -2.4089 -0.336 -0.714 0.615 228 211 185 0 0
5.0281 6.1506 -2.4266 -0.587 -0.686 0.430 228 211 185 0 0
5.1761 6.1158 -2.4691 -0.717 -0.304 0.628 227 209 178 0 0
1.8507 10.9035 -0.7865 -0.376 -0.613 0.694 180 128 104 0 0
1.8691 10.8735 -0.7965 -0.469 -0.551 0.690 193 144 123 0 0
1.8902 10.8790 -0.8007 -0.550 -0.405 0.730 196 149 129 0 0
1.9005 10.8658 -0.8056 -0.365 -0.523 0.771 195 148 128 0 0
2.2298 10.5059 -0.9528 -0.544 -0.350 0.763 185 135 112 0 0
2.3641 10.3373 -1.0169 -0.567 -0.444 0.694 183 136 115 0 0
2.3725 10.3214 -1.0219 -0.166 -0.707 0.688 165 118 96 0 0
2.4551 10.2741 -1.0509 -0.237 -0.824 0.515 194 146 126 0 0
2.7585 9.9313 -1.1885 -0.365 -0.624 0.691 186 129 109 0 0
2.7763 9.9017 -1.1984 -0.501 -0.502 0.705 179 127 107 0 0
2.7848 9.8863 -1.2033 -0.501 -0.502 0.705 193 142 123 0 0
3.0497 9.6251 -1.3164 -0.299 -0.693 0.656 180 127 107 0 0
3.1036 9.5891 -1.3363 -0.286 -0.610 0.739 194 143 124 0 0
3.1054 9.5657 -1.3411 -0.307 -0.663 0.683 183 131 110 0 0
3.1175 9.5550 -1.3460 -0.246 -0.653 0.716 189 137 116 0 0
3.3935 9.2056 -1.4782 -0.411 -0.692 0.594 156 99 77 0 0
3.4399 9.1845 -1.4935 -0.241 -0.827 0.508 171 114 91 0 0
3.5332 9.0939 -1.5331 -0.379 -0.411 0.829 176 124 104 0 0
3.5507 9.0649 -1.5427 -0.353 -0.433 0.830 166 110 90 0 0
3.6162 9.0636 -1.5590 -0.281 -0.904 0.322 186 131 107 0 0
4.2286 9.2414 -1.6763 0.498 -0.815 -0.296 139 96 79 0 0
4.3038 9.2929 -1.6852 0.523 -0.831 -0.187 133 87 71 0 0
4.3815 9.3465 -1.6944 0.516 -0.855 -0.049 138 94 78 0 0
4.4130 9.3533 -1.7008 0.438 -0.793 -0.423 128 85 68 0 0
4.5901 9.4805 -1.7208 0.502 -0.834 -0.227 134 91 74 0 0
3.8406 7.5369 -1.8959 -0.315 -0.642 0.699 230 213 185 0 0
3.9440 7.4654 -1.9345 -0.565 -0.507 0.651 234 217 191 0 0
3.9513 7.4518 -1.9388 -0.565 -0.507 0.651 233 216 190 0 0
4.0642 7.3289 -1.9892 -0.668 -0.699 0.254 234 214 187 0 0
4.1602 7.1930 -2.0378 -0.639 -0.570 0.516 235 219 191 0 0
4.1718 7.1829 -2.0425 -0.505 -0.718 0.479 235 219 190 0 0
4.2300 7.1512 -2.0626 -0.479 -0.613 0.628 235 218 188 0 0
4.2389 7.1390 -2.0671 -0.391 -0.610 0.689 232 212 184 0 0
4.6193 6.6890 -2.2434 -0.715 -0.615 0.333 228 208 181 0 0
4.6196 6.6712 -2.2467 -0.626 -0.593 0.506 226 206 181 0 0
4.7613 6.5139 -2.3105 -0.486 -0.476 0.733 224 208 178 0 0
4.8217 6.4287 -2.3411 -0.228 -0.740 0.633 231 214 186 0 0
4.8456 6.3737 -2.3571 -0.464 -0.608 0.644 230 213 187 0 0
4.9804 6.2302 -2.4167 -0.218 -0.851 0.478 229 212 185 0 0
4.9946 6.2214 -2.4218 -0.275 -0.775 0.569 226 209 183 0 0
5.0116 6.2142 -2.4273 -0.336 -0.714 0.615 228 209 183 0 0
5.0649 6.0918 -2.4629 -0.383 -0.476 0.792 229 210 184 0 0
1.8549 10.8591 -0.8134 -0.315 -0.684 0.658 188 136 114 0 0
1.8751 10.8629 -0.8177 -0.568 -0.461 0.682 185 134 112 0 0
1.8836 10.8468 -0.8228 -0.378 -0.629 0.680 181 130 109 0 0
2.2159 10.4936 -0.9695 -0.591 -0.390 0.706 194 144 122 0 0
2.2289 10.4558 -0.9796 -0.420 -0.591 0.689 199 147 125 0 0
2.2392 10.4428 -0.9845 -0.420 -0.591 0.689 201 149 127 0 0
2.3329 10.3279 -1.0287 -0.080 -0.795 0.601 187 141 121 0 0
2.3434 10.3153 -1.0336 -0.633 -0.350 0.691 190 146 129 0 0
2.3574 10.3079 -1.0384 -0.288 -0.687 0.668 187 144 125 0 0
2.4084 10.2988 -1.0526 -0.378 -0.510 0.773 194 143 124 0 0
2.4177 10.2844 -1.0576 -0.378 -0.510 0.773 178 127 106 0 0
2.4353 10.2821 -1.0623 -0.699 -0.540 0.469 187 138 117 0 0
2.5896 10.0871 -1.1361 -0.551 -0.424 0.719 185 130 107 0 0
2.6050 10.0813 -1.1410 -0.210 -0.560 0.801 194 139 116 0 0
2.7291 9.9269 -1.1999 -0.257 -0.950 0.175 185 126 108 0 0
2.7498 9.9280 -1.2048 -0.524 -0.849 0.066 194 138 120 0 0
2.7545 9.9076 -1.2097 -0.758 -0.351 0.550 198 145 127 0 0
3.0179 9.6193 -1.3275 -0.205 -0.736 0.646 186 130 113 0 0
3.3042 9.2831 -1.4598 -0.221 -0.591 0.776 183 124 101 0 0
3.3430 9.2537 -1.4747 -0.722 -0.398 0.566 179 122 101 0 0
3.3548 9.2427 -1.4797 -0.735 -0.627 0.258 184 128 108 0 0
3.4238 9.1740 -1.5093 -0.107 -0.836 0.538 188 131 110 0 0
3.4406 9.1686 -1.5144 -0.107 -0.836 0.538 174 113 93 0 0
4.0792 9.1457 -1.6759 0.356 -0.892 -0.280 135 90 73 0 0
4.1569 9.2005 -1.6850 0.507 -0.824 -0.254 143 100 83 0 0
4.2257 9.2459 -1.6936 0.498 -0.815 -0.296 126 83 66 0 0
4.2973 9.2938 -1.7025 0.518 -0.820 -0.245 132 88 72 0 0
4.3728 9.3453 -1.7116 0.495 -0.855 -0.153 135 90 74 0 0
4.4173 9.3652 -1.7189 0.419 -0.787 -0.453 137 94 77 0 0
3.3815 8.2585 -1.6669 -0.601 0.358 0.715 141 98 82 0 0
3.3139 8.1060 -1.6782 0.151 -0.899 0.411 234 210 184 0 0
3.3368 8.1074 -1.6836 0.151 -0.899 0.411 229 207 178 0 0
4.0595 7.3309 -2.0042 -0.621 -0.748 0.234 234 215 188 0 0
4.0576 7.3101 -2.0075 -0.820 -0.275 0.503 231 214 187 0 0
4.1362 7.1801 -2.0508 -0.317 -0.834 0.452 231 214 185 0 0
4.1587 7.1784 -2.0566 -0.370 -0.640 0.673 233 216 188 0 0
4.1713 7.1691 -2.0615 -0.325 -0.605 0.727 233 216 188 0 0
4.3864 6.9534 -2.1540 -0.742 -0.441 0.505 233 213 187 0 0
4.9155 6.2653 -2.4107 -0.429 -0.649 0.628 233 213 186 0 0
4.9669 6.2271 -2.4304 -0.496 -0.726 0.476 229 209 182 0 0
4.9758 6.2152 -2.4347 -0.346 -0.818 0.460 230 210 183 0 0
1.7594 11.2362 -0.7387 -0.602 -0.153 0.784 246 245 243 0 0
1.7645 11.1490 -0.7559 -0.291 -0.643 0.708 172 138 129 0 0
1.8411 10.8453 -0.8303 -0.164 -0.723 0.671 173 119 98 0 0
2.5706 10.0692 -1.1525 -0.339 -0.468 0.816 183 131 108 0 0
2.6478 9.9592 -1.1917 -0.520 -0.381 0.764 183 135 117 0 0
2.6724 9.9389 -1.2015 -0.294 -0.644 0.706 152 101 80 0 0
2.6842 9.9282 -1.2064 -0.294 -0.644 0.706 181 128 106 0 0
2.7326 9.9132 -1.2211 -0.246 -0.632 0.735 187 135 116 0 0
2.7693 9.8558 -1.2406 -0.150 -0.895 0.420 197 150 131 0 0
2.7831 9.8475 -1.2455 -0.437 -0.762 0.478 194 146 128 0 0
2.9750 9.6250 -1.3337 -0.652 -0.448 0.612 188 139 124 0 0
3.0030 9.6088 -1.3436 -0.216 -0.699 0.681 189 135 117 0 0
3.0122 9.5946 -1.3484 -0.249 -0.540 0.804 195 140 120 0 0
3.0339 9.5703 -1.3582 -0.195 -0.579 0.791 156 105 87 0 0
3.0722 9.4902 -1.3823 -0.275 -0.587 0.761 159 97 77 0 0
3.2565 9.3096 -1.4609 -0.569 -0.303 0.764 182 127 102 0 0
3.2638 9.2934 -1.4657 -0.756 -0.274 0.594 203 152 125 0 0
3.2681 9.2737 -1.4703 -0.548 -0.490 0.678 180 125 99 0 0
3.2772 9.2596 -1.4752 -0.422 -0.516 0.745 173 117 93 0 0
3.3227 9.2382 -1.4903 -0.168 -0.789 0.590 186 133 111 0 0
3.3689 9.1929 -1.5100 -0.411 -0.692 0.594 198 149 128 0 0
3.4264 9.1602 -1.5302 -0.107 -0.836 0.538 194 136 116 0 0
4.0414 9.1386 -1.6864 0.394 -0.871 -0.294 113 68 49 0 0
4.0753 9.1491 -1.6929 0.415 -0.910 -0.018 137 93 76 0 0
4.1450 9.1958 -1.7017 0.521 -0.841 -0.145 142 99 82 0 0
4.2170 9.2445 -1.7106 0.503 -0.829 -0.246 140 97 80 0 0
4.2860 9.2898 -1.7194 0.511 -0.826 -0.237 142 99 82 0 0
4.3619 9.3419 -1.7287 0.495 -0.858 -0.137 128 85 68 0 0
3.2522 8.1362 -1.6740 -0.530 -0.462 0.711 135 92 75 0 0
3.7367 7.5791 -1.8956 -0.309 -0.633 0.710 226 207 181 0 0
3.8281 7.5381 -1.9257 -0.468 -0.416 0.780 233 216 190 0 0
4.0305 7.3136 -2.0168 -0.400 -0.620 0.675 229 212 184 0 0
4.0433 7.3045 -2.0216 -0.620 -0.343 0.705 233 216 189 0 0
4.1444 7.1731 -2.0706 -0.475 -0.599 0.644 231 214 185 0 0
4.2428 7.1152 -2.1055 -0.529 -0.788 0.316 234 217 191 0 0
4.2989 7.0069 -2.1392 -0.220 -0.788 0.575 231 214 185 0 0
4.9324 6.2631 -2.4317 -0.546 -0.640 0.541 230 213 186 0 0
4.9417 6.2514 -2.4361 -0.546 -0.640 0.541 231 212 186 0 0
4.9497 6.2390 -2.4404 -0.486 -0.644 0.590 231 211 186 0 0
4.9580 6.2268 -2.4447 -0.488 -0.715 0.500 229 209 183 0 0
1.7404 11.2121 -0.7564 -0.632 -0.176 0.755 245 243 241 0 0
1.7408 11.1487 -0.7680 -0.376 -0.657 0.653 184 156 149 0 0
1.7514 11.1357 -0.7730 -0.334 -0.674 0.659 159 112 98 0 0
1.9533 10.6806 -0.9058 -0.350 -0.604 0.716 189 139 116 0 0
2.5043 10.1211 -1.1443 -0.373 -0.585 0.720 186 136 116 0 0
2.6344 9.9493 -1.2079 -0.472 -0.489 0.734 178 132 116 0 0
2.6441 9.9357 -1.2128 -0.473 -0.552 0.687 208 160 142 0 0
2.7504 9.8655 -1.2519 -0.268 -0.891 0.365 208 162 146 0 0
2.8103 9.8124 -1.2765 -0.515 -0.539 0.667 193 143 126 0 0
2.8444 9.7258 -1.3007 -0.530 -0.471 0.705 190 139 121 0 0
2.8517 9.7091 -1.3055 -0.266 -0.658 0.705 206 158 140 0 0
2.8639 9.6989 -1.3104 -0.266 -0.658 0.705 193 145 128 0 0
3.4270 9.1199 -1.5555 -0.254 -0.625 0.738 197 145 124 0 0
3.4557 9.0793 -1.5700 -0.447 -0.523 0.726 208 158 137 0 0
3.4680 9.0688 -1.5750 -0.625 -0.426 0.654 191 139 117 0 0
3.4756 9.0532 -1.5797 -0.532 -0.452 0.716 193 141 120 0 0
4.0365 9.1410 -1.7033 0.450 -0.893 -0.008 136 92 73 0 0
4.1338 9.1918 -1.7183 0.532 -0.845 -0.048 135 92 75 0 0
4.2125 9.2475 -1.7278 0.544 -0.832 -0.111 131 88 71 0 0
4.2824 9.2938 -1.7368 0.541 -0.831 -0.129 143 100 83 0 0
4.3497 9.3371 -1.7457 0.502 -0.846 -0.182 124 81 64 0 0
3.2464 8.1369 -1.6889 -0.469 -0.667 0.580 136 95 77 0 0
3.5780 7.7057 -1.8496 -0.322 -0.684 0.655 222 205 178 0 0
3.7422 7.5501 -1.9187 -0.687 -0.673 0.274 232 215 187 0 0
3.7574 7.5432 -1.9237 -0.261 -0.929 0.263 232 215 187 0 0
4.1287 7.1666 -2.0843 -0.370 -0.640 0.673 232 215 186 0 0
4.2591 7.0204 -2.1433 -0.598 -0.800 0.049 233 216 188 0 0
4.3803 6.8311 -2.2078 -0.623 -0.573 0.533 229 211 183 0 0
4.9332 6.2171 -2.4567 -0.597 -0.465 0.654 229 209 184 0 0
4.9214 6.1591 -2.4643 -0.092 -0.865 0.494 231 212 185 0 0
4.9926 6.0820 -2.4960 -0.449 -0.776 0.443 228 208 181 0 0
5.0633 6.0045 -2.5276 -0.051 -0.723 0.689 225 205 177 0 0
5.0888 6.0021 -2.5344 -0.486 -0.463 0.741 219 198 171 0 0
7.9834 7.4344 -2.9948 -0.632 -0.515 0.579 233 233 231 0 0
8.1178 7.4632 -3.0230 0.110 -0.328 0.938 234 234 232 0 0
1.7217 11.1245 -0.7855 -0.361 -0.537 0.763 168 123 115 0 0
1.7378 10.9017 -0.8297 -0.425 -0.365 0.828 206 155 133 0 0
1.7523 10.8651 -0.8399 -0.288 -0.647 0.706 190 139 117 0 0
1.7639 10.8546 -0.8447 -0.288 -0.647 0.706 192 141 120 0 0
1.7709 10.8359 -0.8499 -0.458 -0.550 0.698 196 145 124 0 0
1.8641 10.7214 -0.8938 -0.445 -0.511 0.736 159 111 93 0 0
1.8731 10.7065 -0.8987 -0.445 -0.511 0.736 182 135 116 0 0
1.9394 10.6673 -0.9224 -0.457 -0.500 0.736 191 142 122 0 0
2.1944 10.4301 -1.0289 -0.387 -0.663 0.641 190 142 122 0 0
2.4917 10.0844 -1.1655 -0.827 -0.327 0.458 185 134 113 0 0
2.5652 9.9971 -1.1997 -0.318 -0.541 0.778 195 145 125 0 0
2.5757 9.9847 -1.2045 -0.399 -0.606 0.688 214 166 147 0 0
2.7395 9.8593 -1.2681 -0.425 -0.880 0.212 191 144 128 0 0
2.7698 9.8201 -1.2827 -0.511 -0.667 0.542 176 130 114 0 0
2.8000 9.8072 -1.2926 -0.398 -0.840 0.369 196 147 130 0 0
2.8349 9.6956 -1.3215 -0.465 -0.618 0.634 186 134 116 0 0
2.8456 9.6834 -1.3263 -0.442 -0.625 0.644 190 140 121 0 0
2.8715 9.6648 -1.3361 -0.439 -0.450 0.778 174 121 101 0 0
3.0652 9.4469 -1.4239 -0.387 -0.497 0.777 193 136 114 0 0
3.1498 9.3733 -1.4583 -0.404 -0.588 0.701 181 128 108 0 0
3.5665 9.0156 -1.6269 -0.288 -0.696 0.658 154 102 80 0 0
3.9740 9.1083 -1.7121 0.419 -0.891 0.176 131 86 67 0 0
4.0226 9.1341 -1.7196 0.450 -0.893 -0.008 140 95 76 0 0
4.1184 9.1836 -1.7346 0.520 -0.847 -0.111 134 91 74 0 0
4.1976 9.2398 -1.7443 0.541 -0.831 -0.129 128 85 68 0 0
4.2688 9.2876 -1.7535 0.541 -0.831 -0.129 139 96 79 0 0
4.3404 9.3353 -1.7628 0.502 -0.846 -0.182 130 86 69 0 0
3.2336 8.1306 -1.7033 -0.373 -0.697 0.613 141 100 82 0 0
3.4420 7.7904 -1.8167 -0.544 -0.468 0.697 231 213 185 0 0
3.4536 7.7808 -1.8213 -0.505 -0.551 0.665 230 213 185 0 0
3.5831 7.6760 -1.8726 -0.330 -0.648 0.686 227 210 182 0 0
3.6963 7.5759 -1.9189 -0.164 -0.783 0.601 233 216 188 0 0
3.7265 7.5623 -1.9289 -0.575 -0.618 0.536 230 213 185 0 0
3.7359 7.5506 -1.9334 -0.687 -0.673 0.274 230 213 185 0 0
3.7485 7.5416 -1.9382 -0.261 -0.929 0.263 230 213 185 0 0
3.7816 7.5303 -1.9485 -0.549 -0.757 -0.354 231 214 186 0 0
3.7946 7.5216 -1.9533 -0.688 -0.550 0.474 231 214 188 0 0
3.8194 7.5228 -1.9593 -0.902 -0.352 -0.251 228 211 184 0 0
3.9082 7.3233 -2.0175 -0.389 -0.630 0.672 234 217 189 0 0
4.0359 7.1953 -2.0725 -0.197 -0.804 0.561 230 211 182 0 0
4.0439 7.1825 -2.0768 -0.166 -0.825 0.540 230 213 185 0 0
4.0622 7.1778 -2.0822 -0.253 -0.744 0.619 229 212 184 0 0
4.0738 7.1678 -2.0869 -0.277 -0.840 0.467 233 217 188 0 0
4.1544 7.0786 -2.1231 -0.598 -0.661 0.453 229 212 184 0 0
4.1683 7.0144 -2.1382 -0.781 -0.612 0.120 227 210 180 0 0
4.2373 7.0098 -2.1563 -0.499 -0.798 0.337 229 212 184 0 0
4.2495 7.0002 -2.1610 -0.499 -0.798 0.337 227 210 182 0 0
4.2626 6.9912 -2.1659 -0.412 -0.642 0.646 230 213 186 0 0
4.3478 6.8867 -2.2061 -0.254 -0.717 0.650 231 214 186 0 0
4.3652 6.8259 -2.2214 -0.399 -0.577 0.713 230 213 185 0 0
4.3785 6.8170 -2.2263 -0.402 -0.553 0.730 233 216 188 0 0
4.3980 6.8124 -2.2320 -0.172 -0.816 0.552 232 215 187 0 0
4.5636 6.5836 -2.3147 -0.357 -0.504 0.787 230 213 185 0 0
4.6702 6.4588 -2.3638 -0.745 -0.365 0.558 230 213 187 0 0
4.6852 6.4508 -2.3690 -0.528 -0.492 0.692 231 214 188 0 0
4.6968 6.4232 -2.3769 -0.595 -0.441 0.672 231 214 186 0 0
4.6967 6.4057 -2.3800 -0.674 -0.562 0.480 230 213 185 0 0
4.7062 6.3943 -2.3844 -0.647 -0.303 0.699 229 212 185 0 0
4.7388 6.3280 -2.4045 -0.462 -0.830 0.312 230 214 185 0 0
4.9452 6.1102 -2.4954 -0.574 -0.326 0.751 230 213 185 0 0
5.0756 5.9995 -2.5480 -0.420 -0.420 0.804 225 205 175 0 0
1.6641 11.1905 -0.7771 -0.437 -0.853 0.286 245 244 242 0 0
1.7367 10.8479 -0.8568 -0.620 -0.264 0.739 190 141 118 0 0
1.8687 10.6786 -0.9202 -0.397 -0.686 0.609 192 145 125 0 0
1.8801 10.6678 -0.9250 -0.397 -0.686 0.609 192 144 124 0 0
1.9169 10.6694 -0.9340 -0.338 -0.579 0.742 174 127 110 0 0
1.9334 10.6369 -0.9440 -0.574 -0.432 0.695 193 146 129 0 0
2.0288 10.5560 -0.9824 -0.855 0.020 0.519 200 156 136 0 0
2.1684 10.3418 -1.0559 -0.248 -0.726 0.641 199 153 134 0 0
2.5241 10.0296 -1.2012 -0.485 -0.597 0.639 190 141 122 0 0
2.5490 10.0101 -1.2109 -0.550 -0.397 0.735 192 142 123 0 0
2.5556 9.9923 -1.2158 -0.602 -0.416 0.682 199 149 131 0 0
2.8164 9.6798 -1.3373 -0.353 -0.724 0.592 167 114 94 0 0
2.8261 9.6665 -1.3421 -0.442 -0.569 0.693 162 110 89 0 0
2.8467 9.6670 -1.3472 -0.540 -0.463 0.703 185 135 114 0 0
2.8543 9.6509 -1.3520 -0.540 -0.463 0.703 195 145 123 0 0
2.8634 9.6367 -1.3568 -0.526 -0.494 0.692 183 130 109 0 0
2.8729 9.6231 -1.3617 -0.542 -0.534 0.649 164 111 89 0 0
3.0199 9.4751 -1.4251 -0.637 -0.630 0.445 181 124 103 0 0
3.0266 9.4582 -1.4298 -0.516 -0.593 0.618 183 127 104 0 0
3.0368 9.4453 -1.4347 -0.502 -0.627 0.596 183 128 105 0 0
3.0661 9.4057 -1.4492 -0.354 -0.557 0.751 216 160 140 0 0
3.4367 9.0493 -1.6061 -0.360 -0.627 0.691 186 131 110 0 0
3.4538 9.0441 -1.6113 -0.229 -0.740 0.632 181 126 105 0 0
3.4678 9.0355 -1.6164 -0.229 -0.740 0.632 189 136 114 0 0
3.5381 9.0162 -1.6375 -0.217 -0.958 0.189 165 113 92 0 0
3.5538 9.0093 -1.6427 -0.345 -0.918 0.197 151 99 78 0 0
4.1454 9.2186 -1.7538 0.531 -0.813 -0.239 131 88 71 0 0
4.1896 9.2391 -1.7612 0.540 -0.828 -0.152 135 92 75 0 0
4.3004 9.3271 -1.7733 0.452 -0.800 -0.395 142 98 82 0 0
4.3669 9.3697 -1.7824 0.427 -0.787 -0.446 126 81 64 0 0
3.2035 8.1493 -1.7088 -0.407 -0.672 0.619 135 90 74 0 0
3.2168 8.1415 -1.7135 -0.227 -0.750 0.621 145 102 85 0 0
3.2301 8.1335 -1.7183 -0.227 -0.750 0.621 137 95 75 0 0
3.2863 7.8957 -1.7751 -0.569 -0.373 0.733 232 215 188 0 0
3.2919 7.8804 -1.7792 -0.569 -0.668 0.480 230 213 186 0 0
3.4369 7.7918 -1.8315 -0.512 -0.480 0.712 231 211 184 0 0
3.4220 7.7578 -1.8338 -0.317 -0.728 0.608 229 211 183 0 0
3.4747 7.7455 -1.8493 -0.825 -0.099 0.557 230 213 186 0 0
3.5623 7.6836 -1.8824 -0.465 -0.637 0.615 231 214 186 0 0
3.8733 7.3199 -2.0257 -0.224 -0.736 0.639 233 213 186 0 0
3.8887 7.3131 -2.0308 -0.498 -0.590 0.635 234 213 186 0 0
4.0165 7.2048 -2.0823 -0.729 -0.599 0.331 227 209 180 0 0
4.2256 7.0066 -2.1703 -0.233 -0.659 0.715 228 211 183 0 0
4.3597 6.8091 -2.2394 -0.549 -0.393 0.738 229 212 184 0 0
4.3984 6.7998 -2.2508 -0.206 -0.821 0.533 232 215 187 0 0
4.4475 6.6714 -2.2861 -0.102 -0.876 0.472 229 212 184 0 0
4.5351 6.5876 -2.3232 -0.253 -0.616 0.746 231 214 186 0 0
4.6611 6.4580 -2.3780 -0.813 -0.314 0.490 230 213 187 0 0
4.6824 6.4191 -2.3903 -0.536 -0.449 0.715 230 213 185 0 0
4.6968 6.3761 -2.4017 -0.821 -0.198 0.535 234 217 191 0 0
4.9015 6.1403 -2.4954 -0.247 -0.838 0.487 232 215 187 0 0
5.0095 5.9675 -2.5535 0.078 -0.805 0.588 226 208 178 0 0
1.6420 11.1928 -0.7890 -0.810 -0.587 -0.010 245 244 241 0 0
1.7229 10.8337 -0.8734 -0.620 -0.264 0.739 191 144 124 0 0
1.9218 10.6273 -0.9604 -0.689 -0.449 0.569 197 150 132 0 0
1.9308 10.6125 -0.9653 -0.472 -0.566 0.676 190 143 125 0 0
2.0226 10.5260 -1.0039 -0.726 -0.134 0.674 188 142 120 0 0
2.0833 10.4480 -1.0331 -0.499 -0.463 0.733 183 130 108 0 0
2.0974 10.4413 -1.0378 -0.368 -0.583 0.724 186 132 110 0 0
2.5025 10.0350 -1.2124 -0.485 -0.597 0.639 184 135 115 0 0
2.5164 10.0273 -1.2173 -0.475 -0.702 0.531 196 146 127 0 0
2.5195 10.0046 -1.2222 -0.490 -0.674 0.553 209 158 141 0 0
2.5315 9.9942 -1.2270 -0.752 -0.353 0.557 193 143 126 0 0
2.5370 9.9749 -1.2319 -0.752 -0.353 0.557 177 130 112 0 0
2.5972 9.8968 -1.2610 -0.327 -0.551 0.768 189 142 124 0 0
2.7450 9.6990 -1.3335 -0.212 -0.796 0.567 186 136 116 0 0
2.8633 9.6188 -1.3776 -0.481 -0.519 0.707 172 119 98 0 0
3.0012 9.4854 -1.4362 -0.360 -0.529 0.769 177 124 103 0 0
3.0282 9.4176 -1.4551 -0.268 -0.653 0.708 193 140 120 0 0
3.4162 9.0341 -1.6214 -0.251 -0.655 0.713 196 141 120 0 0
3.6030 8.9978 -1.6750 -0.290 -0.858 0.425 167 114 91 0 0
3.8686 9.0621 -1.7306 0.363 -0.928 -0.076 133 89 70 0 0
4.1326 9.2129 -1.7704 0.540 -0.810 -0.228 134 91 72 0 0
4.2100 9.2674 -1.7802 0.551 -0.806 -0.216 131 87 69 0 0
4.2894 9.3235 -1.7902 0.518 -0.824 -0.229 135 89 73 0 0
4.3656 9.3759 -1.8001 0.476 -0.840 -0.262 132 85 70 0 0
3.2028 8.1339 -1.7278 -0.227 -0.750 0.621 138 94 75 0 0
3.2483 7.9065 -1.7798 -0.480 -0.672 0.564 231 214 188 0 0
3.2796 7.8749 -1.7933 -0.363 -0.650 0.668 229 212 184 0 0
3.2901 7.8644 -1.7978 -0.363 -0.650 0.668 231 214 186 0 0
3.3002 7.8535 -1.8023 -0.396 -0.796 0.458 232 215 187 0 0
3.3389 7.8288 -1.8165 -0.322 -0.624 0.711 232 214 186 0 0
3.3709 7.7977 -1.8301 -0.593 -0.747 0.301 230 213 185 0 0
3.3749 7.7811 -1.8341 -0.383 -0.780 0.495 233 215 187 0 0
3.3887 7.7736 -1.8389 -0.444 -0.783 0.435 232 214 186 0 0
3.4024 7.7660 -1.8437 -0.650 -0.750 0.121 233 215 187 0 0
3.4111 7.7538 -1.8481 -0.383 -0.754 0.534 233 215 187 0 0
3.4229 7.7445 -1.8527 -0.383 -0.754 0.534 232 215 188 0 0
3.5459 7.6549 -1.8997 -0.416 -0.578 0.702 231 214 185 0 0
3.8530 7.3091 -2.0388 -0.505 -0.644 0.575 233 215 187 0 0
3.8625 7.2977 -2.0433 -0.467 -0.688 0.555 230 212 184 0 0
3.8719 7.2861 -2.0477 -0.484 -0.641 0.596 232 212 185 0 0
3.8910 7.2824 -2.0532 -0.396 -0.659 0.640 233 214 187 0 0
3.9672 7.2286 -2.0820 -0.519 -0.301 0.800 234 216 187 0 0
3.9944 7.2120 -2.0918 -0.787 -0.335 0.519 234 214 185 0 0
4.0009 7.1981 -2.0959 -0.724 -0.415 0.551 232 212 183 0 0
4.2528 6.9210 -2.2089 -0.340 -0.763 0.549 227 209 181 0 0
4.3102 6.8706 -2.2323 -0.388 -0.707 0.591 232 213 186 0 0
4.3170 6.8572 -2.2364 -0.374 -0.913 0.161 231 213 185 0 0
4.4063 6.7023 -2.2866 -0.795 -0.273 0.542 227 207 181 0 0
4.6506 6.4564 -2.3920 -0.618 -0.393 0.681 230 212 185 0 0
4.6635 6.3949 -2.4062 -0.929 -0.332 -0.165 229 211 182 0 0
4.8689 6.0590 -2.5179 -0.711 -0.468 0.525 227 210 182 0 0
1.7091 11.3925 -0.7886 -0.500 -0.008 0.866 245 244 242 0 0
1.6467 11.1474 -0.8161 -0.268 -0.816 0.512 245 244 240 0 0
1.6663 10.9922 -0.8486 -0.599 -0.140 0.788 191 142 119 0 0
1.7069 10.8156 -0.8901 -0.506 -0.362 0.783 207 161 142 0 0
1.8391 10.6782 -0.9480 -0.538 -0.574 0.617 201 155 135 0 0
1.8449 10.6579 -0.9530 -0.422 -0.635 0.647 202 157 136 0 0
1.8531 10.6418 -0.9580 -0.588 -0.549 0.594 195 150 129 0 0
1.9139 10.5941 -0.9818 -0.501 -0.444 0.743 170 123 105 0 0
2.0386 10.4154 -1.0451 -0.463 -0.452 0.762 186 135 114 0 0
2.0722 10.4397 -1.0493 -0.587 -0.304 0.750 191 139 117 0 0
2.3342 10.1035 -1.1753 -0.830 -0.379 0.409 198 145 127 0 0
2.3840 10.0658 -1.1946 -0.619 -0.385 0.685 193 142 120 0 0
2.4989 10.0113 -1.2334 -0.528 -0.583 0.617 193 145 125 0 0
2.5081 9.9970 -1.2382 -0.454 -0.550 0.701 180 128 111 0 0
2.5219 9.9623 -1.2479 -0.623 -0.409 0.667 186 140 123 0 0
2.7215 9.7024 -1.3445 -0.412 -0.608 0.679 175 127 106 0 0
3.1798 9.2584 -1.5394 -0.226 -0.803 0.551 209 154 133 0 0
3.4980 8.9876 -1.6680 -0.085 -0.780 0.620 183 130 106 0 0
3.5093 8.9760 -1.6729 -0.091 -0.875 0.476 176 122 98 0 0
4.1254 9.2130 -1.7872 0.562 -0.816 -0.137 136 93 75 0 0
4.1984 9.2631 -1.7969 0.562 -0.809 -0.171 138 93 76 0 0
4.2772 9.3187 -1.8071 0.556 -0.815 -0.163 133 86 71 0 0
4.3596 9.3775 -1.8176 0.466 -0.836 -0.289 136 88 74 0 0
4.4170 9.4106 -1.8262 0.469 -0.876 -0.112 129 83 67 0 0
3.4119 7.7404 -1.8669 -0.883 -0.319 0.344 233 216 189 0 0
3.4302 7.7169 -1.8757 -0.467 -0.506 0.725 232 215 189 0 0
3.6267 7.5531 -1.9545 -0.276 -0.639 0.718 231 213 184 0 0
3.6743 7.4371 -1.9871 -0.228 -0.822 0.521 230 210 183 0 0
3.6934 7.4338 -1.9926 -0.322 -0.838 0.441 230 212 185 0 0
3.8121 7.3778 -2.0326 -0.272 -0.718 0.640 230 213 185 0 0
3.9713 7.2375 -2.0978 -0.888 -0.399 -0.229 231 212 183 0 0
3.9740 7.2206 -2.1015 -0.778 -0.482 -0.402 229 210 180 0 0
3.9884 7.2130 -2.1065 -0.960 -0.206 -0.188 229 210 180 0 0
3.9854 7.1916 -2.1095 -0.822 -0.528 0.211 232 212 182 0 0
3.9934 7.1789 -2.1138 -0.793 -0.573 0.206 232 212 182 0 0
4.1070 7.0594 -2.1637 -0.376 -0.583 0.720 234 215 190 0 0
4.1842 6.9870 -2.1962 -0.359 -0.685 0.634 227 210 182 0 0
4.3384 6.7505 -2.2771 -0.884 -0.294 0.365 232 215 187 0 0
4.3731 6.7206 -2.2912 -0.549 -0.681 0.485 230 210 183 0 0
4.3820 6.7088 -2.2956 -0.636 -0.619 0.460 228 208 181 0 0
4.3823 6.6911 -2.2988 -0.825 -0.057 0.562 230 210 183 0 0
4.4313 6.6887 -2.3116 -0.095 -0.965 0.245 228 210 182 0 0
4.4470 6.6815 -2.3169 -0.260 -0.820 0.509 230 213 185 0 0
4.5541 6.5221 -2.3723 -0.660 -0.589 0.467 226 207 180 0 0
4.6630 6.4170 -2.4185 -0.819 -0.573 0.027 225 205 178 0 0
4.6732 6.4060 -2.4230 -0.703 -0.590 -0.399 229 212 183 0 0
4.8440 6.0828 -2.5235 -0.950 -0.162 0.267 227 209 182 0 0
5.0202 5.9663 -2.5889 -0.041 -0.667 0.744 231 210 183 0 0
5.0680 5.9430 -2.6051 0.252 -0.815 0.522 214 204 188 0 0
5.1525 5.9561 -2.6242 0.231 -0.776 0.587 232 232 229 0 0
1.6586 11.3424 -0.8027 -0.311 -0.169 0.935 245 244 242 0 0
1.6489 11.2915 -0.8092 -0.723 -0.008 0.691 245 244 242 0 0
2.0212 10.3969 -1.0614 -0.437 -0.670 0.600 181 134 112 0 0
2.1826 10.2487 -1.1286 -0.617 -0.407 0.673 189 143 123 0 0
2.4849 10.0002 -1.2494 -0.476 -0.453 0.754 161 112 95 0 0
2.5252 9.8948 -1.2782 -0.589 -0.314 0.745 187 141 124 0 0
2.6104 9.8250 -1.3122 -0.663 -0.748 -0.011 167 118 101 0 0
2.6191 9.8103 -1.3170 -0.775 -0.598 0.204 187 139 121 0 0
2.6291 9.7974 -1.3218 -0.853 -0.501 0.148 189 141 121 0 0
2.6440 9.7911 -1.3267 -0.723 -0.599 0.345 192 143 123 0 0
2.8591 9.5271 -1.4280 -0.445 -0.579 0.684 169 118 99 0 0
2.9018 9.5045 -1.4428 -0.215 -0.825 0.523 194 141 124 0 0
2.9672 9.4341 -1.4719 -0.539 -0.459 0.706 180 126 105 0 0
3.2125 9.1573 -1.5831 -0.370 -0.591 0.717 197 146 124 0 0
3.4959 8.9689 -1.6885 -0.091 -0.875 0.476 164 112 88 0 0
3.8000 9.0294 -1.7553 0.373 -0.907 -0.194 125 78 60 0 0
4.1090 9.2037 -1.8034 0.564 -0.820 -0.096 131 88 71 0 0
4.1843 9.2561 -1.8134 0.567 -0.811 -0.142 134 89 73 0 0
4.2647 9.3134 -1.8238 0.556 -0.815 -0.163 130 83 68 0 0
4.3566 9.3820 -1.8352 0.471 -0.824 -0.315 136 89 74 0 0
3.1666 7.9429 -1.7850 -0.171 -0.809 0.562 233 213 186 0 0
3.4358 7.6879 -1.8985 -0.652 -0.461 0.603 235 218 192 0 0
3.4534 7.6638 -1.9072 -0.243 -0.778 0.579 232 213 184 0 0
3.4595 7.6493 -1.9113 -0.336 -0.623 0.707 231 211 184 0 0
3.6029 7.5580 -1.9639 -0.309 -0.736 0.603 226 209 180 0 0
3.6614 7.4319 -2.0010 -0.228 -0.822 0.521 230 210 183 0 0
3.6904 7.4177 -2.0109 -0.256 -0.831 0.494 222 205 177 0 0
3.9233 7.2623 -2.0976 -0.113 -0.943 0.313 235 218 190 0 0
3.9384 7.2552 -2.1027 -0.219 -0.933 0.285 233 214 186 0 0
3.9716 7.2625 -2.1099 -1.000 0.021 -0.010 231 211 184 0 0
3.9555 7.2306 -2.1114 -0.984 0.031 -0.177 236 217 188 0 0
3.9555 7.2116 -2.1147 -0.984 0.031 -0.177 234 215 185 0 0
3.9750 7.2080 -2.1203 -0.895 -0.395 0.206 229 210 180 0 0
3.9805 7.1934 -2.1243 -0.895 -0.395 0.206 227 207 177 0 0
3.9884 7.1806 -2.1286 -0.959 -0.248 0.137 230 211 179 0 0
4.1644 6.9592 -2.2123 -0.560 -0.404 0.724 231 214 186 0 0
4.3842 6.6976 -2.3144 -0.053 -0.913 0.403 230 211 184 0 0
4.4569 6.6220 -2.3462 -0.614 -0.400 0.681 227 210 183 0 0
4.4620 6.6076 -2.3500 -0.614 -0.400 0.681 230 213 187 0 0
4.4613 6.5718 -2.3562 -0.713 -0.652 0.256 229 212 184 0 0
4.5449 6.5212 -2.3864 -0.660 -0.589 0.467 229 210 183 0 0
4.5413 6.4488 -2.3982 -0.893 -0.023 0.450 231 211 184 0 0
4.5747 6.4355 -2.4091 -0.581 -0.506 0.638 232 215 187 0 0
4.6491 6.4132 -2.4319 -0.709 -0.703 -0.046 233 212 185 0 0
4.6599 6.4027 -2.4365 -0.709 -0.703 -0.046 227 210 183 0 0
4.6650 6.3024 -2.4555 -0.276 -0.622 0.733 231 211 184 0 0
4.7793 6.2012 -2.5024 -0.540 -0.492 0.682 227 210 182 0 0
4.8255 6.0936 -2.5331 -0.740 -0.523 0.423 232 212 185 0 0
4.8364 6.0832 -2.5377 -0.961 -0.233 0.145 231 211 184 0 0
4.8462 6.0722 -2.5422 -0.820 -0.563 0.105 232 212 185 0 0
4.8530 6.0594 -2.5461 -0.874 -0.467 0.137 233 213 186 0 0
5.0152 5.9517 -2.6064 -0.168 -0.613 0.772 226 205 177 0 0
5.0254 5.9242 -2.6138 0.252 -0.815 0.522 214 200 177 0 0
1.6359 11.3107 -0.8205 -0.598 -0.116 0.793 245 244 242 0 0
1.6383 11.2824 -0.8260 -0.653 -0.009 0.758 245 244 242 0 0
1.7300 10.6924 -0.9527 -0.344 -0.756 0.557 188 141 122 0 0
1.7370 10.6743 -0.9576 -0.596 -0.657 0.460 188 141 123 0 0
1.9337 10.4688 -1.0439 -0.290 -0.558 0.778 187 140 121 0 0
2.1709 10.2399 -1.1447 -0.617 -0.407 0.673 193 144 124 0 0
2.1848 10.2048 -1.1544 -0.461 -0.489 0.740 193 144 127 0 0
2.3078 10.0823 -1.2073 -0.339 -0.780 0.526 170 118 100 0 0
2.6096 9.8058 -1.3329 -0.627 -0.650 0.429 190 143 126 0 0
2.8561 9.5058 -1.4485 -0.221 -0.674 0.704 191 136 116 0 0
2.8737 9.5026 -1.4535 -0.208 -0.777 0.594 198 143 123 0 0
2.8880 9.4952 -1.4585 -0.217 -0.790 0.573 193 138 120 0 0
2.9930 9.3731 -1.5067 -0.359 -0.817 0.451 184 128 107 0 0
3.0066 9.3647 -1.5117 -0.327 -0.813 0.481 180 123 102 0 0
3.0289 9.3170 -1.5257 -0.407 -0.501 0.764 180 123 103 0 0
3.1249 9.1850 -1.5734 -0.354 -0.613 0.706 179 125 101 0 0
3.1410 9.1794 -1.5785 -0.226 -0.690 0.687 179 124 101 0 0
3.1694 9.1637 -1.5885 -0.304 -0.848 0.434 193 136 116 0 0
3.1835 9.1557 -1.5935 -0.318 -0.871 0.375 202 147 126 0 0
3.2070 9.1342 -1.6033 -0.412 -0.657 0.631 186 131 111 0 0
3.2172 9.1217 -1.6081 -0.263 -0.843 0.469 189 133 112 0 0
3.2313 9.1137 -1.6131 -0.243 -0.779 0.579 195 140 119 0 0
3.2357 9.0945 -1.6176 -0.280 -0.739 0.613 227 182 159 0 0
3.2796 9.0720 -1.6327 -0.297 -0.652 0.698 177 127 105 0 0
3.3248 9.0029 -1.6564 -0.406 -0.835 0.372 178 128 105 0 0
3.3372 8.9929 -1.6613 -0.356 -0.822 0.445 178 128 106 0 0
3.4869 8.9664 -1.7043 -0.037 -0.997 0.067 160 108 84 0 0
3.9526 9.0989 -1.8004 0.210 -0.978 -0.001 131 85 65 0 0
4.0961 9.1980 -1.8198 0.568 -0.819 -0.087 144 101 84 0 0
4.1699 9.2490 -1.8298 0.567 -0.811 -0.142 133 91 75 0 0
4.2538 9.3099 -1.8406 0.568 -0.808 -0.154 136 91 76 0 0
4.3548 9.3878 -1.8529 0.481 -0.827 -0.291 136 92 75 0 0
3.3793 7.6823 -1.9012 -0.284 -0.724 0.629 232 215 188 0 0
3.4424 7.6399 -1.9248 -0.552 -0.477 0.684 233 214 186 0 0
3.6327 7.4328 -2.0097 -0.036 -0.849 0.528 230 211 182 0 0
3.6485 7.4268 -2.0148 -0.228 -0.822 0.521 234 214 187 0 0
3.9366 7.2213 -2.1245 -0.359 -0.633 0.685 233 214 185 0 0
3.9672 7.1885 -2.1381 -0.555 -0.585 0.591 232 212 183 0 0
4.1345 6.9611 -2.2207 -0.552 -0.620 0.558 232 215 187 0 0
4.1467 6.9516 -2.2255 -0.557 -0.636 0.534 234 217 190 0 0
4.3274 6.7714 -2.3032 -0.096 -0.806 0.584 230 213 186 0 0
4.3521 6.6986 -2.3223 -0.128 -0.871 0.475 231 214 186 0 0
4.4098 6.6845 -2.3395 -0.023 -0.984 0.175 232 212 185 0 0
4.4196 6.6733 -2.3440 -0.260 -0.820 0.509 231 211 184 0 0
4.4443 6.6010 -2.3630 -0.295 -0.641 0.708 232 215 189 0 0
4.4888 6.5247 -2.3877 -0.217 -0.739 0.638 230 212 184 0 0
4.5272 6.4796 -2.4054 -0.702 -0.354 0.618 233 213 186 0 0
4.6344 6.4089 -2.4452 -0.749 -0.652 0.119 228 208 181 0 0
4.7596 6.2113 -2.5118 -0.653 -0.411 0.636 227 210 182 0 0
4.8429 6.0751 -2.5570 -0.874 -0.467 0.137 231 211 184 0 0
4.8493 6.0620 -2.5609 -0.874 -0.467 0.137 229 209 182 0 0
5.0635 5.9169 -2.6411 0.231 -0.776 0.587 233 227 217 0 0
1.4823 11.0666 -0.8414 -0.165 -0.671 -0.723 245 244 242 0 0
1.6866 10.6876 -0.9598 -0.219 -0.848 0.482 185 138 118 0 0
1.7039 10.6873 -0.9643 -0.149 -0.953 0.263 184 137 118 0 0
1.7162 10.6784 -0.9690 -0.386 -0.826 0.410 182 137 118 0 0
1.7259 10.6649 -0.9738 -0.477 -0.756 0.447 188 143 125 0 0
1.8916 10.5267 -1.0405 -0.593 -0.314 0.742 193 144 123 0 0
1.8966 10.5055 -1.0454 -0.593 -0.314 0.742 196 146 124 0 0
2.0998 10.2528 -1.1416 -0.343 -0.701 0.625 187 138 120 0 0
2.2417 10.1318 -1.1992 -0.197 -0.632 0.750 169 119 102 0 0
2.2727 10.0947 -1.2136 -0.357 -0.701 0.618 166 116 95 0 0
2.6801 9.6464 -1.3963 -0.237 -0.549 0.802 204 157 140 0 0
2.7650 9.5508 -1.4347 -0.436 -0.630 0.642 192 138 117 0 0
2.7761 9.5395 -1.4395 -0.277 -0.764 0.583 174 122 101 0 0
2.9331 9.4077 -1.5028 -0.282 -0.481 0.830 174 116 97 0 0
2.9424 9.3941 -1.5076 -0.282 -0.481 0.830 166 108 88 0 0
3.1685 9.1459 -1.6089 -0.368 -0.894 0.256 153 98 77 0 0
3.2329 9.0748 -1.6378 -0.511 -0.501 0.699 170 117 95 0 0
3.2919 9.0214 -1.6623 -0.457 -0.706 0.541 190 138 117 0 0
3.3017 9.0084 -1.6670 -0.640 -0.620 0.454 192 140 118 0 0
3.3132 8.9974 -1.6719 -0.478 -0.749 0.459 179 128 106 0 0
3.3204 8.9816 -1.6765 -0.392 -0.762 0.516 185 134 113 0 0
3.3359 8.9750 -1.6816 -0.294 -0.875 0.385 193 143 123 0 0
3.3470 8.9635 -1.6865 -0.657 -0.671 0.343 184 136 114 0 0
3.4156 8.9676 -1.7034 -0.118 -0.993 0.011 153 102 79 0 0
3.4363 8.9664 -1.7090 -0.157 -0.960 0.231 178 127 104 0 0
3.4567 8.9648 -1.7145 -0.238 -0.971 0.015 138 86 62 0 0
3.5066 8.9476 -1.7303 -0.220 -0.934 0.282 175 124 101 0 0
3.5200 8.9383 -1.7354 -0.392 -0.859 0.329 147 97 75 0 0
3.7845 9.0278 -1.7879 0.360 -0.891 -0.275 118 72 56 0 0
3.9124 9.0889 -1.8102 0.238 -0.892 -0.384 115 70 50 0 0
4.0878 9.1969 -1.8366 0.550 -0.811 -0.201 136 94 78 0 0
4.1609 9.2473 -1.8466 0.556 -0.807 -0.199 134 92 76 0 0
4.2512 9.3148 -1.8581 0.561 -0.797 -0.223 146 103 86 0 0
4.3537 9.3943 -1.8707 0.471 -0.809 -0.352 142 99 81 0 0
3.1854 7.8706 -1.8348 -0.248 -0.895 0.370 232 215 189 0 0
3.1913 7.8558 -1.8388 -0.374 -0.745 0.553 233 216 190 0 0
3.2050 7.8485 -1.8436 -0.575 -0.568 0.590 234 217 190 0 0
3.2164 7.8390 -1.8482 -0.641 -0.493 0.588 230 213 185 0 0
3.2248 7.8267 -1.8525 -0.413 -0.575 0.706 232 214 187 0 0
3.2663 7.7848 -1.8705 -0.405 -0.612 0.679 229 212 184 0 0
3.3566 7.6875 -1.9106 -0.460 -0.480 0.747 228 209 182 0 0
3.4035 7.6905 -1.9222 -0.641 -0.476 0.603 232 213 186 0 0
3.4407 7.6243 -1.9432 -0.783 -0.340 0.520 230 210 183 0 0
3.4913 7.5705 -1.9656 -0.557 -0.549 0.623 224 207 179 0 0
3.6243 7.4314 -2.0240 -0.164 -0.859 0.484 228 208 181 0 0
3.6407 7.4259 -2.0291 -0.316 -0.744 0.589 233 213 186 0 0
3.6512 7.4155 -2.0337 -0.301 -0.887 0.351 229 211 183 0 0
3.6787 7.4000 -2.0434 -0.275 -0.808 0.521 230 213 185 0 0
3.8568 7.2394 -2.1172 0.008 -0.820 0.572 232 215 188 0 0
4.1110 6.9307 -2.2362 -0.561 -0.455 0.692 234 217 191 0 0
4.4070 6.6165 -2.3669 -0.397 -0.604 0.691 230 212 187 0 0
4.4142 6.6036 -2.3710 -0.552 -0.310 0.774 232 215 189 0 0
4.4729 6.5193 -2.4008 -0.450 -0.713 0.538 232 212 185 0 0
4.6200 6.4049 -2.4585 -0.253 -0.935 0.248 231 211 184 0 0
4.6005 6.3235 -2.4676 -0.345 -0.876 0.338 229 211 184 0 0
4.6228 6.3032 -2.4769 -0.584 -0.515 0.627 232 213 186 0 0
4.6290 6.2900 -2.4808 -0.569 -0.561 0.602 229 210 183 0 0
4.6552 6.2720 -2.4907 -0.427 -0.549 0.719 229 212 186 0 0
4.7190 6.2087 -2.5180 -0.510 -0.399 0.762 226 209 182 0 0
4.8463 6.0152 -2.5844 -0.156 -0.765 0.625 229 211 184 0 0
1.6003 10.7899 -0.9372 -0.318 -0.529 0.787 194 147 132 0 0
