ply
format ascii 1.0
element vertex 813
property float x
property float y
property float z
property float nx
property float ny
property float nz
property uchar diffuse_red
property uchar diffuse_green
property uchar diffuse_blue
property uchar class
property uchar detection
end_header
1.5242 8.7858 -2.6073 -0.761 -0.638 -0.118 180 127 109 0 0
3.5517 9.6288 -3.2361 0.479 -0.764 -0.432 195 186 177 0 0
3.5022 9.5388 -3.2238 -0.271 -0.769 -0.579 195 186 177 0 0
3.4436 9.2778 -3.2160 -0.995 -0.091 -0.028 200 191 180 0 0
2.5928 7.2195 -3.0269 -0.982 -0.165 0.090 210 187 155 0 0
2.5951 7.2022 -3.0284 -0.977 -0.077 -0.198 208 185 153 0 0
2.7352 6.4640 -3.1068 -0.893 -0.406 -0.192 199 174 140 0 0
3.1464 5.9868 -3.2627 -0.343 -0.886 -0.313 193 172 141 0 0
3.1776 5.9789 -3.2733 -0.717 -0.577 -0.391 192 173 141 0 0
3.2352 5.9752 -3.2924 -0.456 -0.775 -0.438 189 169 140 0 0
3.2425 5.9647 -3.2952 -0.573 -0.602 -0.556 191 170 141 0 0
3.3427 5.9445 -3.3290 -0.705 -0.465 -0.535 185 165 135 0 0
3.3564 5.9387 -3.3338 -0.462 -0.651 -0.602 185 166 134 0 0
0.7365 10.6974 -2.2814 -0.671 -0.615 -0.415 190 137 118 0 0
1.0287 10.0368 -2.4059 -0.901 -0.303 -0.311 187 137 118 0 0
1.0496 9.9830 -2.4150 -0.833 -0.381 -0.400 177 127 109 0 0
1.0685 9.9575 -2.4224 -0.887 -0.446 0.121 180 128 107 0 0
1.0745 9.9378 -2.4252 -0.951 -0.268 -0.153 174 123 103 0 0
3.5263 9.6316 -3.2462 0.433 -0.727 -0.533 197 187 178 0 0
3.5087 9.5543 -3.2437 -0.376 -0.758 -0.533 196 187 178 0 0
3.7618 9.5678 -3.3266 0.494 -0.765 -0.413 203 195 188 0 0
3.5108 9.1312 -3.2625 -0.018 -0.733 0.680 206 200 193 0 0
2.6662 7.6763 -3.0462 -0.976 0.059 -0.209 205 177 138 0 0
2.5974 7.1703 -3.0452 -0.976 -0.149 -0.158 215 192 160 0 0
2.6389 6.8478 -3.0726 -0.749 -0.422 -0.510 206 181 148 0 0
3.0278 6.1089 -3.2323 -0.610 -0.618 -0.496 198 177 146 0 0
3.3117 5.9574 -3.3323 -0.416 -0.646 -0.640 188 167 136 0 0
3.3248 5.9512 -3.3369 -0.424 -0.779 -0.462 184 163 134 0 0
0.6691 11.4667 -2.2437 -0.985 0.173 -0.031 239 238 234 0 0
1.2957 9.4280 -2.5356 -0.717 -0.574 -0.395 175 124 107 0 0
1.6048 8.6952 -2.6682 -0.871 -0.489 -0.043 172 123 106 0 0
1.8609 8.4301 -2.7639 -0.252 -0.840 -0.480 146 99 83 0 0
1.8766 8.4284 -2.7692 -0.203 -0.907 -0.369 134 87 70 0 0
3.5409 9.6575 -3.2685 0.339 -0.670 -0.660 197 187 178 0 0
3.3765 9.4217 -3.2239 -0.619 -0.691 0.374 197 188 179 0 0
3.3447 9.2222 -3.2217 -0.998 -0.061 -0.025 198 189 179 0 0
3.4420 9.2901 -3.2511 -0.610 -0.786 0.099 201 192 183 0 0
2.6681 7.6841 -3.0618 -0.995 0.041 -0.092 207 180 144 0 0
2.6042 7.1629 -3.0623 -0.951 -0.196 -0.240 212 188 156 0 0
2.6102 7.0134 -3.0705 -0.867 -0.464 -0.183 212 188 154 0 0
2.6358 6.8310 -3.0866 -0.850 -0.274 -0.450 209 183 148 0 0
2.6665 6.7132 -3.1016 -0.933 -0.219 -0.286 204 181 149 0 0
2.7512 6.4703 -3.1397 -0.709 -0.515 -0.482 203 180 147 0 0
2.9116 6.2164 -3.2033 -0.640 -0.600 -0.479 199 176 145 0 0
3.0506 6.1155 -3.2534 -0.542 -0.567 -0.620 194 173 143 0 0
5.2533 6.5155 -3.9652 0.174 -0.758 -0.628 228 229 224 0 0
0.6199 11.3516 -2.2494 -0.973 -0.126 -0.196 240 237 234 0 0
0.6242 11.3225 -2.2520 -0.973 -0.126 -0.196 240 237 233 0 0
0.6516 10.9610 -2.2757 -0.965 -0.170 -0.199 176 119 99 0 0
1.5588 8.7844 -2.6646 -0.660 -0.666 -0.346 161 111 96 0 0
1.6014 8.6968 -2.6822 -0.794 -0.548 -0.262 171 122 105 0 0
1.8260 8.4351 -2.7673 -0.290 -0.873 -0.392 139 90 75 0 0
3.5512 9.6781 -3.2897 0.317 -0.666 -0.676 197 189 180 0 0
3.3671 9.4171 -3.2391 -0.736 -0.495 0.462 197 188 179 0 0
3.4261 9.2775 -3.2644 -0.411 -0.848 0.336 201 192 183 0 0
3.4574 9.1325 -3.2806 -0.196 -0.942 -0.273 206 198 189 0 0
2.6488 6.8115 -3.1059 -0.899 -0.266 -0.347 207 183 147 0 0
2.8767 6.2926 -3.2025 -0.699 -0.507 -0.504 199 176 144 0 0
2.9031 6.2643 -3.2124 -0.815 -0.365 -0.450 200 178 147 0 0
2.9103 6.2535 -3.2152 -0.790 -0.387 -0.475 199 176 145 0 0
3.0566 6.1247 -3.2689 -0.821 -0.368 -0.436 193 172 142 0 0
3.3087 5.9961 -3.3578 -0.627 -0.521 -0.579 189 170 139 0 0
3.5064 5.9342 -3.4259 -0.653 -0.482 -0.584 190 171 142 0 0
1.2246 9.6684 -2.5339 -0.843 -0.403 -0.356 165 115 93 0 0
1.2330 9.6539 -2.5373 -0.843 -0.403 -0.356 172 121 100 0 0
1.3081 9.4376 -2.5708 -0.822 -0.429 -0.375 181 130 112 0 0
1.3224 9.4345 -2.5757 -0.852 -0.455 -0.261 181 130 110 0 0
1.4069 9.2416 -2.6114 -0.890 -0.378 -0.254 173 118 100 0 0
1.5476 8.8260 -2.6745 -0.621 -0.751 -0.223 161 114 96 0 0
1.5543 8.8105 -2.6773 -0.607 -0.768 -0.205 151 102 87 0 0
1.5657 8.8026 -2.6814 -0.607 -0.768 -0.205 168 116 102 0 0
1.8192 8.4563 -2.7794 -0.581 -0.770 -0.263 143 96 80 0 0
1.8261 8.4419 -2.7823 -0.586 -0.698 -0.412 144 96 81 0 0
1.8408 8.4388 -2.7873 -0.411 -0.786 -0.462 148 100 82 0 0
3.2628 9.3187 -3.2264 -0.949 -0.253 0.191 198 188 180 0 0
3.4449 9.1243 -3.2946 -0.200 -0.955 0.218 206 199 189 0 0
2.6152 7.2647 -3.0912 -0.992 -0.091 0.088 209 185 151 0 0
2.6158 7.2453 -3.0922 -0.972 -0.130 -0.198 211 187 153 0 0
2.6149 7.0285 -3.1004 -0.948 -0.225 -0.225 207 183 149 0 0
2.6585 6.7518 -3.1257 -0.885 -0.458 -0.086 205 182 150 0 0
2.6653 6.7401 -3.1285 -0.812 -0.529 -0.246 204 181 148 0 0
2.6734 6.7296 -3.1316 -0.962 -0.239 -0.135 204 181 147 0 0
2.9376 6.2816 -3.2371 -0.702 -0.691 -0.173 200 177 146 0 0
2.9356 6.2628 -3.2372 -0.788 -0.530 -0.315 196 174 143 0 0
2.9390 6.2488 -3.2389 -0.911 -0.399 -0.108 198 177 146 0 0
3.0746 6.1272 -3.2888 -0.621 -0.583 -0.524 194 171 140 0 0
3.1784 6.0621 -3.3259 -0.518 -0.640 -0.567 189 166 135 0 0
3.2371 6.0099 -3.3475 -0.503 -0.835 -0.224 192 172 144 0 0
3.3890 5.9640 -3.3999 -0.362 -0.904 -0.226 189 169 142 0 0
5.3613 6.5967 -4.0319 0.155 -0.741 -0.653 226 227 222 0 0
0.6755 11.4773 -2.2976 -0.937 0.113 -0.331 239 237 233 0 0
0.7185 10.8437 -2.3361 -0.792 -0.604 -0.092 171 116 96 0 0
1.1833 9.7501 -2.5329 -0.870 -0.438 -0.225 156 106 90 0 0
1.2382 9.6420 -2.5554 -0.777 -0.539 -0.324 174 123 102 0 0
1.2464 9.6275 -2.5587 -0.811 -0.473 -0.344 153 104 84 0 0
1.3053 9.4699 -2.5844 -0.599 -0.726 -0.336 178 127 110 0 0
1.3999 9.2654 -2.6238 -0.827 -0.551 -0.107 187 131 115 0 0
1.4089 9.2529 -2.6273 -0.793 -0.600 -0.107 174 119 102 0 0
1.5499 8.8368 -2.6902 -0.850 -0.526 -0.021 171 125 109 0 0
1.6847 8.6107 -2.7438 -0.775 -0.574 -0.263 168 117 96 0 0
1.8069 8.4696 -2.7900 -0.566 -0.771 -0.293 144 97 82 0 0
1.8184 8.4619 -2.7942 -0.581 -0.770 -0.263 145 97 82 0 0
3.4279 9.1887 -3.3044 -0.586 -0.687 -0.429 205 196 189 0 0
2.6155 7.2702 -3.1058 -0.991 -0.119 -0.062 206 181 144 0 0
2.6170 7.0357 -3.1153 -0.791 -0.523 -0.317 210 186 154 0 0
2.7578 6.5256 -3.1817 -0.827 -0.410 -0.385 203 179 147 0 0
3.1975 6.0486 -3.3468 -0.824 -0.532 -0.195 190 168 137 0 0
3.2168 6.0310 -3.3539 -0.713 -0.665 -0.223 190 170 141 0 0
3.2233 6.0197 -3.3565 -0.562 -0.827 -0.010 189 168 140 0 0
3.3852 5.9816 -3.4121 -0.508 -0.822 -0.258 189 169 143 0 0
3.3981 5.9751 -3.4166 -0.286 -0.891 -0.352 190 170 143 0 0
5.4199 6.6403 -4.0670 0.163 -0.755 -0.635 226 227 222 0 0
0.6732 11.4830 -2.3140 -0.975 0.111 -0.192 238 237 233 0 0
1.0359 10.1628 -2.4843 -0.922 -0.362 -0.135 183 132 112 0 0
1.2385 9.6510 -2.5711 -0.777 -0.539 -0.324 174 123 105 0 0
1.2482 9.6392 -2.5748 -0.777 -0.539 -0.324 164 115 96 0 0
1.3301 9.4646 -2.6087 -0.845 -0.493 -0.205 158 105 87 0 0
1.3388 9.4511 -2.6121 -0.845 -0.493 -0.205 173 119 100 0 0
1.4083 9.2595 -2.6425 -0.757 -0.587 -0.287 178 125 108 0 0
1.4124 9.2385 -2.6446 -0.924 -0.300 -0.237 183 131 113 0 0
1.4205 9.2245 -2.6478 -0.872 -0.472 0.130 181 129 111 0 0
1.5201 8.8749 -2.6941 -0.706 -0.577 -0.410 211 181 167 0 0
1.5296 8.8639 -2.6977 -0.638 -0.659 -0.399 213 180 165 0 0
1.5472 8.8397 -2.7045 -0.783 -0.535 -0.317 175 133 118 0 0
1.5605 8.8087 -2.7101 -0.589 -0.752 -0.294 152 104 89 0 0
1.7395 8.5249 -2.7806 -0.589 -0.697 -0.409 153 98 77 0 0
1.7858 8.4946 -2.7973 -0.565 -0.762 -0.315 158 110 94 0 0
1.7963 8.4854 -2.8011 -0.573 -0.690 -0.442 142 95 79 0 0
3.2950 9.4822 -3.2670 0.225 -0.770 -0.597 197 188 181 0 0
3.2598 9.3026 -3.2618 -0.703 -0.705 -0.095 199 190 182 0 0
3.2474 9.2604 -3.2592 -0.646 -0.590 -0.485 199 190 183 0 0
2.6362 7.5439 -3.1174 -0.951 -0.270 -0.151 204 175 141 0 0
2.6357 7.0216 -3.1365 -0.736 -0.486 -0.471 211 187 155 0 0
2.6653 6.8054 -3.1545 -0.933 -0.232 -0.274 207 183 149 0 0
2.6774 6.7248 -3.1615 -0.968 -0.219 -0.119 205 182 149 0 0
2.7619 6.5341 -3.1968 -0.747 -0.470 -0.470 202 178 147 0 0
2.7775 6.5130 -3.2029 -0.812 -0.286 -0.510 203 181 150 0 0
2.8222 6.4306 -3.2209 -0.710 -0.662 -0.240 199 174 143 0 0
3.0748 6.1527 -3.3158 -0.743 -0.514 -0.428 194 173 144 0 0
3.1941 6.0667 -3.3590 -0.715 -0.569 -0.406 188 168 137 0 0
3.6972 5.9404 -3.5324 -0.381 -0.853 -0.356 188 171 143 0 0
3.7173 5.9386 -3.5392 -0.688 -0.607 -0.398 188 171 144 0 0
1.0223 10.2099 -2.4943 -0.939 -0.342 -0.014 155 102 84 0 0
1.1121 9.9715 -2.5331 -0.875 -0.390 -0.288 167 116 97 0 0
1.1200 9.9556 -2.5363 -0.866 -0.403 -0.295 159 108 88 0 0
1.2498 9.6506 -2.5909 -0.879 -0.356 -0.316 137 88 70 0 0
1.2587 9.6372 -2.5943 -0.742 -0.599 -0.299 155 107 90 0 0
1.2671 9.6230 -2.5977 -0.873 -0.395 -0.288 171 124 108 0 0
1.2750 9.6078 -2.6009 -0.855 -0.444 -0.268 176 128 114 0 0
1.3452 9.4418 -2.6304 -0.821 -0.409 -0.399 172 121 104 0 0
1.4082 9.2673 -2.6578 -0.802 -0.590 -0.096 172 120 103 0 0
1.4168 9.2259 -2.6622 -0.872 -0.372 -0.317 181 130 113 0 0
1.5446 8.8690 -2.7179 -0.697 -0.561 -0.446 185 152 138 0 0
1.5480 8.8482 -2.7198 -0.804 -0.472 -0.361 166 127 112 0 0
1.5571 8.8365 -2.7233 -0.615 -0.627 -0.477 148 105 89 0 0
1.7078 8.6092 -2.7821 -0.800 -0.549 -0.241 161 110 91 0 0
1.7856 8.5010 -2.8122 -0.565 -0.762 -0.315 157 109 90 0 0
2.6226 8.9992 -3.0760 0.353 -0.795 -0.493 132 86 70 0 0
3.3348 9.5136 -3.2973 0.161 -0.740 -0.653 197 188 181 0 0
3.2513 9.2989 -3.2769 -0.852 -0.507 0.131 199 190 183 0 0
3.2511 9.2722 -3.2778 -0.992 0.119 0.034 200 191 184 0 0
3.2477 9.2150 -3.2787 -0.938 -0.217 0.269 200 191 182 0 0
3.4204 9.2461 -3.3357 -0.207 -0.523 -0.827 205 196 189 0 0
3.4508 9.2571 -3.3455 -0.196 -0.945 -0.261 207 198 191 0 0
3.4302 9.2055 -3.3404 -0.771 -0.315 -0.554 206 197 190 0 0
2.6405 7.5543 -3.1336 -0.899 -0.437 -0.040 208 182 147 0 0
2.6400 7.0311 -3.1522 -0.938 -0.244 -0.246 212 188 155 0 0
2.6957 6.7659 -3.1803 -0.886 -0.463 0.021 208 185 153 0 0
2.7637 6.5404 -3.2113 -0.950 -0.305 -0.072 203 180 148 0 0
2.9011 6.3491 -3.2644 -0.608 -0.634 -0.478 202 179 148 0 0
2.9032 6.3337 -3.2656 -0.785 -0.465 -0.408 198 174 143 0 0
3.1184 6.1428 -3.3448 -0.636 -0.659 -0.401 194 172 141 0 0
3.1515 6.1030 -3.3574 -0.707 -0.540 -0.457 192 173 143 0 0
3.4453 6.0032 -3.4598 -0.491 -0.768 -0.412 193 173 146 0 0
3.6831 5.9507 -3.5417 -0.084 -0.940 -0.331 191 171 144 0 0
3.7120 5.9553 -3.5513 -0.204 -0.902 -0.380 188 171 143 0 0
3.7194 5.9443 -3.5542 -0.368 -0.917 0.156 189 172 146 0 0
0.6828 11.4903 -2.3518 -0.963 0.114 -0.244 236 235 232 0 0
0.8643 10.5960 -2.4440 -0.780 -0.517 -0.353 171 121 101 0 0
1.0247 10.1909 -2.5121 -0.942 -0.327 -0.078 163 110 90 0 0
1.0369 10.1833 -2.5165 -0.833 -0.374 -0.407 179 124 104 0 0
1.2585 9.6452 -2.6099 -0.742 -0.599 -0.299 181 132 115 0 0
1.3472 9.4534 -2.6465 -0.821 -0.409 -0.399 174 125 108 0 0
1.4071 9.2732 -2.6730 -0.855 -0.507 -0.112 178 127 108 0 0
1.4166 9.2333 -2.6775 -0.681 -0.608 -0.408 178 126 109 0 0
1.4258 9.2212 -2.6810 -0.391 -0.798 -0.459 175 124 107 0 0
1.5452 8.8772 -2.7332 -0.652 -0.596 -0.468 166 135 122 0 0
1.6367 8.7359 -2.7690 -0.827 -0.482 -0.288 186 137 120 0 0
1.6709 8.6609 -2.7831 -0.721 -0.678 0.145 185 136 118 0 0
3.3599 9.5258 -3.3236 0.218 -0.781 -0.585 198 189 182 0 0
3.2479 9.2224 -3.2962 -0.841 -0.310 0.443 202 193 186 0 0
3.4492 9.2623 -3.3629 -0.196 -0.945 -0.261 207 198 191 0 0
2.6404 7.5598 -3.1485 -0.823 -0.475 -0.312 208 182 147 0 0
2.6492 7.5486 -3.1519 -0.877 -0.377 -0.297 210 184 149 0 0
2.6938 6.7689 -3.1939 -0.886 -0.463 0.021 209 185 154 0 0
2.7444 6.5986 -3.2169 -0.892 -0.399 -0.213 207 184 152 0 0
2.9049 6.3568 -3.2794 -0.608 -0.634 -0.478 199 176 145 0 0
3.0542 6.1947 -3.3354 -0.352 -0.923 0.153 188 167 136 0 0
3.0612 6.1837 -3.3381 -0.535 -0.747 -0.394 190 167 136 0 0
3.0972 6.1631 -3.3510 -0.554 -0.696 -0.457 192 170 139 0 0
3.4317 6.0135 -3.4691 -0.384 -0.871 -0.308 189 169 141 0 0
3.4528 6.0131 -3.4763 -0.425 -0.857 -0.292 191 171 144 0 0
3.4966 5.9969 -3.4916 -0.433 -0.899 0.061 183 162 135 0 0
3.7327 5.9581 -3.5727 -0.557 -0.723 -0.407 189 172 145 0 0
0.6918 11.5252 -2.3711 -0.963 0.114 -0.244 236 235 231 0 0
0.7708 10.8247 -2.4213 -0.765 -0.540 -0.350 153 100 82 0 0
1.1525 9.9427 -2.5800 -0.917 -0.376 -0.130 176 125 106 0 0
1.1816 9.8743 -2.5922 -0.906 -0.326 -0.271 185 135 119 0 0
1.3407 9.4789 -2.6593 -0.821 -0.409 -0.399 171 122 105 0 0
1.3492 9.4651 -2.6626 -0.821 -0.409 -0.399 173 124 108 0 0
1.5544 8.8730 -2.7519 -0.731 -0.468 -0.497 169 131 115 0 0
1.6464 8.7323 -2.7878 -0.797 -0.488 -0.356 158 111 95 0 0
1.6563 8.7221 -2.7915 -0.880 -0.444 -0.167 176 129 113 0 0
1.6542 8.6931 -2.7917 -0.780 -0.621 -0.070 171 124 106 0 0
1.6645 8.6835 -2.7955 -0.666 -0.738 -0.108 165 117 100 0 0
3.2420 9.2220 -3.3120 -0.947 -0.320 -0.011 202 193 187 0 0
2.6341 7.1916 -3.1738 -0.983 -0.185 -0.016 207 184 150 0 0
2.6370 7.1552 -3.1760 -0.996 -0.086 -0.034 216 193 161 0 0
2.6385 7.1371 -3.1771 -0.990 -0.135 0.044 211 188 157 0 0
2.6621 6.9869 -3.1901 -0.870 -0.275 -0.409 208 183 151 0 0
2.7674 6.5711 -3.2397 -0.850 -0.472 -0.234 202 178 146 0 0
2.8975 6.3722 -3.2904 -0.608 -0.634 -0.478 201 178 147 0 0
3.0503 6.1958 -3.3481 -0.506 -0.775 0.378 192 171 140 0 0
3.0697 6.1951 -3.3546 -0.499 -0.814 -0.299 193 170 139 0 0
3.0861 6.1919 -3.3603 -0.647 -0.630 -0.430 195 173 141 0 0
3.0888 6.1773 -3.3617 -0.732 -0.631 -0.257 194 171 140 0 0
3.0986 6.1686 -3.3653 -0.597 -0.659 -0.458 192 169 138 0 0
3.1166 6.1667 -3.3715 -0.759 -0.551 -0.347 195 172 141 0 0
3.1235 6.1555 -3.3742 -0.718 -0.541 -0.438 197 174 143 0 0
3.1325 6.1462 -3.3776 -0.718 -0.541 -0.438 194 172 140 0 0
3.2069 6.1064 -3.4041 -0.696 -0.566 -0.442 193 175 147 0 0
3.4329 6.0185 -3.4836 -0.403 -0.860 -0.313 189 170 140 0 0
3.4534 6.0177 -3.4906 -0.425 -0.857 -0.292 179 160 131 0 0
3.4678 6.0123 -3.4957 -0.425 -0.857 -0.292 178 159 131 0 0
0.7009 11.5603 -2.3906 -0.963 0.114 -0.244 237 236 233 0 0
0.7748 10.8447 -2.4388 -0.889 -0.375 -0.263 161 110 91 0 0
0.7834 10.8280 -2.4422 -0.742 -0.540 -0.397 163 117 96 0 0
0.7960 10.7839 -2.4479 -0.639 -0.611 -0.467 190 144 127 0 0
1.0478 10.1917 -2.5526 -0.801 -0.464 -0.378 182 129 110 0 0
1.2398 9.7480 -2.6322 -0.872 -0.486 -0.055 176 126 107 0 0
1.3428 9.4908 -2.6755 -0.759 -0.498 -0.419 179 129 112 0 0
1.3516 9.4776 -2.6789 -0.792 -0.442 -0.421 173 123 107 0 0
1.3881 9.4268 -2.6929 -0.807 -0.479 -0.345 149 98 80 0 0
1.3951 9.4104 -2.6958 -0.839 -0.409 -0.359 179 128 109 0 0
1.4892 9.1781 -2.7353 -0.691 -0.578 -0.434 173 122 103 0 0
1.5763 8.8366 -2.7759 -0.537 -0.721 -0.438 150 103 87 0 0
1.6489 8.7433 -2.8036 -0.829 -0.426 -0.363 189 142 126 0 0
1.6542 8.7002 -2.8068 -0.596 -0.705 -0.385 171 124 107 0 0
1.6659 8.6926 -2.8110 -0.596 -0.705 -0.385 175 128 110 0 0
1.7155 8.5912 -2.8311 -0.621 -0.705 -0.343 127 75 55 0 0
1.7265 8.5827 -2.8352 -0.785 -0.483 -0.387 150 100 82 0 0
1.7604 8.5585 -2.8475 -0.696 -0.612 -0.377 161 110 89 0 0
1.7711 8.5494 -2.8514 -0.627 -0.636 -0.450 157 106 87 0 0
1.8615 8.5089 -2.8834 -0.197 -0.875 -0.441 141 93 76 0 0
2.1323 8.6733 -2.9702 0.249 -0.730 -0.636 133 84 68 0 0
3.2447 9.2855 -3.3287 -0.701 -0.276 0.658 201 193 186 0 0
3.1126 8.5659 -3.3069 -0.816 0.562 0.137 176 147 114 0 0
2.6585 7.4659 -3.1880 -0.950 -0.282 0.136 209 185 150 0 0
2.6574 7.4442 -3.1883 -0.978 -0.062 0.201 211 186 153 0 0
2.6379 7.1613 -3.1908 -0.957 -0.230 -0.177 210 187 155 0 0
2.6405 7.1444 -3.1922 -0.943 -0.220 -0.250 212 189 157 0 0
2.7228 6.6964 -3.2346 -0.908 -0.290 -0.301 206 183 149 0 0
2.7241 6.6793 -3.2356 -0.826 -0.395 0.402 207 183 149 0 0
2.9651 6.2978 -3.3298 -0.609 -0.594 -0.526 198 177 146 0 0
3.0100 6.2680 -3.3461 -0.908 -0.418 -0.027 197 176 146 0 0
3.0218 6.2439 -3.3508 -0.906 -0.392 0.161 193 173 141 0 0
3.0215 6.2266 -3.3513 -0.733 -0.659 0.169 194 174 142 0 0
3.0480 6.1982 -3.3612 -0.409 -0.892 0.194 195 173 142 0 0
3.0782 6.2066 -3.3712 -0.662 -0.681 -0.312 193 170 139 0 0
3.0892 6.1989 -3.3752 -0.647 -0.630 -0.430 193 171 139 0 0
3.0984 6.1896 -3.3786 -0.693 -0.607 -0.388 190 168 137 0 0
3.1213 6.1749 -3.3869 -0.533 -0.717 -0.449 192 170 140 0 0
3.2665 6.1084 -3.4384 -0.677 -0.685 -0.271 191 171 142 0 0
3.2729 6.0968 -3.4409 -0.587 -0.728 -0.354 192 171 143 0 0
3.3243 6.0709 -3.4592 -0.744 -0.500 -0.444 188 167 138 0 0
3.4551 6.0233 -3.5052 -0.465 -0.737 -0.490 179 161 132 0 0
3.4972 6.0058 -3.5201 -0.326 -0.890 -0.318 193 173 146 0 0
0.7033 11.5371 -2.4097 -0.951 0.112 -0.287 236 235 233 0 0
0.9811 10.3956 -2.5398 -0.811 -0.472 -0.345 151 100 81 0 0
0.9866 10.3736 -2.5424 -0.759 -0.592 -0.269 165 115 98 0 0
1.1516 9.9587 -2.6116 -0.831 -0.451 -0.327 180 127 111 0 0
1.1605 9.9447 -2.6151 -0.831 -0.451 -0.327 172 119 101 0 0
1.2366 9.7504 -2.6470 -0.860 -0.360 -0.361 163 112 95 0 0
1.3793 9.4480 -2.7051 -0.682 -0.591 -0.431 171 121 104 0 0
1.3897 9.4376 -2.7090 -0.729 -0.535 -0.427 170 119 102 0 0
1.4805 9.1987 -2.7474 -0.710 -0.638 -0.298 158 107 87 0 0
1.5012 9.1783 -2.7551 -0.790 -0.471 -0.393 178 126 104 0 0
1.8471 8.5194 -2.8935 -0.450 -0.804 -0.389 146 97 81 0 0
1.8621 8.5165 -2.8987 -0.197 -0.875 -0.441 139 92 76 0 0
2.6413 7.3502 -3.2007 -0.631 -0.665 -0.400 210 185 152 0 0
2.6382 7.2064 -3.2041 -0.994 -0.097 -0.055 214 188 154 0 0
2.6361 7.1647 -3.2047 -0.982 -0.158 -0.104 210 187 154 0 0
2.6427 7.1519 -3.2074 -0.943 -0.220 -0.250 212 189 156 0 0
2.7386 6.7163 -3.2536 -0.906 -0.420 -0.044 207 183 149 0 0
3.0051 6.2853 -3.3579 -0.875 -0.478 -0.081 195 174 143 0 0
3.0130 6.2749 -3.3609 -0.877 -0.467 -0.117 196 175 144 0 0
3.0146 6.2592 -3.3619 -0.908 -0.418 -0.027 195 174 143 0 0
3.0275 6.2531 -3.3665 -0.777 -0.628 -0.044 192 171 140 0 0
3.0228 6.2322 -3.3656 -0.854 -0.511 0.099 193 173 142 0 0
3.0488 6.2202 -3.3748 -0.474 -0.877 -0.077 197 174 143 0 0
3.0857 6.2003 -3.3880 -0.686 -0.727 0.002 194 173 142 0 0
3.0993 6.1948 -3.3928 -0.638 -0.770 0.016 191 170 140 0 0
3.1097 6.1866 -3.3967 -0.759 -0.650 -0.039 193 172 143 0 0
3.2654 6.1118 -3.4521 -0.635 -0.760 -0.137 191 170 140 0 0
3.3269 6.0773 -3.4741 -0.724 -0.634 -0.272 187 166 136 0 0
3.4889 6.0203 -3.5312 -0.524 -0.667 -0.530 192 172 145 0 0
3.8759 5.9915 -3.6641 -0.362 -0.750 -0.554 191 174 148 0 0
5.8306 6.9238 -4.3020 0.431 -0.842 0.325 226 226 224 0 0
0.7148 11.5783 -2.4299 -0.950 0.125 -0.286 235 234 232 0 0
0.7404 11.0090 -2.4557 -0.826 -0.469 -0.312 176 124 102 0 0
1.0182 10.3150 -2.5715 -0.892 -0.355 -0.279 180 127 109 0 0
1.2165 9.8436 -2.6534 -0.788 -0.527 -0.320 174 121 104 0 0
1.2246 9.8283 -2.6567 -0.928 -0.284 -0.240 170 118 100 0 0
1.6100 8.8522 -2.8178 -0.722 -0.549 -0.420 158 110 95 0 0
1.8676 8.5312 -2.9155 -0.378 -0.754 -0.538 140 91 76 0 0
1.9272 8.5434 -2.9355 -0.264 -0.723 -0.638 135 88 72 0 0
3.3273 9.6234 -3.3825 0.461 -0.689 -0.559 197 188 181 0 0
3.3609 9.6394 -3.3935 0.519 -0.745 -0.419 199 189 183 0 0
2.6332 7.3672 -3.2123 -0.701 -0.537 -0.470 213 190 155 0 0
2.6479 7.1823 -3.2229 -0.938 -0.085 -0.337 214 190 159 0 0
2.6835 7.0047 -3.2404 -0.938 -0.175 -0.300 210 186 152 0 0
2.7048 6.8928 -3.2510 -0.816 -0.344 -0.464 210 187 153 0 0
2.7465 6.7287 -3.2702 -0.657 -0.743 -0.128 203 179 146 0 0
2.7498 6.6953 -3.2723 -0.798 -0.596 -0.093 202 179 147 0 0
2.7683 6.6764 -3.2792 -0.867 -0.387 -0.314 205 181 149 0 0
3.0439 6.2886 -3.3851 -0.615 -0.622 -0.485 195 172 141 0 0
3.0244 6.2549 -3.3795 -0.887 -0.460 -0.042 194 172 141 0 0
3.0346 6.2465 -3.3832 -0.815 -0.574 -0.084 194 173 142 0 0
3.0399 6.2171 -3.3859 -0.928 -0.370 -0.042 197 174 143 0 0
3.2544 6.1240 -3.4621 -0.715 -0.677 -0.177 187 166 136 0 0
3.2663 6.1169 -3.4664 -0.726 -0.682 -0.088 189 168 137 0 0
3.2766 6.1083 -3.4702 -0.586 -0.747 -0.313 191 170 139 0 0
3.3313 6.0850 -3.4896 -0.630 -0.562 -0.536 190 169 139 0 0
3.8964 6.0104 -3.6853 -0.374 -0.689 -0.620 192 175 149 0 0
0.7218 11.6081 -2.4490 -0.978 0.149 -0.147 236 235 233 0 0
0.7931 10.8455 -2.4954 -0.792 -0.487 -0.369 168 117 97 0 0
1.3011 9.7066 -2.7026 -0.843 -0.391 -0.369 172 120 103 0 0
1.6115 8.8618 -2.8334 -0.740 -0.532 -0.411 171 122 106 0 0
1.6220 8.8522 -2.8373 -0.775 -0.490 -0.398 152 103 88 0 0
1.6344 8.8458 -2.8418 -0.726 -0.524 -0.446 159 110 95 0 0
1.6443 8.8352 -2.8455 -0.726 -0.524 -0.446 172 123 107 0 0
1.9345 8.5606 -2.9530 -0.346 -0.752 -0.561 138 91 75 0 0
3.1266 9.2354 -3.3431 -0.214 -0.571 0.792 203 194 187 0 0
3.1397 9.2257 -3.3479 -0.243 -0.493 0.836 203 194 187 0 0
3.1883 9.1302 -3.3673 -0.582 -0.809 0.085 206 200 193 0 0
3.2177 9.0891 -3.3786 -0.145 -0.989 0.012 206 199 191 0 0
3.2650 9.0961 -3.3946 0.009 -0.982 0.189 207 200 192 0 0
3.2851 9.0950 -3.4015 -0.169 -0.846 0.506 207 200 192 0 0
2.6767 7.5442 -3.2371 -0.944 -0.054 -0.326 209 183 148 0 0
2.6768 7.0222 -3.2521 -0.691 -0.500 -0.522 209 185 153 0 0
2.7002 6.9501 -3.2622 -0.897 -0.333 -0.292 208 184 152 0 0
2.7447 6.7319 -3.2838 -0.714 -0.698 -0.055 203 180 148 0 0
2.7577 6.7076 -3.2889 -0.911 -0.336 -0.238 206 183 151 0 0
3.0479 6.2965 -3.4004 -0.615 -0.622 -0.485 195 172 140 0 0
3.0314 6.2482 -3.3961 -0.790 -0.612 -0.023 193 172 141 0 0
3.2100 6.1596 -3.4600 -0.701 -0.681 -0.210 192 172 145 0 0
3.2372 6.1480 -3.4697 -0.705 -0.598 -0.380 194 173 144 0 0
3.2471 6.1392 -3.4734 -0.709 -0.617 -0.343 190 169 139 0 0
3.2845 6.1189 -3.4868 -0.507 -0.753 -0.419 193 172 142 0 0
3.8293 6.0328 -3.6764 -0.304 -0.872 -0.384 192 175 149 0 0
3.8524 6.0329 -3.6843 -0.384 -0.714 -0.586 189 172 146 0 0
3.9039 6.0201 -3.7024 -0.404 -0.659 -0.635 194 177 151 0 0
5.7853 6.9035 -4.3232 -0.764 -0.380 -0.521 225 225 223 0 0
0.7219 11.5791 -2.4675 -0.967 0.113 -0.229 234 234 232 0 0
0.8061 10.8494 -2.5166 -0.734 -0.484 -0.476 164 117 96 0 0
0.8705 10.7426 -2.5417 -0.857 -0.421 -0.298 175 123 101 0 0
0.9849 10.4674 -2.5887 -0.723 -0.548 -0.421 185 138 122 0 0
1.0361 10.3721 -2.6090 -0.788 -0.549 -0.278 172 120 101 0 0
1.0431 10.3530 -2.6119 -0.800 -0.546 -0.249 176 120 103 0 0
1.6238 8.8623 -2.8531 -0.775 -0.490 -0.398 157 106 88 0 0
1.9217 8.5737 -2.9637 -0.279 -0.693 -0.665 140 93 77 0 0
1.9408 8.5765 -2.9702 -0.335 -0.673 -0.660 141 95 79 0 0
3.2806 9.4678 -3.4074 0.435 -0.769 -0.469 203 194 187 0 0
2.6801 7.5535 -3.2532 -0.951 -0.204 -0.234 209 183 148 0 0
2.7298 6.8148 -3.2907 -0.831 -0.333 -0.446 206 181 149 0 0
2.7428 6.7349 -3.2974 -0.759 -0.635 -0.144 205 182 150 0 0
2.8732 6.5672 -3.3469 -0.551 -0.769 -0.324 200 176 143 0 0
2.9536 6.3748 -3.3799 -0.696 -0.536 -0.479 198 173 140 0 0
2.9693 6.3538 -3.3859 -0.719 -0.483 -0.499 193 170 139 0 0
3.1760 6.2037 -3.4613 -0.839 -0.530 -0.121 196 175 143 0 0
3.2101 6.1641 -3.4741 -0.658 -0.693 -0.294 182 162 134 0 0
3.2373 6.1525 -3.4838 -0.556 -0.804 -0.209 192 171 142 0 0
3.2467 6.1432 -3.4873 -0.613 -0.751 -0.245 190 169 138 0 0
3.2620 6.1387 -3.4927 -0.471 -0.849 -0.238 191 170 139 0 0
3.2758 6.1330 -3.4976 -0.480 -0.826 -0.295 191 170 142 0 0
3.8134 6.0422 -3.6854 -0.315 -0.935 -0.164 194 177 151 0 0
0.7971 10.8759 -2.5296 -0.734 -0.484 -0.476 168 115 94 0 0
0.8187 10.8525 -2.5377 -0.830 -0.422 -0.363 156 109 92 0 0
1.0490 10.3412 -2.6308 -0.789 -0.526 -0.318 175 121 104 0 0
1.2721 9.7909 -2.7225 -0.694 -0.708 -0.131 182 130 112 0 0
1.4494 9.3736 -2.7948 -0.825 -0.561 -0.075 162 110 96 0 0
1.4552 9.3552 -2.7973 -0.771 -0.633 -0.067 160 106 93 0 0
1.9441 8.5881 -2.9866 -0.433 -0.625 -0.649 143 96 80 0 0
3.2493 9.1685 -3.4226 -0.669 -0.593 -0.448 209 202 196 0 0
3.2403 9.0793 -3.4218 -0.469 -0.596 0.652 209 201 193 0 0
3.3028 9.0019 -3.4455 -0.110 -0.974 0.200 206 199 191 0 0
2.6822 7.5614 -3.2689 -0.951 -0.204 -0.234 209 183 149 0 0
2.6823 7.0380 -3.2827 -0.634 -0.772 0.040 213 190 157 0 0
2.8727 6.5535 -3.3614 -0.893 -0.409 -0.189 198 173 142 0 0
2.8849 6.4934 -3.3672 -0.879 -0.476 -0.015 196 174 143 0 0
2.8884 6.4789 -3.3687 -0.844 -0.523 0.114 199 176 144 0 0
2.8970 6.4690 -3.3720 -0.630 -0.764 0.137 199 176 143 0 0
2.9063 6.4597 -3.3754 -0.678 -0.701 0.221 197 173 140 0 0
3.0170 6.3478 -3.4167 -0.879 -0.427 0.210 193 168 137 0 0
3.2489 6.1662 -3.5017 -0.558 -0.801 -0.218 193 172 144 0 0
0.7387 11.6458 -2.5068 -0.974 0.125 -0.189 235 234 233 0 0
0.7169 11.1490 -2.5118 -0.843 -0.389 -0.372 156 104 83 0 0
0.7283 11.0997 -2.5170 -0.620 -0.715 -0.322 149 99 81 0 0
0.9856 10.5581 -2.6199 -0.618 -0.712 -0.333 185 138 122 0 0
1.0031 10.5265 -2.6268 -0.915 -0.362 -0.181 187 138 122 0 0
1.1946 10.0249 -2.7059 -0.895 -0.337 -0.292 159 107 93 0 0
1.3893 9.5947 -2.7842 -0.809 -0.555 0.195 172 117 97 0 0
3.2258 9.0682 -3.4347 -0.619 -0.419 0.664 210 203 194 0 0
2.6904 7.5761 -3.2866 -0.996 -0.008 -0.084 208 182 148 0 0
2.6818 7.0425 -3.2970 -0.660 -0.709 -0.248 213 189 155 0 0
2.7529 6.7728 -3.3285 -0.795 -0.423 -0.436 205 180 149 0 0
2.8860 6.4990 -3.3816 -0.905 -0.425 -0.015 197 177 145 0 0
2.8877 6.4829 -3.3826 -0.601 -0.787 -0.138 196 176 143 0 0
2.8984 6.4748 -3.3865 -0.581 -0.797 -0.167 198 177 144 0 0
2.9096 6.4673 -3.3906 -0.650 -0.647 -0.399 203 179 146 0 0
3.0194 6.3371 -3.4320 -0.781 -0.597 0.183 192 167 136 0 0
3.1171 6.2656 -3.4677 -0.679 -0.626 -0.384 194 171 139 0 0
3.6220 6.0758 -3.6476 -0.457 -0.663 -0.593 189 169 140 0 0
3.7776 6.0579 -3.7020 -0.241 -0.885 -0.398 191 174 148 0 0
0.7391 11.6171 -2.5253 -0.989 0.136 -0.052 235 233 231 0 0
0.7092 11.1801 -2.5255 -0.849 -0.412 -0.332 166 114 93 0 0
0.9616 10.5851 -2.6276 -0.416 -0.888 -0.195 178 129 113 0 0
0.9723 10.5736 -2.6316 -0.404 -0.911 0.089 172 123 108 0 0
0.9850 10.5665 -2.6362 -0.411 -0.911 0.037 175 127 112 0 0
1.0883 10.3419 -2.6776 -0.862 -0.436 -0.258 177 125 108 0 0
1.3690 9.6255 -2.7925 -0.624 -0.779 -0.066 181 124 105 0 0
1.3865 9.5978 -2.7993 -0.828 -0.558 0.054 170 115 95 0 0
1.5812 8.9749 -2.8820 -0.761 -0.459 -0.458 170 124 108 0 0
1.6272 8.9158 -2.8994 -0.788 -0.500 -0.360 171 120 102 0 0
1.7448 8.6840 -2.9460 -0.550 -0.693 -0.466 166 113 92 0 0
3.2442 9.4156 -3.4503 0.367 -0.614 -0.699 204 195 188 0 0
3.2182 9.1960 -3.4466 -0.986 -0.089 0.144 209 202 196 0 0
3.2162 9.1673 -3.4466 -0.516 -0.528 -0.674 208 203 197 0 0
3.2242 9.1511 -3.4497 -0.649 -0.552 -0.524 207 202 196 0 0
3.2023 9.0977 -3.4434 -0.761 -0.588 0.276 208 203 197 0 0
3.1854 8.9483 -3.4411 -0.405 -0.902 -0.152 208 201 193 0 0
2.7495 6.7929 -3.3412 -0.888 -0.373 -0.271 205 182 148 0 0
2.8759 6.5300 -3.3915 -0.956 -0.247 0.157 200 177 146 0 0
3.0875 6.3137 -3.4704 -0.690 -0.631 -0.356 195 172 140 0 0
3.1550 6.2675 -3.4950 -0.561 -0.671 -0.485 191 171 140 0 0
3.4679 6.1129 -3.6076 -0.495 -0.671 -0.552 196 176 150 0 0
0.7845 11.0281 -2.5724 -0.805 -0.477 -0.353 177 116 93 0 0
0.7936 11.0119 -2.5759 -0.846 -0.521 -0.114 172 112 90 0 0
0.9023 10.7476 -2.6199 -0.848 -0.491 0.200 166 117 102 0 0
0.9112 10.7317 -2.6234 -0.864 -0.503 -0.027 158 111 95 0 0
0.9277 10.6971 -2.6299 -0.921 -0.350 -0.171 165 119 103 0 0
0.9611 10.5940 -2.6440 -0.475 -0.736 0.481 164 115 100 0 0
0.9719 10.5827 -2.6480 -0.521 -0.679 0.517 160 111 97 0 0
1.0033 10.5466 -2.6598 -0.924 -0.377 -0.062 183 134 115 0 0
1.1188 10.2477 -2.7070 -0.880 -0.355 -0.314 181 129 110 0 0
1.3076 9.7918 -2.7833 -0.832 -0.367 -0.415 158 102 87 0 0
1.3742 9.6135 -2.8107 -0.729 -0.680 0.083 179 122 103 0 0
1.5931 8.9748 -2.9018 -0.761 -0.459 -0.458 176 127 112 0 0
1.6005 8.9601 -2.9047 -0.706 -0.498 -0.504 175 124 109 0 0
1.6302 8.9280 -2.9158 -0.528 -0.726 -0.440 160 109 92 0 0
1.6383 8.9143 -2.9189 -0.575 -0.702 -0.421 165 113 96 0 0
1.6807 8.8762 -2.9346 -0.893 -0.418 -0.169 184 132 114 0 0
1.7107 8.7411 -2.9482 -0.674 -0.591 -0.443 177 128 111 0 0
1.7324 8.7230 -2.9562 -0.827 -0.446 -0.343 171 122 104 0 0
1.9566 8.6266 -3.0367 -0.060 -0.963 -0.264 154 106 91 0 0
3.2920 9.5120 -3.4828 0.468 -0.696 -0.545 204 195 188 0 0
3.2824 9.4722 -3.4804 0.363 -0.617 -0.698 206 197 190 0 0
3.2295 9.0351 -3.4719 -0.595 -0.776 0.209 209 202 194 0 0
2.7957 6.6764 -3.3744 -0.925 -0.344 -0.160 204 183 151 0 0
3.2848 6.1913 -3.5563 -0.613 -0.635 -0.471 194 173 144 0 0
3.4716 6.1201 -3.6232 -0.423 -0.833 -0.358 194 174 147 0 0
5.3877 6.7381 -4.2783 0.205 -0.838 -0.506 222 222 221 0 0
0.8219 10.9395 -2.6044 -0.865 -0.459 -0.202 190 145 126 0 0
0.9018 10.7567 -2.6364 -0.766 -0.498 -0.407 170 121 106 0 0
0.9684 10.5848 -2.6635 -0.817 -0.489 0.307 157 110 94 0 0
0.9781 10.5711 -2.6672 -0.670 -0.729 0.142 173 126 110 0 0
0.9852 10.5517 -2.6701 -0.851 -0.445 0.281 165 117 100 0 0
0.9932 10.5344 -2.6733 -0.851 -0.445 0.281 177 130 111 0 0
1.0788 10.3409 -2.7075 -0.728 -0.599 -0.333 167 119 103 0 0
1.3981 9.6057 -2.8353 -0.937 -0.332 0.106 175 120 102 0 0
1.4044 9.5875 -2.8379 -0.930 -0.345 0.124 169 114 96 0 0
1.4071 9.5630 -2.8394 -0.959 -0.222 0.175 183 131 112 0 0
1.5070 9.3626 -2.8787 -0.799 -0.449 -0.401 171 115 99 0 0
1.5954 8.9859 -2.9179 -0.807 -0.418 -0.418 160 111 96 0 0
1.6036 8.9723 -2.9211 -0.706 -0.498 -0.504 156 105 89 0 0
1.6803 8.9090 -2.9493 -0.714 -0.547 -0.437 184 130 112 0 0
1.8154 8.6520 -3.0023 -0.854 -0.470 -0.224 158 111 95 0 0
3.1090 9.4982 -3.4372 0.507 -0.745 -0.433 199 190 183 0 0
3.2472 9.5432 -3.4846 0.438 -0.688 -0.579 202 193 186 0 0
3.0917 9.3130 -3.4352 0.341 -0.638 -0.690 204 195 188 0 0
3.2201 9.2125 -3.4823 -0.893 0.188 0.408 210 203 197 0 0
3.1880 9.0163 -3.4753 -0.583 -0.795 -0.168 209 203 197 0 0
3.4483 9.1290 -3.5641 -0.762 0.591 0.265 206 199 192 0 0
2.6963 7.5364 -3.3352 -0.944 -0.272 -0.189 212 186 151 0 0
2.6869 7.4226 -3.3344 -0.866 -0.291 -0.407 212 188 154 0 0
2.7065 7.1420 -3.3473 -0.905 -0.349 -0.243 210 188 157 0 0
2.7022 7.0983 -3.3467 -0.649 -0.709 -0.277 210 187 155 0 0
2.7084 7.0078 -3.3509 -0.734 -0.489 -0.471 210 187 155 0 0
2.7167 6.9778 -3.3544 -0.822 -0.371 -0.432 209 186 154 0 0
3.0788 6.3324 -3.4954 -0.411 -0.875 -0.257 194 174 144 0 0
3.4153 6.1477 -3.6173 -0.567 -0.724 -0.392 193 173 146 0 0
3.4296 6.1421 -3.6224 -0.526 -0.755 -0.391 196 176 149 0 0
3.4763 6.1281 -3.6391 -0.704 -0.600 -0.380 190 170 143 0 0
3.4939 6.1081 -3.6457 -0.566 -0.647 -0.511 187 169 142 0 0
0.7662 11.1205 -2.5981 -0.894 -0.414 -0.169 168 110 90 0 0
0.9990 10.5568 -2.6915 -0.893 -0.413 -0.177 166 119 102 0 0
1.1213 10.2714 -2.7404 -0.903 -0.375 -0.207 167 116 97 0 0
1.4694 9.4484 -2.8797 -0.802 -0.589 -0.100 182 131 113 0 0
1.4766 9.4321 -2.8826 -0.871 -0.459 -0.173 170 119 102 0 0
1.5296 9.2960 -2.9040 -0.525 -0.772 -0.359 184 127 109 0 0
1.5659 9.1074 -2.9206 -0.874 -0.341 -0.346 176 128 109 0 0
1.6822 8.9193 -2.9654 -0.714 -0.547 -0.437 185 132 115 0 0
3.1266 9.5290 -3.4607 0.476 -0.713 -0.515 200 191 182 0 0
3.1134 9.4840 -3.4570 0.425 -0.801 -0.422 200 191 184 0 0
3.3640 9.5924 -3.5429 0.314 -0.604 -0.732 207 198 191 0 0
3.3309 9.4406 -3.5343 -0.117 -0.501 -0.858 208 201 195 0 0
3.1657 9.0727 -3.4838 -0.675 -0.642 0.364 210 206 200 0 0
3.1802 8.9623 -3.4912 -0.625 -0.648 0.435 208 203 197 0 0
3.1960 8.9309 -3.4974 -0.929 -0.297 0.221 207 202 196 0 0
3.4463 9.1336 -3.5812 -0.768 0.591 0.246 207 200 193 0 0
2.7227 7.7629 -3.3550 -0.992 0.037 -0.119 207 182 149 0 0
2.6977 7.4397 -3.3528 -0.905 -0.270 -0.328 211 187 151 0 0
2.7015 7.1616 -3.3599 -0.894 -0.387 -0.225 212 191 160 0 0
2.7049 7.1063 -3.3622 -0.837 -0.517 -0.178 212 190 158 0 0
2.7132 7.0953 -3.3654 -0.933 -0.330 -0.146 209 186 154 0 0
2.7259 6.9729 -3.3723 -0.901 -0.396 -0.178 208 185 152 0 0
2.7348 6.9628 -3.3757 -0.787 -0.581 -0.208 209 186 155 0 0
2.7434 6.9523 -3.3789 -0.787 -0.581 -0.208 212 191 159 0 0
3.0899 6.3464 -3.5132 -0.770 -0.622 -0.143 195 174 143 0 0
3.1397 6.3023 -3.5316 -0.660 -0.617 -0.429 192 171 142 0 0
3.1968 6.2814 -3.5521 -0.870 -0.409 -0.277 193 172 141 0 0
3.2211 6.2331 -3.5617 -0.539 -0.835 -0.106 191 171 143 0 0
3.4187 6.1548 -3.6328 -0.448 -0.838 -0.310 192 173 147 0 0
3.4321 6.1484 -3.6376 -0.495 -0.824 -0.275 197 177 150 0 0
3.4990 6.1164 -3.6618 -0.566 -0.647 -0.511 190 173 145 0 0
5.3573 6.7462 -4.3022 0.220 -0.831 -0.511 222 221 218 0 0
0.7570 11.6276 -2.6022 -0.985 0.172 0.016 231 230 228 0 0
0.7691 11.0999 -2.6166 -0.825 -0.453 -0.338 153 94 75 0 0
1.1212 10.2806 -2.7567 -0.903 -0.375 -0.207 176 124 106 0 0
1.1660 10.1744 -2.7746 -0.869 -0.394 -0.299 182 127 109 0 0
1.4297 9.5315 -2.8801 -0.548 -0.734 -0.400 166 115 97 0 0
1.4676 9.4533 -2.8950 -0.802 -0.589 -0.100 192 141 123 0 0
1.4757 9.4385 -2.8981 -0.897 -0.436 -0.069 181 128 111 0 0
1.6033 8.9866 -2.9519 -0.600 -0.695 -0.397 163 115 95 0 0
1.6403 8.9661 -2.9653 -0.677 -0.611 -0.411 159 111 95 0 0
1.6570 8.9395 -2.9717 -0.777 -0.547 -0.312 167 115 100 0 0
1.6836 8.9288 -2.9813 -0.723 -0.553 -0.414 183 130 115 0 0
1.6878 8.8827 -2.9837 -0.887 -0.381 -0.260 168 120 104 0 0
1.8167 8.6678 -3.0334 -0.495 -0.789 -0.364 162 116 100 0 0
1.8420 8.6549 -3.0425 -0.514 -0.755 -0.408 158 113 97 0 0
3.1135 9.5189 -3.4743 0.102 -0.548 -0.830 199 192 183 0 0
3.1166 9.4957 -3.4759 0.425 -0.801 -0.422 200 193 185 0 0
3.2289 9.3980 -3.5174 0.370 -0.607 -0.703 207 200 193 0 0
3.3041 9.4678 -3.5425 -0.052 -0.456 -0.889 207 201 196 0 0
3.1911 9.0340 -3.5111 -0.546 -0.737 0.398 210 207 200 0 0
2.6953 7.4632 -3.3666 -0.844 -0.516 -0.146 208 184 149 0 0
2.6999 7.4475 -3.3685 -0.837 -0.542 0.083 209 185 151 0 0
2.7061 7.4337 -3.3710 -0.905 -0.270 -0.328 211 187 151 0 0
2.7049 7.1114 -3.3768 -0.837 -0.517 -0.178 211 188 156 0 0
2.7136 7.1008 -3.3801 -0.933 -0.330 -0.146 208 185 152 0 0
2.7258 6.9970 -3.3864 -0.913 -0.298 -0.280 209 186 153 0 0
2.7279 6.9800 -3.3875 -0.899 -0.387 -0.207 209 185 151 0 0
2.7370 6.9700 -3.3909 -0.817 -0.433 -0.381 211 187 154 0 0
2.7434 6.9573 -3.3934 -0.818 -0.439 -0.372 212 190 158 0 0
2.7514 6.9272 -3.3968 -0.955 -0.203 -0.215 209 188 155 0 0
2.9928 6.4940 -3.4903 -0.491 -0.865 -0.103 201 177 145 0 0
3.1924 6.2994 -3.5645 -0.877 -0.396 -0.272 194 171 140 0 0
3.1993 6.2879 -3.5672 -0.840 -0.437 -0.321 191 169 137 0 0
3.2132 6.2652 -3.5725 -0.840 -0.437 -0.321 192 171 139 0 0
3.4254 6.1643 -3.6493 -0.888 -0.432 -0.158 192 173 146 0 0
3.4472 6.1477 -3.6573 -0.296 -0.914 -0.279 197 179 153 0 0
3.7098 6.1298 -3.7503 -0.683 -0.585 -0.437 183 166 135 0 0
3.7972 6.1106 -3.7815 -0.352 -0.786 -0.509 189 172 146 0 0
5.3849 6.7699 -4.3288 0.220 -0.831 -0.511 221 221 219 0 0
5.7285 6.9448 -4.4467 0.506 -0.858 0.088 223 223 221 0 0
0.7341 11.5397 -2.6134 -0.952 -0.030 -0.304 229 227 225 0 0
1.1226 10.2928 -2.7736 -0.771 -0.582 -0.258 174 121 103 0 0
1.1329 10.2809 -2.7775 -0.771 -0.582 -0.258 172 121 102 0 0
1.1569 10.2638 -2.7863 -0.701 -0.550 -0.454 179 127 108 0 0
1.1526 10.2220 -2.7855 -0.806 -0.578 -0.128 189 136 119 0 0
1.1602 10.2046 -2.7885 -0.696 -0.692 -0.192 150 94 78 0 0
1.1664 10.1843 -2.7910 -0.868 -0.407 -0.285 167 111 95 0 0
1.8274 8.6653 -3.0527 -0.454 -0.762 -0.462 163 118 102 0 0
3.0827 9.4854 -3.4820 0.345 -0.778 -0.525 201 192 184 0 0
3.2505 9.4332 -3.5424 0.353 -0.591 -0.725 207 200 194 0 0
3.4011 9.5724 -3.5931 -0.000 -0.558 -0.830 209 203 197 0 0
3.1891 8.9616 -3.5292 -0.432 -0.875 0.217 209 204 198 0 0
2.7793 7.9712 -3.4022 -0.982 -0.181 0.052 201 172 138 0 0
2.6977 7.4713 -3.3824 -0.783 -0.360 -0.507 208 185 151 0 0
2.7012 7.4545 -3.3840 -0.809 -0.421 -0.410 206 182 148 0 0
2.7169 7.4302 -3.3900 -0.825 -0.531 0.192 209 184 151 0 0
2.6964 7.2063 -3.3868 -0.898 -0.276 -0.342 213 190 157 0 0
2.7060 7.1177 -3.3918 -0.856 -0.491 -0.160 208 185 154 0 0
2.7134 7.1057 -3.3946 -0.856 -0.491 -0.160 209 187 155 0 0
2.7193 7.0924 -3.3970 -0.967 -0.254 -0.019 205 184 152 0 0
2.7313 6.9885 -3.4031 -0.863 -0.432 -0.261 209 185 151 0 0
2.7383 6.9764 -3.4058 -0.786 -0.531 -0.318 210 186 153 0 0
2.7475 6.9664 -3.4092 -0.803 -0.458 -0.381 212 190 158 0 0
2.7542 6.9350 -3.4122 -0.946 -0.247 -0.211 209 189 156 0 0
2.8506 6.6743 -3.4511 -0.858 -0.409 -0.310 197 175 143 0 0
2.8689 6.6550 -3.4579 -0.812 -0.467 -0.349 203 180 148 0 0
2.8726 6.6403 -3.4595 -0.796 -0.557 -0.235 203 179 148 0 0
2.9097 6.5843 -3.4736 -0.517 -0.788 0.334 200 175 143 0 0
2.9683 6.5122 -3.4957 -0.594 -0.744 -0.306 194 170 136 0 0
2.9798 6.5048 -3.4999 -0.594 -0.744 -0.306 199 175 142 0 0
2.9919 6.4978 -3.5043 -0.550 -0.801 -0.235 199 174 143 0 0
2.9961 6.4839 -3.5060 -0.851 -0.422 -0.314 196 171 140 0 0
3.1953 6.3063 -3.5798 -0.848 -0.449 -0.283 191 168 136 0 0
3.2156 6.2716 -3.5876 -0.840 -0.437 -0.321 184 162 131 0 0
3.5315 6.1501 -3.7016 -0.507 -0.722 -0.471 191 171 144 0 0
0.7762 11.5767 -2.6453 -0.947 0.117 -0.299 225 222 221 0 0
1.0542 10.5320 -2.7618 -0.489 -0.767 -0.415 178 131 116 0 0
1.1110 10.3116 -2.7857 -0.959 -0.248 -0.139 177 122 105 0 0
1.1207 10.2983 -2.7894 -0.908 -0.345 -0.236 182 127 110 0 0
1.2956 9.9361 -2.8577 -0.929 -0.335 -0.158 167 114 98 0 0
1.3564 9.7730 -2.8820 -0.896 -0.388 -0.214 179 126 110 0 0
1.4370 9.5316 -2.9148 -0.820 -0.457 -0.344 169 114 97 0 0
1.5656 9.2960 -2.9645 -0.824 -0.386 -0.415 166 115 98 0 0
3.1040 9.5211 -3.5069 0.211 -0.681 -0.701 201 191 184 0 0
3.3682 9.5651 -3.5999 0.408 -0.631 -0.660 209 202 198 0 0
3.0876 8.9955 -3.5100 -0.863 -0.274 0.425 210 207 202 0 0
2.7717 7.9907 -3.4150 -0.999 -0.017 -0.036 202 175 138 0 0
2.7749 7.9720 -3.4164 -0.973 -0.220 -0.071 202 174 138 0 0
2.7149 7.4335 -3.4043 -0.709 -0.699 -0.092 209 185 151 0 0
2.6986 7.1348 -3.4036 -0.728 -0.585 0.357 205 182 151 0 0
2.7067 7.1236 -3.4067 -0.869 -0.450 0.204 209 186 156 0 0
2.7189 7.0971 -3.4115 -0.891 -0.432 0.137 185 165 135 0 0
2.7272 7.0666 -3.4149 -0.954 -0.298 -0.026 209 186 155 0 0
2.7747 6.9034 -3.4346 -0.857 -0.302 -0.417 207 183 149 0 0
2.7857 6.8764 -3.4389 -0.971 -0.225 -0.082 206 182 148 0 0
2.7906 6.8625 -3.4409 -0.778 -0.593 -0.206 204 180 146 0 0
2.8201 6.7604 -3.4531 -0.772 -0.636 -0.001 202 179 147 0 0
2.8295 6.7509 -3.4566 -0.698 -0.690 -0.192 204 181 149 0 0
2.8364 6.7390 -3.4593 -0.840 -0.519 -0.162 204 181 149 0 0
2.8429 6.7268 -3.4618 -0.827 -0.549 -0.117 204 181 149 0 0
2.8394 6.7051 -3.4609 -0.873 -0.488 0.012 205 182 150 0 0
2.8747 6.6652 -3.4741 -0.741 -0.628 -0.238 204 181 150 0 0
2.8817 6.6536 -3.4768 -0.618 -0.775 0.130 206 182 151 0 0
2.9156 6.5943 -3.4899 -0.834 -0.436 -0.338 200 176 144 0 0
2.9174 6.5780 -3.4908 -0.767 -0.606 0.208 200 174 143 0 0
2.9544 6.5400 -3.5046 -0.793 -0.441 -0.421 196 172 140 0 0
2.9674 6.5161 -3.5096 -0.391 -0.874 -0.289 195 171 137 0 0
2.9797 6.5093 -3.5141 -0.444 -0.872 -0.207 197 173 140 0 0
2.9932 6.5036 -3.5190 -0.444 -0.872 -0.207 200 175 144 0 0
3.0013 6.4931 -3.5220 -0.771 -0.629 -0.101 196 172 141 0 0
3.0054 6.4790 -3.5237 -0.945 -0.326 -0.023 199 175 144 0 0
3.1972 6.3123 -3.5947 -0.848 -0.449 -0.283 187 164 132 0 0
3.6959 6.1449 -3.7746 -0.744 -0.535 -0.399 188 171 143 0 0
5.6142 6.9561 -4.4419 0.324 -0.827 -0.459 220 220 218 0 0
0.6675 11.4332 -2.6265 -0.094 -0.960 0.265 230 229 226 0 0
0.7641 11.2767 -2.6634 -0.809 -0.367 -0.459 215 208 204 0 0
0.9917 10.7220 -2.7533 -0.832 -0.451 -0.324 156 114 100 0 0
1.2954 9.9444 -2.8738 -0.929 -0.335 -0.158 171 118 100 0 0
1.5831 9.1113 -2.9896 -0.970 -0.215 -0.110 185 136 119 0 0
1.5883 9.0926 -2.9917 -0.858 -0.448 -0.252 194 147 130 0 0
1.7092 8.9382 -3.0372 -0.816 -0.393 -0.425 176 128 114 0 0
1.8241 8.7251 -3.0816 -0.591 -0.731 -0.341 164 114 100 0 0
1.8583 8.6998 -3.0941 -0.644 -0.695 -0.321 157 111 95 0 0
1.8696 8.6913 -3.0983 -0.644 -0.695 -0.321 163 116 100 0 0
3.0631 9.4740 -3.5110 0.402 -0.742 -0.537 202 194 187 0 0
3.2850 9.5198 -3.5894 0.436 -0.607 -0.665 209 202 194 0 0
3.0801 8.9929 -3.5247 -0.892 -0.263 0.366 212 208 204 0 0
3.1951 8.9317 -3.5667 -0.767 -0.638 -0.076 210 205 199 0 0
2.7465 7.7913 -3.4250 -0.939 -0.032 -0.341 207 181 147 0 0
2.7098 7.1124 -3.4227 -0.891 -0.432 0.137 211 190 160 0 0
2.7159 7.0991 -3.4251 -0.891 -0.432 0.137 210 191 160 0 0
2.7236 7.0681 -3.4283 -0.955 -0.265 0.131 207 186 155 0 0
2.7407 7.0661 -3.4344 -0.857 -0.509 0.074 205 182 151 0 0
2.8196 6.7834 -3.4670 -0.864 -0.430 -0.261 210 187 156 0 0
2.8211 6.7662 -3.4678 -0.739 -0.648 -0.184 204 181 149 0 0
2.8287 6.7550 -3.4707 -0.840 -0.519 -0.162 206 183 151 0 0
2.8737 6.6690 -3.4881 -0.721 -0.682 -0.120 202 180 148 0 0
2.8932 6.6508 -3.4954 -0.601 -0.737 -0.310 201 178 145 0 0
2.8912 6.6308 -3.4950 -0.526 -0.683 -0.506 203 179 146 0 0
2.9211 6.6041 -3.5060 -0.776 -0.601 -0.190 202 179 147 0 0
2.9297 6.5940 -3.5093 -0.776 -0.601 -0.190 202 177 147 0 0
2.9407 6.5860 -3.5133 -0.936 -0.350 -0.038 204 179 148 0 0
2.9836 6.5174 -3.5297 -0.764 -0.585 -0.273 190 166 133 0 0
2.9917 6.5069 -3.5327 -0.783 -0.542 -0.305 195 170 139 0 0
3.0048 6.5008 -3.5375 -0.634 -0.746 -0.205 194 169 139 0 0
3.0134 6.4907 -3.5407 -0.587 -0.710 -0.388 199 176 145 0 0
3.1969 6.3165 -3.6089 -0.731 -0.601 -0.324 193 170 138 0 0
3.2089 6.3092 -3.6132 -0.833 -0.406 -0.375 186 163 132 0 0
5.4324 6.6639 -4.3997 -0.275 -0.508 0.816 226 226 224 0 0
0.6498 11.4399 -2.6375 -0.750 -0.661 0.026 230 229 227 0 0
0.6607 11.4274 -2.6416 -0.750 -0.661 0.026 230 229 225 0 0
0.7660 11.2926 -2.6812 -0.758 -0.575 -0.309 218 213 210 0 0
1.0867 10.4829 -2.8077 -0.801 -0.521 -0.296 166 119 103 0 0
1.3147 9.9589 -2.8969 -0.654 -0.725 0.216 178 124 106 0 0
1.6711 8.9914 -3.0385 -0.652 -0.625 -0.429 175 123 109 0 0
1.6912 8.9701 -3.0460 -0.717 -0.548 -0.430 181 131 117 0 0
1.7412 8.8901 -3.0651 -0.869 -0.390 -0.305 164 118 102 0 0
1.8699 8.6987 -3.1139 -0.639 -0.696 -0.329 158 111 95 0 0
3.0934 9.5771 -3.5383 0.234 -0.577 -0.782 201 193 185 0 0
3.0866 9.5128 -3.5368 0.403 -0.770 -0.494 204 194 188 0 0
3.3481 9.5815 -3.6292 0.578 -0.749 -0.324 210 203 195 0 0
3.4083 9.6317 -3.6500 0.538 -0.719 -0.440 210 204 198 0 0
2.9482 9.0121 -3.4947 -0.595 0.172 0.785 210 204 198 0 0
3.1023 9.1839 -3.5472 -0.414 -0.047 0.909 210 205 199 0 0
3.1040 9.1599 -3.5482 -0.183 -0.441 0.878 210 205 200 0 0
3.1024 9.1317 -3.5480 -0.304 -0.713 0.632 212 207 203 0 0
3.0714 8.9378 -3.5398 -0.628 -0.345 0.697 213 208 202 0 0
3.1989 9.0199 -3.5842 -0.163 -0.618 -0.769 213 208 204 0 0
3.2148 9.0139 -3.5899 -0.168 -0.631 -0.757 213 208 203 0 0
2.8006 8.0137 -3.4566 -0.978 0.027 -0.208 204 178 143 0 0
2.7344 7.6971 -3.4376 -0.997 0.035 -0.069 210 185 151 0 0
2.7092 7.1169 -3.4371 -0.867 -0.498 0.024 209 186 155 0 0
2.7162 7.1046 -3.4398 -0.867 -0.498 0.024 213 192 160 0 0
2.7215 7.0710 -3.4422 -0.847 -0.455 0.274 208 187 156 0 0
2.7397 7.0701 -3.4487 -0.829 -0.557 0.050 207 186 155 0 0
2.8137 6.8572 -3.4783 -0.674 -0.631 -0.385 198 175 141 0 0
2.8306 6.7432 -3.4860 -0.658 -0.709 -0.255 202 179 147 0 0
2.9233 6.6108 -3.5211 -0.900 -0.411 -0.142 202 177 146 0 0
2.9920 6.5118 -3.5471 -0.654 -0.646 -0.393 193 168 137 0 0
3.0487 6.4381 -3.5685 -0.870 -0.449 -0.203 202 179 148 0 0
3.0554 6.4264 -3.5710 -0.791 -0.561 -0.245 200 177 147 0 0
3.1495 6.3502 -3.6058 -0.711 -0.503 -0.492 192 171 140 0 0
3.1910 6.3160 -3.6211 -0.867 -0.478 0.142 193 171 140 0 0
3.2079 6.3129 -3.6272 -0.731 -0.601 -0.324 189 168 137 0 0
3.6052 6.1692 -3.7713 -0.478 -0.745 -0.465 185 167 141 0 0
3.6178 6.1619 -3.7759 -0.626 -0.623 -0.469 189 170 146 0 0
0.6154 11.5682 -2.6408 -0.864 0.204 0.459 235 234 232 0 0
0.6508 11.4135 -2.6556 -0.660 -0.668 0.344 231 228 224 0 0
0.9231 10.8777 -2.7605 -0.935 -0.355 -0.026 172 128 116 0 0
0.9993 10.7234 -2.7899 -0.818 -0.479 -0.318 185 146 135 0 0
1.0414 10.6036 -2.8066 -0.721 -0.505 -0.474 173 129 115 0 0
1.0948 10.4756 -2.8275 -0.775 -0.570 -0.272 172 126 113 0 0
1.1131 10.4801 -2.8340 -0.381 -0.915 -0.129 177 132 120 0 0
1.3259 9.8952 -2.9182 -0.896 -0.417 -0.154 174 123 106 0 0
1.3339 9.8795 -2.9213 -0.723 -0.609 -0.326 176 125 108 0 0
1.3447 9.8688 -2.9253 -0.723 -0.609 -0.326 173 121 104 0 0
1.4736 9.5333 -2.9761 -0.909 -0.376 -0.183 168 115 97 0 0
1.7408 8.9229 -3.0801 -0.918 -0.376 -0.130 181 134 118 0 0
2.3773 8.9762 -3.3077 0.216 -0.733 -0.646 145 101 89 0 0
2.9780 9.4567 -3.5166 0.334 -0.745 -0.577 202 192 184 0 0
3.0637 9.2736 -3.5498 0.509 -0.807 -0.299 208 201 193 0 0
3.0815 9.1644 -3.5576 -0.414 -0.047 0.909 211 205 199 0 0
3.0730 9.1272 -3.5551 -0.305 -0.092 0.948 212 206 201 0 0
3.1967 8.9728 -3.6015 0.062 -0.989 -0.131 213 208 203 0 0
3.2012 8.9528 -3.6034 -0.425 -0.844 -0.328 211 206 201 0 0
2.7499 7.7202 -3.4583 -1.000 0.009 -0.027 210 185 151 0 0
2.7501 7.6989 -3.4586 -0.999 0.031 -0.034 209 183 151 0 0
2.7360 7.6618 -3.4541 -0.957 -0.014 -0.289 210 185 151 0 0
2.6957 7.1277 -3.4469 -0.663 -0.748 0.033 207 183 152 0 0
2.7064 7.1192 -3.4508 -0.779 -0.627 0.002 207 184 151 0 0
2.7150 7.1085 -3.4541 -0.779 -0.627 0.002 210 187 154 0 0
2.7246 7.0989 -3.4576 -0.796 -0.593 -0.126 209 188 156 0 0
2.7372 7.0922 -3.4622 -0.798 -0.557 -0.232 210 188 157 0 0
2.7445 7.0802 -3.4650 -0.800 -0.557 -0.223 210 189 157 0 0
2.8158 6.8642 -3.4935 -0.674 -0.631 -0.385 202 178 144 0 0
2.9302 6.6219 -3.5378 -0.810 -0.587 -0.011 199 175 143 0 0
2.9381 6.6111 -3.5408 -0.810 -0.587 -0.011 198 175 143 0 0
2.9419 6.5965 -3.5423 -0.909 -0.360 -0.210 198 175 143 0 0
3.0496 6.4435 -3.5831 -0.902 -0.390 -0.185 198 176 145 0 0
3.0562 6.4316 -3.5856 -0.791 -0.561 -0.245 199 176 146 0 0
3.2074 6.3170 -3.6413 -0.240 -0.918 -0.315 191 170 140 0 0
3.3007 6.2908 -3.6752 -0.608 -0.623 -0.493 194 175 144 0 0
3.5789 6.1873 -3.7763 -0.305 -0.856 -0.416 189 169 140 0 0
3.5967 6.1841 -3.7828 -0.305 -0.856 -0.416 193 174 146 0 0
3.6058 6.1741 -3.7861 -0.422 -0.805 -0.418 191 173 147 0 0
5.2682 6.7143 -4.3749 0.409 -0.906 0.111 220 221 217 0 0
5.3175 6.7290 -4.3924 0.326 -0.926 -0.192 220 220 218 0 0
5.3275 6.6410 -4.3972 0.140 -0.989 0.058 224 225 221 0 0
5.3943 6.6670 -4.4208 -0.482 -0.872 -0.089 225 226 222 0 0
5.4088 6.6577 -4.4261 -0.102 -0.937 0.333 225 226 223 0 0
0.5431 11.4304 -2.6340 -0.822 -0.004 0.569 235 234 232 0 0
0.6031 11.4238 -2.6556 -0.729 -0.402 0.554 232 231 229 0 0
0.6128 11.4082 -2.6593 -0.535 -0.477 0.698 232 230 228 0 0
1.0943 10.4841 -2.8440 -0.775 -0.570 -0.272 189 143 131 0 0
1.3132 9.9736 -2.9291 -0.541 -0.789 -0.291 174 124 106 0 0
1.3316 9.9459 -2.9360 -0.958 -0.279 -0.062 166 117 101 0 0
1.3375 9.9260 -2.9384 -0.958 -0.279 -0.062 170 119 103 0 0
1.3854 9.8000 -2.9572 -0.829 -0.466 -0.309 169 120 103 0 0
1.4266 9.7241 -2.9729 -0.710 -0.593 -0.379 157 105 87 0 0
1.4771 9.5475 -2.9933 -0.869 -0.382 -0.316 174 121 103 0 0
1.6825 9.0513 -3.0733 -0.357 -0.930 -0.082 163 112 97 0 0
1.6992 9.0512 -3.0793 -0.623 -0.781 -0.044 166 119 103 0 0
1.7090 9.0399 -3.0830 -0.820 -0.558 0.129 155 108 93 0 0
1.7176 9.0267 -3.0862 -0.820 -0.558 0.129 165 119 103 0 0
1.7334 8.9452 -3.0930 -0.848 -0.429 -0.311 175 128 112 0 0
1.7416 8.9314 -3.0960 -0.892 -0.392 -0.224 179 132 116 0 0
1.8334 8.7345 -3.1315 -0.727 -0.671 -0.146 167 120 104 0 0
2.0956 8.7885 -3.2252 0.279 -0.920 -0.277 135 89 73 0 0
2.9614 9.4416 -3.5285 0.549 -0.796 -0.254 203 194 187 0 0
2.9333 8.9810 -3.5242 -0.833 -0.381 0.401 214 207 201 0 0
3.3352 9.0470 -3.6679 -0.814 0.558 0.164 212 206 200 0 0
2.7574 7.7992 -3.4755 -0.997 0.047 -0.058 209 184 153 0 0
2.7479 7.7022 -3.4733 -0.971 -0.189 -0.147 208 184 148 0 0
2.7484 7.2074 -3.4796 -0.973 -0.201 -0.112 211 186 155 0 0
3.0961 6.4534 -3.6140 -0.512 -0.731 -0.451 199 176 145 0 0
3.2644 6.3170 -3.6762 -0.417 -0.855 -0.310 194 173 144 0 0
3.7541 6.1893 -3.8540 -0.376 -0.746 -0.549 189 170 144 0 0
5.3914 6.8617 -4.4346 0.318 -0.835 -0.450 217 218 213 0 0
5.2447 6.7031 -4.3838 0.394 -0.913 0.107 220 221 216 0 0
5.1969 6.6514 -4.3673 0.250 -0.936 0.248 221 221 219 0 0
5.3573 6.6470 -4.4250 0.181 -0.923 0.339 225 225 221 0 0
5.3880 6.6486 -4.4361 -0.413 -0.910 -0.040 225 226 221 0 0
5.4104 6.6447 -4.4442 -0.282 -0.939 0.196 225 226 221 0 0
0.8094 11.1201 -2.7508 -0.916 -0.280 0.289 219 213 210 0 0
0.9874 10.7890 -2.8188 -0.946 -0.302 -0.121 174 141 132 0 0
1.3448 9.9175 -2.9575 -0.592 -0.590 -0.548 167 115 98 0 0
1.3858 9.8092 -2.9735 -0.854 -0.447 -0.267 175 124 107 0 0
1.4178 9.7466 -2.9858 -0.618 -0.758 -0.210 176 124 107 0 0
1.4254 9.7303 -2.9887 -0.462 -0.841 -0.280 168 115 97 0 0
1.6794 9.0537 -3.0880 -0.304 -0.942 -0.140 138 90 76 0 0
1.6965 9.0542 -3.0941 -0.623 -0.781 -0.044 165 117 102 0 0
1.7079 9.0455 -3.0983 -0.593 -0.805 -0.036 150 103 87 0 0
1.8489 8.7649 -3.1524 -0.753 -0.592 -0.285 170 123 108 0 0
2.0918 8.7898 -3.2397 0.352 -0.924 -0.149 143 97 81 0 0
2.9642 9.4527 -3.5472 0.526 -0.794 -0.304 204 195 188 0 0
2.7560 9.1450 -3.4755 -0.748 -0.479 0.460 205 196 189 0 0
2.9516 9.1414 -3.5461 0.071 -0.860 0.506 210 203 195 0 0
2.9777 9.1492 -3.5554 -0.425 -0.460 0.780 211 204 196 0 0
