ply
format ascii 1.0
element vertex 812
property float x
property float y
property float z
property float nx
property float ny
property float nz
property uchar diffuse_red
property uchar diffuse_green
property uchar diffuse_blue
property uchar class
property uchar detection
end_header
4.0856 6.5542 -4.8424 -0.247 -0.686 0.684 224 224 221 0 0
0.6729 11.3387 -2.1427 -0.964 0.243 -0.105 237 236 233 0 0
0.5971 11.0768 -2.1486 -0.958 0.140 -0.249 171 122 106 0 0
0.5939 11.0258 -2.1561 -0.897 -0.043 -0.441 176 122 102 0 0
0.6364 10.9105 -2.2000 -0.917 -0.221 -0.332 164 107 87 0 0
0.7517 10.7052 -2.2996 -0.978 -0.189 -0.086 187 136 115 0 0
0.7614 10.6534 -2.3143 -0.988 -0.134 -0.074 159 105 84 0 0
0.9435 10.3920 -2.4604 -0.917 -0.248 -0.311 181 124 104 0 0
0.9660 10.3161 -2.4863 -0.825 -0.306 -0.476 179 126 107 0 0
0.9747 10.3067 -2.4927 -0.863 -0.294 -0.410 178 123 103 0 0
1.1780 9.9670 -2.6645 -0.837 -0.341 -0.428 170 114 97 0 0
1.1856 9.9560 -2.6706 -0.837 -0.341 -0.428 170 114 99 0 0
1.1932 9.9450 -2.6767 -0.837 -0.341 -0.428 160 103 88 0 0
1.2100 9.9455 -2.6858 -0.919 -0.292 -0.264 188 133 115 0 0
1.2158 9.9322 -2.6913 -0.919 -0.292 -0.264 183 128 108 0 0
1.2288 9.8870 -2.7066 -0.863 -0.404 -0.302 154 98 81 0 0
1.2344 9.8735 -2.7120 -0.738 -0.610 -0.289 178 126 106 0 0
1.2617 9.8867 -2.7245 -0.662 -0.750 0.004 169 115 96 0 0
1.2702 9.8768 -2.7309 -0.848 -0.489 0.203 159 104 87 0 0
1.2943 9.8451 -2.7497 -0.730 -0.563 -0.388 184 130 109 0 0
1.3701 9.6536 -2.8255 -0.759 -0.462 -0.459 169 113 96 0 0
1.5937 9.1236 -3.0425 -0.729 -0.537 -0.426 169 119 104 0 0
1.6237 9.0982 -3.0634 -0.878 -0.315 -0.362 163 114 99 0 0
1.6332 9.0891 -3.0702 -0.808 -0.390 -0.442 153 104 90 0 0
1.7475 8.9799 -3.1521 -0.887 -0.262 -0.382 171 125 110 0 0
1.7855 8.9242 -3.1828 -0.805 -0.396 -0.443 171 120 102 0 0
1.8033 8.9044 -3.1960 -0.969 -0.092 -0.228 168 115 101 0 0
2.6255 8.8926 -3.6453 -0.528 -0.605 0.596 220 215 209 0 0
2.6147 8.8638 -3.6446 -0.614 -0.440 0.655 221 216 210 0 0
2.6100 8.8405 -3.6463 -0.705 -0.699 -0.124 222 217 211 0 0
2.7448 8.7269 -3.7400 -0.991 0.128 0.049 224 220 216 0 0
2.6242 8.5318 -3.7096 -0.743 -0.611 -0.274 225 222 217 0 0
3.0732 8.5761 -3.9458 -0.774 0.515 -0.367 223 218 214 0 0
2.9197 8.2880 -3.9142 -0.998 0.067 -0.006 199 172 139 0 0
2.9285 8.2764 -3.9211 -0.976 -0.203 -0.076 197 170 139 0 0
2.9257 8.2560 -3.9233 -0.999 0.044 -0.025 199 174 142 0 0
2.9315 8.2421 -3.9289 -0.996 -0.079 0.033 202 178 142 0 0
2.8754 7.9484 -3.9513 -0.967 0.085 -0.239 205 180 147 0 0
2.8636 7.8518 -3.9623 -0.951 -0.238 -0.199 203 177 142 0 0
2.8682 7.8377 -3.9674 -0.923 -0.354 -0.153 202 175 140 0 0
2.8652 7.8006 -3.9724 -0.995 -0.002 -0.096 204 179 144 0 0
2.8853 7.7108 -3.9995 -0.954 -0.160 -0.253 206 182 148 0 0
2.9195 7.4613 -4.0631 -0.982 -0.082 0.168 203 179 145 0 0
2.9302 7.4516 -4.0706 -0.787 -0.571 -0.233 201 177 143 0 0
2.9362 7.4387 -4.0762 -0.932 -0.285 -0.223 197 173 139 0 0
2.9458 7.4283 -4.0833 -0.950 -0.225 -0.218 201 177 143 0 0
3.7589 6.8087 -4.6372 -0.487 -0.720 -0.494 162 141 112 0 0
4.0378 6.7863 -4.7929 -0.505 -0.746 -0.434 211 210 206 0 0
4.0340 6.5690 -4.8299 -0.023 -0.747 0.664 223 223 221 0 0
4.0817 6.5428 -4.8606 -0.174 -0.781 0.600 224 224 222 0 0
0.6851 11.3704 -2.1610 -0.937 0.236 -0.259 238 235 233 0 0
0.6054 11.1016 -2.1657 -0.979 0.159 -0.127 182 134 118 0 0
0.6010 11.0486 -2.1728 -0.897 -0.043 -0.441 168 114 94 0 0
0.6802 10.8540 -2.2509 -0.722 -0.610 -0.328 163 108 87 0 0
0.7416 10.7679 -2.2998 -0.929 -0.163 -0.331 175 122 103 0 0
0.7485 10.7559 -2.3057 -0.889 -0.301 -0.346 176 123 105 0 0
0.7536 10.7412 -2.3111 -0.958 -0.143 -0.250 153 102 82 0 0
0.7633 10.6671 -2.3297 -0.988 -0.061 -0.141 179 125 105 0 0
0.8972 10.5322 -2.4269 -0.802 -0.441 -0.402 186 129 106 0 0
0.9111 10.4867 -2.4426 -0.909 -0.308 -0.282 171 116 94 0 0
0.9662 10.3482 -2.4975 -0.742 -0.597 -0.303 176 124 105 0 0
0.9763 10.3406 -2.5044 -0.742 -0.623 -0.250 165 113 94 0 0
0.9858 10.3323 -2.5110 -0.821 -0.564 -0.081 180 125 105 0 0
0.9956 10.3244 -2.5178 -0.699 -0.699 -0.151 166 111 91 0 0
1.0274 10.2823 -2.5427 -0.667 -0.563 -0.489 177 124 104 0 0
1.0353 10.2717 -2.5489 -0.791 -0.425 -0.440 156 103 84 0 0
1.0420 10.2594 -2.5548 -0.879 -0.263 -0.399 151 98 80 0 0
1.0832 10.1665 -2.5939 -0.923 -0.055 -0.381 161 110 93 0 0
1.1087 10.1162 -2.6168 -0.966 -0.108 -0.236 172 117 101 0 0
1.1177 10.1070 -2.6234 -0.776 -0.477 -0.412 173 116 97 0 0
1.1297 10.0601 -2.6383 -0.874 -0.351 -0.336 177 122 103 0 0
1.1809 9.9806 -2.6805 -0.868 -0.268 -0.418 177 121 106 0 0
1.1875 9.9683 -2.6863 -0.868 -0.268 -0.418 178 122 107 0 0
1.2234 9.9516 -2.7089 -0.777 -0.469 -0.421 176 121 100 0 0
1.2305 9.8989 -2.7222 -0.802 -0.513 -0.307 171 115 96 0 0
1.2385 9.8885 -2.7285 -0.687 -0.574 -0.446 171 118 97 0 0
1.2475 9.8791 -2.7350 -0.757 -0.477 -0.447 176 124 103 0 0
1.2571 9.8705 -2.7418 -0.804 -0.451 -0.389 180 128 108 0 0
1.2913 9.8717 -2.7603 -0.733 -0.522 -0.436 175 122 101 0 0
1.2945 9.8552 -2.7650 -0.782 -0.513 -0.355 179 125 104 0 0
1.3353 9.7624 -2.8038 -0.727 -0.590 -0.351 172 119 100 0 0
1.3734 9.6669 -2.8417 -0.680 -0.602 -0.420 173 120 103 0 0
1.5001 9.4556 -2.9487 -0.817 -0.510 -0.268 163 109 91 0 0
1.5083 9.4451 -2.9550 -0.839 -0.458 -0.293 175 120 102 0 0
1.5335 9.4339 -2.9708 -0.633 -0.678 -0.374 176 120 103 0 0
1.5931 9.2465 -3.0369 -0.968 -0.050 -0.247 183 129 111 0 0
1.5953 9.2296 -3.0411 -0.960 -0.052 -0.274 181 126 109 0 0
1.6039 9.2005 -3.0511 -0.832 -0.354 -0.426 180 126 108 0 0
1.6254 9.1088 -3.0792 -0.914 -0.295 -0.278 174 123 109 0 0
1.6364 9.1013 -3.0865 -0.819 -0.391 -0.420 156 107 93 0 0
1.6447 9.0910 -3.0929 -0.808 -0.390 -0.442 160 111 96 0 0
1.6578 9.0856 -3.1010 -0.843 -0.316 -0.436 156 105 89 0 0
1.7378 9.0165 -3.1571 -0.911 -0.268 -0.315 152 104 89 0 0
1.7521 8.9932 -3.1690 -0.749 -0.535 -0.390 182 135 121 0 0
1.8865 8.8266 -3.2722 -0.711 -0.578 -0.401 165 118 101 0 0
2.6125 8.8706 -3.6603 -0.449 -0.802 0.394 221 216 210 0 0
2.6290 8.5628 -3.7245 -0.750 -0.393 -0.531 226 223 218 0 0
2.9316 8.2869 -3.9389 -0.919 0.077 -0.386 199 173 141 0 0
2.9278 8.2657 -3.9407 -0.957 0.047 -0.288 201 177 145 0 0
2.9331 8.2514 -3.9461 -0.900 -0.127 -0.416 201 177 141 0 0
2.8733 8.0973 -3.9412 -0.754 -0.654 -0.063 205 181 146 0 0
2.8779 8.0828 -3.9462 -0.846 -0.511 -0.149 205 181 147 0 0
2.8629 7.8241 -3.9844 -0.894 -0.229 -0.384 204 178 141 0 0
2.8711 7.8125 -3.9910 -0.935 -0.074 -0.347 203 177 142 0 0
2.8702 7.7944 -3.9938 -0.966 -0.088 -0.245 202 176 141 0 0
2.8727 7.7788 -3.9979 -0.966 -0.088 -0.245 203 179 144 0 0
2.8756 7.7461 -4.0053 -0.892 -0.276 -0.359 201 177 143 0 0
2.8863 7.7191 -4.0161 -0.928 -0.152 -0.341 205 181 147 0 0
2.8810 7.6637 -4.0231 -0.940 -0.262 -0.220 205 181 148 0 0
2.8860 7.6500 -4.0283 -0.940 -0.262 -0.220 205 180 148 0 0
2.9546 7.4077 -4.1091 -0.858 -0.500 -0.120 200 177 143 0 0
2.9675 7.3659 -4.1236 -0.898 -0.332 -0.288 200 176 142 0 0
2.9752 7.3542 -4.1299 -0.943 -0.310 -0.124 199 174 143 0 0
2.9803 7.3408 -4.1351 -0.943 -0.310 -0.124 201 176 145 0 0
3.0383 7.2446 -4.1840 -0.884 -0.413 -0.219 203 179 146 0 0
3.1501 7.1648 -4.2592 -0.815 -0.547 0.192 198 173 140 0 0
3.7689 6.8209 -4.6584 -0.322 -0.869 -0.375 178 158 131 0 0
4.1281 6.8053 -4.8571 -0.700 -0.254 -0.667 213 212 207 0 0
4.0423 6.5471 -4.8566 -0.093 -0.867 0.490 224 224 222 0 0
0.6995 11.4058 -2.1800 -0.920 0.213 -0.328 238 235 234 0 0
0.6388 11.2133 -2.1811 -0.941 0.337 -0.040 226 220 211 0 0
0.6210 11.1381 -2.1847 -0.977 0.180 -0.112 192 140 128 0 0
0.6096 11.0738 -2.1899 -0.959 0.060 -0.275 173 118 101 0 0
0.6081 11.0484 -2.1936 -0.902 -0.236 -0.361 157 101 82 0 0
0.6829 10.8694 -2.2665 -0.837 -0.455 -0.305 174 117 98 0 0
0.6912 10.8595 -2.2728 -0.811 -0.550 -0.201 167 112 91 0 0
0.7393 10.7978 -2.3101 -0.924 -0.196 -0.327 170 114 96 0 0
0.7444 10.7831 -2.3155 -0.924 -0.196 -0.327 166 112 92 0 0
0.7500 10.7692 -2.3211 -0.889 -0.301 -0.346 179 127 105 0 0
0.7553 10.7548 -2.3265 -0.995 -0.074 -0.065 172 121 101 0 0
0.7605 10.7404 -2.3320 -0.926 -0.191 -0.325 168 117 98 0 0
0.8629 10.6033 -2.4124 -0.854 -0.412 -0.318 185 133 112 0 0
0.8561 10.5498 -2.4182 -0.850 -0.430 -0.304 190 137 119 0 0
0.9297 10.4585 -2.4747 -0.885 -0.349 -0.308 175 125 108 0 0
0.9651 10.3571 -2.5122 -0.742 -0.597 -0.303 176 125 106 0 0
1.0286 10.2942 -2.5581 -0.667 -0.563 -0.489 160 107 87 0 0
1.0385 10.2863 -2.5650 -0.938 -0.283 -0.199 169 116 98 0 0
1.0852 10.1793 -2.6096 -0.866 -0.301 -0.401 175 122 105 0 0
1.1111 10.1295 -2.6327 -0.966 -0.108 -0.236 177 123 106 0 0
1.1188 10.1186 -2.6388 -0.776 -0.477 -0.412 175 119 100 0 0
1.1367 10.0999 -2.6519 -0.894 -0.365 -0.260 176 120 103 0 0
1.1602 10.0263 -2.6779 -0.847 -0.520 -0.107 179 123 103 0 0
1.2198 9.9571 -2.7229 -0.705 -0.645 -0.295 179 125 104 0 0
1.2325 9.9113 -2.7380 -0.814 -0.430 -0.390 173 116 97 0 0
1.2575 9.8809 -2.7571 -0.833 -0.414 -0.368 172 121 101 0 0
1.2653 9.8700 -2.7633 -0.935 -0.299 -0.190 171 120 101 0 0
1.2926 9.8830 -2.7759 -0.733 -0.522 -0.436 187 135 116 0 0
1.2986 9.8700 -2.7815 -0.800 -0.469 -0.375 182 127 110 0 0
1.3157 9.7890 -2.8053 -0.778 -0.461 -0.426 171 119 98 0 0
1.3273 9.7827 -2.8127 -0.792 -0.511 -0.333 176 123 102 0 0
1.3351 9.7719 -2.8189 -0.734 -0.630 -0.254 183 130 109 0 0
1.3354 9.7521 -2.8227 -0.861 -0.388 -0.327 163 110 90 0 0
1.3514 9.7308 -2.8352 -0.887 -0.385 -0.257 166 113 95 0 0
1.3739 9.6771 -2.8571 -0.680 -0.602 -0.420 162 109 93 0 0
1.4819 9.5035 -2.9471 -0.865 -0.353 -0.356 160 107 90 0 0
1.4857 9.4881 -2.9519 -0.897 -0.360 -0.255 173 119 102 0 0
1.4912 9.4745 -2.9573 -0.817 -0.510 -0.268 184 128 110 0 0
1.4996 9.4643 -2.9638 -0.817 -0.510 -0.268 177 122 104 0 0
1.5081 9.4542 -2.9702 -0.817 -0.510 -0.268 176 121 101 0 0
1.5165 9.4440 -2.9767 -0.817 -0.510 -0.268 169 114 94 0 0
1.5527 9.4057 -3.0033 -0.906 -0.371 -0.204 175 119 102 0 0
1.6268 9.1192 -3.0949 -0.914 -0.295 -0.278 158 106 93 0 0
1.6819 9.0815 -3.1317 -0.774 -0.475 -0.419 153 104 87 0 0
1.6913 9.0723 -3.1385 -0.774 -0.475 -0.419 158 107 90 0 0
1.8713 8.8578 -3.2753 -0.860 -0.379 -0.342 157 110 92 0 0
1.8893 8.8379 -3.2886 -0.759 -0.497 -0.421 170 123 106 0 0
2.6955 9.3090 -3.6456 0.434 -0.839 -0.328 207 199 192 0 0
2.5913 8.8800 -3.6651 -0.852 -0.210 0.479 222 217 211 0 0
2.8024 8.9872 -3.7615 -0.744 -0.651 0.149 222 219 212 0 0
2.8112 8.9752 -3.7684 -0.763 -0.231 0.604 221 218 211 0 0
2.8022 8.9479 -3.7684 -0.983 -0.119 -0.139 222 219 212 0 0
2.7544 8.6382 -3.7975 -0.678 -0.548 -0.490 228 224 219 0 0
2.7817 8.6419 -3.8117 -0.615 -0.553 0.562 225 223 220 0 0
2.8883 8.0627 -3.9734 -0.967 -0.080 -0.241 201 177 143 0 0
2.8786 7.8430 -4.0072 -0.904 -0.353 -0.243 202 175 139 0 0
2.8787 7.7907 -4.0166 -0.945 -0.195 -0.263 205 179 143 0 0
2.8790 7.7561 -4.0229 -0.888 -0.320 -0.331 202 178 143 0 0
2.8908 7.7298 -4.0340 -0.950 -0.165 -0.265 204 180 146 0 0
2.9574 7.4843 -4.1143 -0.944 -0.251 -0.215 200 176 140 0 0
3.0640 7.2347 -4.2171 -0.960 -0.176 -0.217 194 170 136 0 0
3.1407 7.1661 -4.2712 -0.776 -0.571 0.267 201 177 144 0 0
3.1778 7.1226 -4.2993 -0.906 -0.360 -0.224 194 170 137 0 0
4.1210 6.8426 -4.8652 -0.313 -0.738 -0.598 213 212 208 0 0
4.1146 6.8225 -4.8653 -0.698 -0.245 -0.673 214 213 208 0 0
4.0345 6.6819 -4.8465 -0.637 -0.022 0.771 217 218 213 0 0
0.6908 11.3323 -2.2057 -0.919 0.394 0.006 238 234 230 0 0
0.6267 11.1590 -2.2012 -0.977 0.180 -0.112 179 131 119 0 0
0.6256 10.9731 -2.2336 -0.810 -0.323 -0.489 173 119 95 0 0
0.6473 10.9615 -2.2475 -0.903 -0.144 -0.405 176 120 97 0 0
0.6565 10.9530 -2.2541 -0.976 -0.177 -0.130 175 115 94 0 0
0.7448 10.8172 -2.3266 -0.869 -0.291 -0.401 156 101 81 0 0
0.8198 10.6616 -2.3954 -0.869 -0.443 -0.223 175 118 99 0 0
0.8331 10.6589 -2.4031 -0.876 -0.388 -0.286 169 112 93 0 0
0.8405 10.6477 -2.4092 -0.941 -0.249 -0.228 166 111 91 0 0
0.8454 10.6327 -2.4145 -0.881 -0.403 -0.247 168 115 94 0 0
0.8536 10.6226 -2.4208 -0.698 -0.633 -0.334 172 120 99 0 0
0.8618 10.6124 -2.4271 -0.713 -0.648 -0.268 177 125 104 0 0
0.8748 10.6092 -2.4348 -0.826 -0.504 -0.252 178 125 107 0 0
0.8556 10.5598 -2.4331 -0.856 -0.424 -0.296 183 130 112 0 0
0.9554 10.3757 -2.5205 -0.935 -0.329 -0.130 170 120 100 0 0
1.0021 10.3328 -2.5537 -0.910 -0.293 -0.293 164 110 91 0 0
1.0441 10.2830 -2.5856 -0.918 -0.351 -0.183 177 124 106 0 0
1.1079 10.1564 -2.6430 -0.864 -0.484 0.136 157 104 90 0 0
1.1162 10.1463 -2.6494 -0.838 -0.528 0.137 164 111 94 0 0
1.1202 10.1305 -2.6544 -0.776 -0.507 -0.375 171 118 98 0 0
1.1282 10.1200 -2.6606 -0.833 -0.483 -0.268 173 119 103 0 0
1.1433 10.0977 -2.6728 -0.834 -0.487 -0.259 168 112 95 0 0
1.1760 10.0356 -2.7018 -0.914 -0.365 -0.176 189 136 116 0 0
1.2206 9.9680 -2.7383 -0.814 -0.339 -0.472 181 129 108 0 0
1.2663 9.8810 -2.7788 -0.851 -0.515 -0.100 174 123 105 0 0
1.2998 9.8812 -2.7971 -0.824 -0.412 -0.390 175 123 107 0 0
1.3179 9.8014 -2.8212 -0.784 -0.409 -0.467 168 114 93 0 0
1.3268 9.7919 -2.8278 -0.784 -0.409 -0.467 171 117 96 0 0
1.3360 9.7827 -2.8345 -0.771 -0.453 -0.447 179 124 104 0 0
1.3362 9.7627 -2.8381 -0.882 -0.402 -0.245 164 109 89 0 0
1.3499 9.7387 -2.8499 -0.649 -0.634 -0.421 168 115 97 0 0
1.4703 9.5392 -2.9513 -0.806 -0.473 -0.356 167 112 95 0 0
1.5541 9.4165 -3.0191 -0.862 -0.456 0.220 173 120 100 0 0
1.5673 9.4115 -3.0272 -0.986 -0.149 -0.078 169 116 98 0 0
1.5903 9.3585 -3.0492 -0.879 -0.327 -0.347 174 121 104 0 0
1.6253 9.1455 -3.1062 -0.805 -0.470 -0.361 148 97 84 0 0
1.6282 9.1296 -3.1106 -0.914 -0.295 -0.278 158 106 93 0 0
1.6839 9.0924 -3.1477 -0.774 -0.475 -0.419 154 105 88 0 0
1.6933 9.0831 -3.1545 -0.774 -0.475 -0.419 146 96 79 0 0
2.7358 9.1347 -3.7173 -0.069 -0.983 -0.170 218 211 205 0 0
2.5827 8.8812 -3.6783 -0.838 -0.199 0.509 222 217 211 0 0
2.6172 8.8923 -3.6953 -0.543 -0.813 0.210 223 218 212 0 0
2.6711 8.9203 -3.7199 -0.574 -0.380 0.725 222 217 211 0 0
2.8213 8.9733 -3.7929 -0.981 0.118 -0.157 221 220 212 0 0
2.7034 8.7941 -3.7600 -0.168 -0.775 0.610 226 221 216 0 0
2.7074 8.7783 -3.7649 -0.347 -0.430 0.834 226 221 215 0 0
2.7737 8.7390 -3.8083 -0.983 0.183 -0.028 223 222 217 0 0
2.7678 8.6769 -3.8161 -0.826 -0.422 0.373 227 224 219 0 0
2.7679 8.6580 -3.8195 -0.839 -0.424 -0.341 227 224 219 0 0
2.7754 8.6453 -3.8259 -0.790 -0.451 0.416 226 223 220 0 0
2.7634 8.5976 -3.8278 -0.832 -0.117 0.543 226 224 220 0 0
2.9069 8.4884 -3.9258 -0.472 -0.808 0.353 226 223 216 0 0
2.8684 8.1096 -3.9719 -0.463 -0.804 -0.373 203 178 143 0 0
2.9063 7.7310 -4.0599 -0.888 -0.266 -0.376 203 177 144 0 0
2.9263 7.6413 -4.0867 -0.870 -0.390 -0.300 201 175 142 0 0
3.1334 7.2019 -4.2783 -0.781 -0.607 0.145 197 173 139 0 0
3.1400 7.1728 -4.2870 -0.685 -0.665 0.297 197 173 140 0 0
3.9970 6.6537 -4.8493 -0.377 -0.085 0.922 218 219 214 0 0
0.6427 11.2196 -2.2164 -0.952 0.297 -0.071 209 190 184 0 0
0.6173 11.1093 -2.2219 -0.968 0.072 -0.240 184 134 115 0 0
0.6268 11.0552 -2.2367 -0.926 -0.164 -0.341 181 125 104 0 0
0.6316 11.0397 -2.2420 -0.926 -0.164 -0.341 175 120 99 0 0
0.6320 11.0175 -2.2462 -0.864 -0.306 -0.399 175 120 99 0 0
0.6516 10.9796 -2.2637 -0.903 -0.144 -0.405 162 106 85 0 0
0.6582 10.9671 -2.2695 -0.875 -0.211 -0.435 173 114 92 0 0
0.7361 10.8378 -2.3352 -0.836 -0.392 -0.383 171 114 94 0 0
0.7475 10.8325 -2.3424 -0.829 -0.359 -0.429 166 109 89 0 0
0.8331 10.6699 -2.4182 -0.876 -0.388 -0.286 178 120 102 0 0
0.8501 10.6504 -2.4310 -0.910 -0.281 -0.306 171 116 97 0 0
0.9446 10.4790 -2.5132 -0.919 -0.342 -0.196 176 130 114 0 0
0.9507 10.4659 -2.5189 -0.919 -0.342 -0.196 187 140 123 0 0
0.9537 10.3839 -2.5350 -0.901 -0.413 -0.130 180 130 111 0 0
0.9648 10.3777 -2.5422 -0.726 -0.566 -0.391 154 103 83 0 0
1.0033 10.3447 -2.5692 -0.910 -0.293 -0.293 155 101 82 0 0
1.0799 10.2350 -2.6307 -0.988 -0.135 -0.075 163 112 93 0 0
1.2904 9.8388 -2.8164 -0.760 -0.540 -0.363 185 130 112 0 0
1.3212 9.8151 -2.8375 -0.855 -0.322 -0.406 160 106 86 0 0
1.3299 9.8053 -2.8440 -0.847 -0.386 -0.366 174 120 99 0 0
1.3404 9.7976 -2.8512 -0.896 -0.338 -0.287 167 112 91 0 0
1.3490 9.7877 -2.8577 -0.962 -0.246 -0.121 166 111 91 0 0
1.3800 9.7034 -2.8896 -0.714 -0.481 -0.509 171 118 101 0 0
1.4242 9.6549 -2.9225 -0.877 -0.410 -0.249 145 91 73 0 0
1.4342 9.6465 -2.9295 -0.832 -0.451 -0.323 162 108 92 0 0
1.4825 9.5426 -2.9743 -0.964 -0.236 -0.124 165 110 92 0 0
1.4846 9.5253 -2.9786 -0.933 -0.356 -0.040 181 127 108 0 0
1.4901 9.5117 -2.9840 -0.933 -0.356 -0.040 181 127 107 0 0
1.4981 9.5010 -2.9903 -0.777 -0.553 -0.300 178 120 101 0 0
1.5067 9.4909 -2.9968 -0.704 -0.655 -0.273 180 124 104 0 0
1.5151 9.4807 -3.0033 -0.823 -0.420 -0.381 165 110 89 0 0
1.5646 9.4374 -3.0381 -0.987 -0.152 -0.060 164 113 92 0 0
1.5732 9.4076 -3.0481 -0.970 -0.170 -0.171 170 117 100 0 0
1.5845 9.3809 -3.0590 -0.830 -0.428 -0.357 178 122 106 0 0
1.5918 9.3693 -3.0651 -0.882 -0.351 -0.314 170 117 99 0 0
1.5968 9.3553 -3.0703 -0.877 -0.315 -0.362 166 115 96 0 0
1.6064 9.3463 -3.0772 -0.941 -0.237 -0.242 168 117 99 0 0
1.6067 9.3271 -3.0807 -0.917 -0.333 -0.220 156 104 87 0 0
1.6052 9.3062 -3.0836 -0.994 0.002 -0.113 183 127 112 0 0
1.6298 9.1401 -3.1264 -0.813 -0.457 -0.361 176 124 110 0 0
1.8215 8.9572 -3.2642 -0.814 -0.506 -0.286 158 109 92 0 0
1.8305 8.9473 -3.2709 -0.888 -0.406 -0.216 148 99 83 0 0
1.8353 8.9333 -3.2760 -0.878 -0.444 -0.179 169 122 106 0 0
1.8407 8.9199 -3.2813 -0.989 -0.133 0.056 160 114 97 0 0
2.5206 9.0866 -3.6260 -0.108 -0.969 0.223 211 205 199 0 0
2.7357 9.1437 -3.7343 -0.281 -0.959 0.027 219 212 206 0 0
2.5754 8.9027 -3.6886 -0.525 -0.318 0.789 222 217 211 0 0
2.5744 8.8825 -3.6916 -0.838 -0.199 0.509 223 218 212 0 0
2.6482 8.9284 -3.7241 -0.506 -0.773 0.384 223 218 212 0 0
2.6869 8.9430 -3.7428 -0.454 -0.698 0.555 223 218 213 0 0
2.8319 9.0506 -3.8036 -0.908 0.416 -0.054 222 219 213 0 0
2.8395 9.0374 -3.8101 -0.841 -0.184 -0.509 223 220 213 0 0
2.8221 9.0026 -3.8067 -0.982 -0.024 -0.186 222 221 214 0 0
2.6804 8.8406 -3.7573 -0.564 -0.546 0.619 224 221 216 0 0
2.6923 8.7933 -3.7722 -0.671 -0.570 0.475 226 221 215 0 0
2.7031 8.7834 -3.7799 -0.616 -0.616 0.490 226 221 215 0 0
2.6233 8.6962 -3.7514 -0.981 -0.143 0.131 228 222 216 0 0
2.7735 8.7475 -3.8250 -0.933 0.321 0.164 223 223 218 0 0
2.7674 8.7232 -3.8259 -0.989 0.104 -0.102 224 223 218 0 0
2.7515 8.6908 -3.8229 -0.968 -0.044 -0.246 225 224 219 0 0
2.7707 8.6879 -3.8339 -0.920 -0.391 0.032 228 224 220 0 0
2.7699 8.6682 -3.8369 -0.839 -0.424 -0.341 228 225 219 0 0
2.7569 8.6384 -3.8351 -0.633 -0.382 0.673 228 224 220 0 0
2.7493 8.6133 -3.8353 -0.237 -0.854 0.464 227 225 221 0 0
2.7522 8.5968 -3.8398 -0.921 0.016 0.388 227 225 221 0 0
2.8889 8.5012 -3.9319 -0.768 -0.563 0.305 227 224 218 0 0
2.9116 8.4818 -3.9478 -0.776 -0.417 0.473 227 224 217 0 0
2.9625 8.3354 -4.0016 -0.911 0.324 -0.253 209 196 183 0 0
2.9502 8.3074 -3.9998 -0.898 0.397 -0.191 198 181 163 0 0
2.9523 8.2355 -4.0137 -0.968 0.116 -0.221 202 173 140 0 0
2.9041 8.0904 -4.0128 -0.807 -0.343 -0.480 206 181 148 0 0
2.9045 7.7546 -4.0722 -0.888 -0.266 -0.376 200 173 140 0 0
2.9108 7.7417 -4.0780 -0.888 -0.266 -0.376 206 179 146 0 0
2.9395 7.6235 -4.1146 -0.921 -0.161 -0.355 198 172 137 0 0
3.0540 7.2926 -4.2360 -0.866 -0.385 -0.319 201 177 141 0 0
3.0655 7.2665 -4.2469 -0.870 -0.403 -0.283 197 172 138 0 0
3.0702 7.2529 -4.2519 -0.935 -0.173 -0.309 199 174 143 0 0
3.1320 7.2082 -4.2938 -0.652 -0.757 -0.034 198 174 139 0 0
3.1435 7.1987 -4.3018 -0.652 -0.757 -0.034 197 173 139 0 0
3.1356 7.1772 -4.3012 -0.933 -0.361 -0.008 198 174 142 0 0
3.1590 7.1749 -4.3145 -0.887 -0.448 0.114 199 176 144 0 0
3.1668 7.1632 -4.3209 -0.911 -0.362 -0.196 198 178 145 0 0
3.1799 7.1380 -4.3325 -0.906 -0.360 -0.224 199 176 144 0 0
3.6888 6.8655 -4.6606 -0.430 -0.748 -0.506 181 164 139 0 0
3.9862 6.6223 -4.8671 -0.172 -0.956 0.236 221 221 218 0 0
3.9531 6.5407 -4.8633 0.056 -0.797 0.602 225 225 223 0 0
3.9723 6.5337 -4.8751 0.083 -0.765 0.639 225 225 223 0 0
0.6903 11.3317 -2.2402 -0.919 0.394 0.006 236 233 229 0 0
0.6545 11.2504 -2.2347 -0.949 0.306 -0.081 229 217 210 0 0
0.6230 11.1299 -2.2385 -0.968 0.072 -0.240 165 115 96 0 0
0.6230 11.1069 -2.2426 -0.961 -0.001 -0.278 174 121 99 0 0
0.7613 10.7971 -2.3732 -0.894 -0.349 -0.281 163 111 90 0 0
0.7914 10.7527 -2.3976 -0.898 -0.340 -0.279 174 122 103 0 0
0.8513 10.6631 -2.4464 -0.914 -0.252 -0.318 172 118 98 0 0
0.9802 10.4743 -2.5507 -0.903 -0.425 0.066 180 130 113 0 0
0.9861 10.4608 -2.5563 -0.903 -0.425 0.066 171 120 103 0 0
0.9925 10.4480 -2.5621 -0.886 -0.382 -0.264 172 121 102 0 0
0.9994 10.4360 -2.5680 -0.886 -0.382 -0.264 171 120 100 0 0
1.0040 10.4206 -2.5732 -0.970 -0.244 0.011 166 114 93 0 0
1.0094 10.4066 -2.5787 -0.910 -0.404 -0.094 191 140 119 0 0
1.1569 10.1147 -2.7113 -0.940 -0.302 -0.159 174 116 101 0 0
1.1857 10.0474 -2.7390 -0.786 -0.361 -0.502 174 121 103 0 0
1.2868 9.8850 -2.8233 -0.848 -0.468 -0.248 149 98 81 0 0
1.4087 9.6865 -2.9254 -0.856 -0.339 -0.390 168 116 95 0 0
1.4182 9.6775 -2.9322 -0.784 -0.480 -0.394 179 125 106 0 0
1.4281 9.6690 -2.9391 -0.901 -0.358 -0.247 163 108 91 0 0
1.4346 9.6566 -2.9449 -0.901 -0.358 -0.247 164 110 94 0 0
1.4429 9.6461 -2.9513 -0.832 -0.451 -0.323 159 106 90 0 0
1.4783 9.5473 -2.9882 -0.944 -0.303 -0.127 171 116 96 0 0
1.5792 9.4039 -3.0690 -0.817 -0.400 -0.414 154 102 85 0 0
1.5863 9.3921 -3.0750 -0.882 -0.351 -0.314 174 120 105 0 0
1.6086 9.3190 -3.1002 -0.965 -0.130 -0.228 181 125 108 0 0
1.6271 9.2036 -3.1306 -0.950 -0.094 -0.299 176 125 111 0 0
1.6240 9.1811 -3.1329 -0.607 -0.699 -0.378 181 132 117 0 0
1.6355 9.1550 -3.1438 -0.716 -0.592 -0.372 180 128 114 0 0
1.7094 9.0985 -3.1945 -0.689 -0.598 -0.410 147 97 80 0 0
1.7994 9.0005 -3.2614 -0.828 -0.408 -0.384 173 122 105 0 0
1.8071 8.9893 -3.2676 -0.847 -0.368 -0.385 172 121 102 0 0
1.8163 8.9796 -3.2743 -0.881 -0.331 -0.339 162 111 92 0 0
1.8284 8.9539 -3.2855 -0.914 -0.371 -0.168 125 76 60 0 0
1.8345 8.9413 -3.2911 -0.914 -0.371 -0.168 157 108 93 0 0
1.8662 8.9161 -3.3130 -0.868 -0.285 -0.407 154 105 88 0 0
2.5395 9.1129 -3.6500 -0.087 -0.807 0.584 211 206 200 0 0
2.6281 8.9389 -3.7294 -0.506 -0.773 0.384 223 218 211 0 0
2.6383 8.9285 -3.7369 -0.506 -0.773 0.384 223 218 213 0 0
2.6800 8.9458 -3.7569 -0.584 -0.319 0.746 224 219 215 0 0
2.6610 8.9096 -3.7527 -0.945 -0.114 0.307 224 221 215 0 0
2.6928 8.9181 -3.7687 -0.600 -0.796 -0.086 224 221 214 0 0
2.6305 8.7298 -3.7674 -0.740 -0.672 0.036 226 223 216 0 0
2.6242 8.7054 -3.7682 -0.672 -0.734 -0.103 227 224 218 0 0
2.7705 8.7153 -3.8472 -0.970 -0.211 -0.118 226 225 221 0 0
2.7718 8.6784 -3.8544 -0.839 -0.424 -0.341 228 225 220 0 0
2.7677 8.6370 -3.8594 -0.996 0.002 -0.091 229 226 221 0 0
2.7779 8.6265 -3.8669 -0.941 0.100 0.322 229 226 221 0 0
2.7336 8.5711 -3.8522 -0.839 -0.498 -0.218 229 226 221 0 0
2.7520 8.3816 -3.8956 -0.957 -0.291 0.009 227 224 217 0 0
3.1154 8.5185 -4.0721 -0.792 0.514 -0.329 227 222 218 0 0
3.0802 8.4722 -4.0608 -0.785 0.485 -0.386 227 222 217 0 0
3.0463 8.4270 -4.0500 -0.787 0.470 -0.401 225 220 213 0 0
2.9802 8.3573 -4.0258 -0.915 0.358 -0.184 223 219 211 0 0
2.9483 8.2958 -4.0190 -0.890 0.401 -0.218 209 197 184 0 0
2.9227 8.2395 -4.0147 -0.939 0.343 -0.011 193 171 146 0 0
2.9501 8.2420 -4.0294 -0.988 0.143 0.060 195 169 141 0 0
2.9505 8.2239 -4.0328 -0.984 0.174 -0.029 198 172 142 0 0
2.9405 8.1982 -4.0318 -0.960 0.256 -0.114 201 174 142 0 0
2.9039 8.0981 -4.0291 -0.942 -0.124 0.311 207 180 149 0 0
2.9124 8.0865 -4.0359 -0.964 -0.223 -0.143 203 175 145 0 0
2.9004 7.9348 -4.0559 -0.981 0.169 0.101 207 181 148 0 0
2.8858 7.8363 -4.0651 -0.975 -0.195 -0.103 201 172 138 0 0
2.9532 7.6403 -4.1367 -0.850 -0.316 -0.420 196 166 129 0 0
3.0576 7.3021 -4.2537 -0.907 -0.270 -0.324 199 175 139 0 0
3.0536 7.2829 -4.2548 -0.936 -0.221 -0.274 197 173 137 0 0
3.2165 7.1506 -4.3680 -0.984 -0.155 -0.086 196 173 141 0 0
0.6380 11.1888 -2.2536 -0.964 0.100 -0.247 184 135 125 0 0
0.6297 11.1523 -2.2554 -0.973 0.142 -0.184 177 125 108 0 0
0.6274 11.1255 -2.2588 -0.972 0.026 -0.234 175 120 100 0 0
0.6285 11.1041 -2.2632 -0.962 0.003 -0.272 177 122 103 0 0
0.6271 11.0788 -2.2668 -0.907 -0.189 -0.377 176 122 103 0 0
0.7238 10.8865 -2.3538 -0.567 -0.796 -0.213 172 113 91 0 0
0.7344 10.8801 -2.3608 -0.767 -0.642 -0.009 179 118 95 0 0
0.8444 10.7082 -2.4517 -0.911 -0.174 -0.374 186 130 110 0 0
0.9829 10.4669 -2.5705 -0.909 -0.382 -0.167 168 119 103 0 0
0.9901 10.4552 -2.5765 -0.963 -0.268 0.031 174 123 106 0 0
0.9994 10.4465 -2.5832 -0.886 -0.382 -0.264 161 110 92 0 0
1.0057 10.4335 -2.5889 -0.982 -0.121 -0.143 176 125 106 0 0
1.0097 10.4175 -2.5940 -0.945 -0.289 -0.151 180 129 109 0 0
1.0150 10.4031 -2.5994 -0.985 -0.150 -0.079 170 118 97 0 0
1.0786 10.2752 -2.6569 -0.999 0.001 0.052 176 123 106 0 0
1.0982 10.2801 -2.6669 -0.900 -0.433 -0.044 177 124 106 0 0
1.0908 10.2490 -2.6683 -0.869 -0.418 -0.265 176 120 102 0 0
1.0982 10.2376 -2.6743 -0.869 -0.418 -0.265 167 110 93 0 0
1.1039 10.2239 -2.6799 -0.805 -0.430 -0.409 157 100 83 0 0
1.1117 10.2131 -2.6861 -0.868 -0.317 -0.382 179 124 107 0 0
1.4263 9.6764 -2.9538 -0.869 -0.325 -0.374 170 115 98 0 0
1.4333 9.6645 -2.9598 -0.869 -0.325 -0.374 162 109 92 0 0
1.4393 9.6514 -2.9654 -0.822 -0.397 -0.407 179 126 110 0 0
1.4511 9.6451 -2.9730 -0.902 -0.205 -0.380 166 113 97 0 0
1.5871 9.4022 -3.0907 -0.806 -0.515 -0.290 161 110 93 0 0
1.6109 9.3305 -3.1164 -0.965 -0.130 -0.228 171 117 97 0 0
1.6252 9.2877 -3.1318 -0.948 -0.037 -0.317 175 118 100 0 0
1.6208 9.2636 -3.1335 -0.827 -0.296 -0.477 180 125 108 0 0
1.6306 9.2163 -3.1472 -0.958 -0.069 -0.279 171 122 107 0 0
1.6317 9.1983 -3.1510 -0.672 -0.633 -0.386 175 126 109 0 0
1.7198 9.0991 -3.2171 -0.737 -0.571 -0.361 170 118 99 0 0
1.8184 8.9905 -3.2906 -0.881 -0.331 -0.339 154 102 81 0 0
1.8409 8.9562 -3.3090 -0.782 -0.513 -0.353 153 102 87 0 0
1.8499 8.9464 -3.3157 -0.731 -0.580 -0.359 163 112 96 0 0
2.6305 8.9304 -3.7504 -0.442 -0.880 0.176 223 218 213 0 0
2.6433 8.9223 -3.7589 -0.442 -0.880 0.176 225 220 216 0 0
2.6551 8.9133 -3.7670 -0.661 -0.323 0.677 225 220 216 0 0
2.8379 9.0145 -3.8505 -0.980 -0.148 0.135 225 222 217 0 0
2.6205 8.7109 -3.7832 -0.935 -0.350 -0.059 226 223 219 0 0
2.7769 8.7294 -3.8666 -0.921 -0.098 -0.377 226 225 221 0 0
2.7454 8.4030 -3.9061 -0.957 -0.291 0.009 226 224 219 0 0
2.7499 8.3881 -3.9112 -0.957 -0.291 0.009 227 225 220 0 0
3.0877 8.4676 -4.0842 -0.788 0.476 -0.391 227 223 217 0 0
2.9932 8.3756 -4.0480 -0.919 0.375 -0.120 225 222 216 0 0
2.9523 8.2152 -4.0534 -0.650 -0.142 0.746 198 173 146 0 0
2.9392 8.1507 -4.0574 -0.968 0.162 -0.192 203 175 144 0 0
2.9103 8.1109 -4.0483 -0.990 0.053 0.128 200 172 143 0 0
2.9025 7.9797 -4.0670 -0.969 -0.153 -0.193 201 175 141 0 0
2.9008 7.9607 -4.0693 -0.988 0.145 -0.055 203 177 143 0 0
2.9145 7.7595 -4.1120 -0.958 -0.219 -0.185 204 178 145 0 0
2.9518 7.6469 -4.1523 -0.926 -0.262 -0.273 195 164 126 0 0
3.0489 7.3373 -4.2601 -0.898 -0.423 -0.119 198 174 140 0 0
3.0540 7.3238 -4.2653 -0.945 -0.326 0.032 198 174 139 0 0
3.0587 7.3100 -4.2703 -0.941 -0.334 -0.046 197 173 138 0 0
3.0660 7.2813 -4.2793 -0.875 -0.450 -0.181 204 179 147 0 0
3.0711 7.2678 -4.2845 -0.961 -0.254 -0.110 202 178 146 0 0
3.6307 6.8977 -4.6588 -0.328 -0.830 -0.451 176 159 134 0 0
3.6782 6.8903 -4.6864 -0.478 -0.680 -0.556 175 165 151 0 0
4.0212 6.8875 -4.8766 -0.509 -0.574 -0.642 215 214 210 0 0
3.8958 6.6241 -4.8532 -0.092 -0.709 0.699 221 221 219 0 0
0.6625 11.2633 -2.2714 -0.950 0.286 -0.121 210 195 190 0 0
0.6946 10.9438 -2.3448 -0.975 -0.150 -0.166 168 108 90 0 0
0.6980 10.9263 -2.3497 -0.968 -0.201 -0.150 163 106 87 0 0
0.7127 10.9036 -2.3618 -0.742 -0.570 -0.354 180 123 101 0 0
0.7227 10.8962 -2.3686 -0.688 -0.618 -0.380 180 121 97 0 0
0.7332 10.8895 -2.3756 -0.765 -0.518 -0.383 177 115 92 0 0
0.7874 10.7912 -2.4227 -0.843 -0.336 -0.421 174 128 109 0 0
0.7971 10.7832 -2.4295 -0.936 -0.275 -0.218 188 143 124 0 0
0.8058 10.7515 -2.4398 -0.829 -0.457 -0.323 166 117 100 0 0
0.8503 10.7056 -2.4725 -0.909 -0.284 -0.304 173 116 96 0 0
0.9188 10.6278 -2.5241 -0.929 -0.144 -0.341 178 129 110 0 0
0.9847 10.4801 -2.5863 -0.843 -0.473 -0.257 182 133 118 0 0
0.9876 10.4625 -2.5909 -0.963 -0.268 0.031 175 126 109 0 0
0.9994 10.4571 -2.5984 -0.886 -0.382 -0.264 173 122 105 0 0
1.0065 10.4452 -2.6044 -0.982 -0.121 -0.143 165 114 96 0 0
1.0135 10.4333 -2.6104 -0.889 -0.289 -0.356 176 125 106 0 0
1.0635 10.3508 -2.6525 -0.875 -0.382 -0.297 161 108 88 0 0
1.0964 10.2456 -2.6890 -0.834 -0.402 -0.378 168 112 95 0 0
1.1741 10.1153 -2.7547 -0.859 -0.438 -0.267 178 124 103 0 0
1.2759 9.9529 -2.8394 -0.922 -0.166 -0.349 141 88 70 0 0
1.3653 9.8162 -2.9128 -0.885 -0.373 -0.277 179 124 105 0 0
1.3723 9.8042 -2.9187 -0.885 -0.373 -0.277 176 123 105 0 0
1.3800 9.7930 -2.9249 -0.869 -0.339 -0.361 165 112 97 0 0
1.4356 9.6768 -2.9760 -0.869 -0.325 -0.374 168 115 97 0 0
1.5958 9.4014 -3.1127 -0.836 -0.403 -0.373 171 119 104 0 0
1.6065 9.3739 -3.1234 -0.836 -0.346 -0.426 168 116 98 0 0
1.6142 9.3628 -3.1296 -0.836 -0.346 -0.426 183 129 111 0 0
1.6180 9.3474 -3.1344 -0.878 -0.266 -0.398 184 128 108 0 0
1.6339 9.2675 -3.1571 -0.866 -0.205 -0.456 172 121 104 0 0
1.6685 9.1501 -3.1967 -0.898 -0.323 -0.301 166 119 103 0 0
1.7127 9.1197 -3.2265 -0.736 -0.548 -0.397 158 110 94 0 0
1.7204 9.1086 -3.2327 -0.768 -0.506 -0.393 169 118 99 0 0
2.6834 8.9276 -3.7985 -0.189 -0.969 -0.159 226 221 217 0 0
2.6835 8.9083 -3.8019 -0.360 -0.366 0.858 226 223 218 0 0
2.7045 8.8878 -3.8172 -0.802 -0.386 0.455 226 223 218 0 0
2.5955 8.7360 -3.7830 -0.718 -0.692 -0.079 225 224 219 0 0
2.6203 8.7383 -3.7964 -0.779 -0.217 -0.588 226 224 220 0 0
2.6205 8.7195 -3.7998 -0.540 -0.676 -0.501 227 224 220 0 0
2.7901 8.7491 -3.8887 -0.939 -0.341 -0.055 226 225 220 0 0
3.1328 8.5110 -4.1203 -0.787 0.511 -0.345 227 224 219 0 0
2.9513 8.1678 -4.0792 -0.778 -0.285 0.560 203 175 144 0 0
2.9182 8.1249 -4.0682 -0.975 -0.011 -0.224 196 168 136 0 0
2.9193 8.1076 -4.0718 -0.975 -0.011 -0.224 201 176 141 0 0
2.9202 8.0902 -4.0754 -0.991 0.132 0.020 203 179 144 0 0
2.9179 8.0705 -4.0775 -0.986 0.132 -0.097 204 180 144 0 0
2.8866 7.8523 -4.0980 -0.936 -0.348 -0.056 203 177 142 0 0
2.8884 7.8360 -4.1018 -0.943 -0.242 -0.228 204 178 143 0 0
2.8908 7.8202 -4.1059 -0.960 -0.251 -0.127 203 177 144 0 0
2.8984 7.8081 -4.1122 -0.912 -0.245 -0.329 201 175 141 0 0
2.9422 7.6824 -4.1584 -0.655 -0.686 -0.319 192 159 121 0 0
2.9548 7.6737 -4.1669 -0.605 -0.738 -0.297 195 162 123 0 0
2.9558 7.6572 -4.1703 -0.923 -0.253 -0.290 201 171 132 0 0
2.9646 7.6460 -4.1771 -0.848 -0.322 -0.420 203 174 136 0 0
2.9524 7.5690 -4.1837 -0.907 -0.419 -0.029 205 181 147 0 0
3.0477 7.3438 -4.2757 -0.944 -0.324 -0.064 200 175 142 0 0
3.0675 7.3061 -4.2933 -0.902 -0.428 -0.062 200 176 143 0 0
3.0739 7.2935 -4.2990 -0.902 -0.428 -0.062 201 177 145 0 0
3.0886 7.2693 -4.3114 -0.899 -0.386 -0.207 199 176 144 0 0
3.6338 6.9064 -4.6769 -0.328 -0.830 -0.451 174 161 146 0 0
3.6895 6.9034 -4.7083 -0.526 -0.595 -0.608 193 190 184 0 0
3.7483 6.7692 -4.7643 -0.339 -0.939 0.058 215 214 210 0 0
4.0409 6.9048 -4.9031 -0.465 -0.551 -0.693 216 215 211 0 0
4.0531 6.7425 -4.9381 -0.077 -0.698 -0.712 220 220 218 0 0
0.7101 11.3757 -2.2958 -0.921 0.390 -0.003 234 232 230 0 0
0.6421 11.1723 -2.2931 -0.966 0.125 -0.228 169 115 100 0 0
0.6378 11.1422 -2.2959 -0.940 0.005 -0.342 156 105 88 0 0
0.7152 11.0098 -2.3618 -0.798 -0.435 -0.417 169 109 90 0 0
0.7206 10.9954 -2.3674 -0.869 -0.327 -0.371 173 111 93 0 0
0.7737 10.8717 -2.4182 -0.928 -0.253 -0.272 157 101 81 0 0
0.7891 10.8498 -2.4306 -0.971 -0.218 -0.102 155 106 87 0 0
0.8076 10.7653 -2.4555 -0.876 -0.322 -0.359 175 126 111 0 0
0.8441 10.7299 -2.4820 -0.991 -0.128 -0.029 172 119 97 0 0
0.8495 10.7155 -2.4874 -0.938 -0.275 -0.209 172 116 95 0 0
0.9272 10.5627 -2.5571 -0.976 -0.033 -0.215 174 123 104 0 0
0.9902 10.4767 -2.6070 -0.907 -0.420 -0.024 177 127 110 0 0
1.0006 10.4694 -2.6140 -0.896 -0.434 -0.088 180 128 111 0 0
1.0082 10.4582 -2.6202 -0.967 -0.169 0.189 170 119 100 0 0
1.1292 10.2144 -2.7296 -0.889 -0.189 -0.418 152 101 84 0 0
1.2689 10.0578 -2.8344 -0.846 -0.458 -0.272 171 122 105 0 0
1.2755 9.9830 -2.8510 -0.934 -0.167 -0.315 169 117 99 0 0
1.2799 9.9678 -2.8561 -0.934 -0.167 -0.315 171 119 101 0 0
1.3305 9.8656 -2.9019 -0.909 -0.235 -0.345 177 122 105 0 0
1.4002 9.7457 -2.9614 -0.983 -0.183 -0.013 173 118 101 0 0
1.4588 9.6732 -3.0066 -0.902 -0.205 -0.380 174 119 103 0 0
1.4642 9.6594 -3.0120 -0.902 -0.205 -0.380 161 108 90 0 0
1.5242 9.5880 -3.0577 -0.891 -0.321 -0.320 172 122 105 0 0
1.5308 9.5756 -3.0635 -0.891 -0.321 -0.320 182 132 114 0 0
1.5454 9.5722 -3.0722 -0.789 -0.556 -0.260 170 120 101 0 0
1.5970 9.4120 -3.1286 -0.870 -0.439 -0.223 174 120 104 0 0
1.6199 9.3782 -3.1472 -0.773 -0.502 -0.389 185 129 112 0 0
1.6208 9.3596 -3.1509 -0.857 -0.217 -0.468 183 126 109 0 0
1.6424 9.3245 -3.1690 -0.958 0.057 -0.282 188 131 114 0 0
1.6352 9.2779 -3.1730 -0.771 -0.420 -0.480 154 102 86 0 0
1.6707 9.1615 -3.2129 -0.887 -0.298 -0.351 168 120 102 0 0
1.7245 9.1218 -3.2497 -0.830 -0.489 -0.268 168 116 99 0 0
1.8210 9.0106 -3.3226 -0.972 -0.198 -0.126 170 119 100 0 0
1.8341 8.9859 -3.3341 -0.962 -0.192 -0.195 158 105 87 0 0
1.8373 8.9702 -3.3386 -0.668 -0.679 -0.305 158 105 87 0 0
2.6637 8.8997 -3.8107 -0.965 0.249 -0.077 226 223 218 0 0
2.6644 8.8810 -3.8143 -0.893 0.038 -0.449 226 223 218 0 0
2.6938 8.8873 -3.8296 -0.594 -0.638 0.490 226 223 218 0 0
2.7016 8.8747 -3.8361 -0.294 -0.890 0.349 227 225 220 0 0
2.6449 8.7299 -3.8295 -0.528 -0.751 -0.398 229 225 222 0 0
2.7975 8.7640 -3.9086 -0.942 -0.118 -0.315 228 227 219 0 0
2.6974 8.4362 -3.9095 -0.556 -0.822 0.124 229 227 223 0 0
2.8710 8.2975 -4.0301 -0.488 -0.401 0.775 229 225 219 0 0
2.9259 8.1931 -4.0786 -0.547 -0.050 0.836 217 208 194 0 0
2.9183 7.8475 -4.1341 -0.993 0.090 0.081 201 175 143 0 0
2.9060 7.8213 -4.1318 -0.927 -0.175 -0.332 204 175 143 0 0
2.9291 7.6982 -4.1659 -0.698 -0.705 -0.126 202 175 140 0 0
2.9422 7.6899 -4.1747 -0.655 -0.686 -0.319 199 171 134 0 0
2.9540 7.6808 -4.1828 -0.605 -0.738 -0.297 203 175 137 0 0
2.9888 7.5326 -4.2278 -0.922 -0.316 -0.225 202 177 144 0 0
3.0445 7.4164 -4.2788 -0.779 -0.626 -0.043 203 179 144 0 0
3.0562 7.4070 -4.2869 -0.781 -0.610 -0.135 199 175 139 0 0
3.0590 7.3920 -4.2911 -0.816 -0.571 0.088 199 175 139 0 0
3.0695 7.3818 -4.2987 -0.950 -0.290 0.113 197 172 138 0 0
3.0739 7.3006 -4.3152 -0.786 -0.598 0.158 198 174 143 0 0
3.0733 7.2836 -4.3178 -0.833 -0.548 0.076 196 173 141 0 0
3.0807 7.2715 -4.3240 -0.833 -0.548 0.076 196 173 141 0 0
3.0847 7.2574 -4.3287 -0.824 -0.408 0.394 196 173 141 0 0
3.2502 7.1258 -4.4435 -0.903 -0.331 -0.273 194 171 139 0 0
3.6846 6.9244 -4.7200 -0.419 -0.749 -0.513 206 201 196 0 0
3.7297 6.8988 -4.7495 -0.310 -0.891 -0.331 211 211 205 0 0
3.7514 6.8937 -4.7625 -0.212 -0.951 -0.224 212 213 206 0 0
3.8149 6.8775 -4.8006 -0.182 -0.972 -0.149 213 213 209 0 0
0.6478 11.1930 -2.3099 -0.977 0.115 -0.180 182 130 116 0 0
0.6451 11.1655 -2.3132 -0.970 -0.003 -0.242 159 109 93 0 0
0.6468 11.1449 -2.3176 -0.919 -0.209 -0.335 168 115 97 0 0
0.6519 11.1298 -2.3231 -0.909 -0.193 -0.370 166 112 95 0 0
0.7132 11.0182 -2.3764 -0.907 -0.285 -0.310 170 113 93 0 0
0.7207 11.0070 -2.3826 -0.928 -0.364 -0.080 162 104 83 0 0
0.7109 10.9689 -2.3836 -0.885 -0.255 -0.389 172 114 94 0 0
0.7692 10.8989 -2.4282 -0.897 -0.312 -0.313 179 125 104 0 0
0.7747 10.8846 -2.4337 -0.928 -0.253 -0.272 162 110 89 0 0
0.7862 10.8793 -2.4411 -0.796 -0.533 -0.287 139 89 69 0 0
0.7884 10.8599 -2.4456 -0.971 -0.218 -0.102 169 120 100 0 0
0.7925 10.8437 -2.4507 -0.971 -0.218 -0.102 168 119 100 0 0
0.8091 10.7786 -2.4711 -0.876 -0.322 -0.359 175 125 110 0 0
0.8322 10.7681 -2.4859 -0.842 -0.481 -0.242 156 108 89 0 0
0.8388 10.7553 -2.4917 -0.926 -0.359 -0.118 167 117 96 0 0
0.8464 10.7443 -2.4979 -0.820 -0.472 -0.323 178 126 105 0 0
0.8999 10.6445 -2.5449 -0.852 -0.336 -0.401 160 108 87 0 0
0.9899 10.5087 -2.6184 -0.916 -0.248 -0.314 176 127 110 0 0
0.9898 10.4869 -2.6221 -0.848 -0.408 -0.339 177 126 107 0 0
0.9974 10.4756 -2.6283 -0.887 -0.304 -0.348 178 125 107 0 0
0.9993 10.4566 -2.6326 -0.910 -0.280 -0.306 182 130 113 0 0
1.0157 10.4575 -2.6416 -0.872 -0.308 -0.380 178 127 111 0 0
1.1230 10.2377 -2.7392 -0.869 -0.292 -0.399 173 124 107 0 0
1.1265 10.2212 -2.7441 -0.907 -0.268 -0.326 160 110 93 0 0
1.1404 10.2182 -2.7523 -0.749 -0.494 -0.441 162 110 93 0 0
1.1500 10.2097 -2.7592 -0.749 -0.494 -0.441 163 108 90 0 0
1.2533 10.0901 -2.8373 -0.877 -0.448 -0.170 149 98 79 0 0
1.2630 10.0814 -2.8442 -0.779 -0.628 -0.005 158 108 91 0 0
1.2765 10.0776 -2.8524 -0.714 -0.600 0.361 139 90 74 0 0
1.2814 10.0628 -2.8577 -0.838 -0.500 0.219 121 72 55 0 0
1.2820 10.0011 -2.8686 -0.954 -0.235 -0.186 160 109 92 0 0
1.2851 9.9843 -2.8733 -0.926 -0.235 -0.295 151 100 83 0 0
1.2859 9.9646 -2.8771 -0.867 -0.239 -0.437 174 123 105 0 0
1.4627 9.6873 -3.0234 -0.902 -0.205 -0.380 165 111 94 0 0
1.5367 9.5917 -3.0811 -0.892 -0.336 -0.304 147 100 83 0 0
1.5731 9.5529 -3.1081 -0.648 -0.682 -0.339 174 125 111 0 0
1.5851 9.5465 -3.1159 -0.756 -0.599 -0.266 162 114 100 0 0
1.5962 9.4993 -3.1302 -0.830 -0.423 -0.364 173 121 104 0 0
1.6105 9.4755 -3.1423 -0.862 -0.448 -0.239 182 127 108 0 0
1.6173 9.4633 -3.1482 -0.873 -0.405 -0.274 176 122 104 0 0
1.6022 9.4073 -3.1493 -0.773 -0.502 -0.389 172 122 105 0 0
1.6116 9.3980 -3.1562 -0.773 -0.502 -0.389 169 118 101 0 0
1.6211 9.3887 -3.1631 -0.773 -0.502 -0.389 181 128 111 0 0
1.6315 9.2830 -3.1870 -0.774 -0.604 -0.191 175 123 108 0 0
1.6794 9.1604 -3.2349 -0.786 -0.439 -0.434 166 116 97 0 0
1.7972 9.0905 -3.3126 -0.938 -0.277 -0.209 162 114 98 0 0
1.8024 9.0768 -3.3179 -0.938 -0.277 -0.209 166 117 102 0 0
1.8077 9.0630 -3.3232 -0.938 -0.277 -0.209 161 109 95 0 0
2.4873 9.0617 -3.7027 -0.130 -0.748 0.651 216 211 205 0 0
2.6660 8.9106 -3.8284 -0.910 0.348 -0.224 226 223 218 0 0
2.6545 8.8811 -3.8270 -0.910 0.405 -0.090 225 222 217 0 0
2.6464 8.8547 -3.8270 -0.765 -0.073 0.640 226 222 219 0 0
2.6457 8.8349 -3.8301 -0.765 -0.073 0.640 226 224 220 0 0
2.7645 8.4990 -3.9541 0.006 -0.557 0.831 228 227 222 0 0
2.9517 8.1660 -4.1157 -0.849 0.276 -0.451 210 197 182 0 0
2.9361 8.1361 -4.1121 -0.859 0.264 -0.438 202 184 164 0 0
2.9245 8.0914 -4.1134 -0.989 0.136 -0.054 199 176 150 0 0
2.9219 8.0714 -4.1154 -0.989 0.136 -0.054 202 178 149 0 0
2.9264 7.8611 -4.1540 -0.944 -0.318 -0.086 200 173 143 0 0
3.0676 7.3039 -4.3285 -0.733 -0.657 0.174 191 168 136 0 0
3.0745 7.2916 -4.3345 -0.790 -0.595 0.149 190 167 135 0 0
3.1904 7.2132 -4.4126 -0.734 -0.494 -0.466 194 171 137 0 0
3.7470 6.9318 -4.7716 -0.244 -0.911 -0.334 214 211 207 0 0
3.7646 6.9246 -4.7827 -0.484 -0.757 -0.440 215 212 208 0 0
3.8032 6.9118 -4.8064 -0.305 -0.872 -0.383 214 214 209 0 0
3.8549 6.9226 -4.8334 -0.046 -0.959 -0.279 214 215 209 0 0
0.6811 11.3053 -2.3266 -0.954 0.292 -0.068 214 194 191 0 0
0.6513 11.1871 -2.3301 -0.962 0.085 -0.259 172 123 106 0 0
0.6552 11.1700 -2.3352 -0.929 -0.042 -0.367 185 132 112 0 0
0.6541 11.1449 -2.3389 -0.977 -0.197 -0.082 191 139 118 0 0
0.6548 11.0996 -2.3470 -0.815 -0.402 -0.417 192 140 118 0 0
0.6794 11.0691 -2.3660 -0.893 -0.396 -0.214 159 107 86 0 0
0.6895 11.0619 -2.3729 -0.724 -0.541 -0.428 144 92 71 0 0
0.7684 10.9317 -2.4393 -0.930 -0.317 -0.185 171 119 100 0 0
0.7727 10.9155 -2.4445 -0.957 -0.275 -0.097 161 110 89 0 0
0.7792 10.9027 -2.4503 -0.951 -0.307 -0.027 158 107 86 0 0
0.7851 10.8889 -2.4560 -0.796 -0.533 -0.287 144 92 73 0 0
0.7936 10.8791 -2.4624 -0.733 -0.617 -0.286 143 90 71 0 0
0.8309 10.7772 -2.5007 -0.728 -0.639 -0.247 159 111 95 0 0
0.8343 10.7599 -2.5055 -0.922 -0.197 -0.332 146 96 79 0 0
0.8456 10.7541 -2.5128 -0.844 -0.440 -0.307 165 115 95 0 0
0.8931 10.6678 -2.5542 -0.786 -0.464 -0.408 154 102 84 0 0
0.9055 10.6634 -2.5618 -0.903 -0.301 -0.306 156 105 86 0 0
0.9934 10.5243 -2.6348 -0.822 -0.424 -0.379 184 135 116 0 0
0.9905 10.4984 -2.6376 -0.848 -0.408 -0.339 177 125 106 0 0
0.9996 10.4893 -2.6443 -0.816 -0.516 -0.262 185 132 114 0 0
1.1292 10.2563 -2.7566 -0.834 -0.345 -0.430 165 115 99 0 0
1.1413 10.2509 -2.7643 -0.925 -0.200 -0.322 173 122 104 0 0
1.1427 10.2315 -2.7684 -0.794 -0.455 -0.404 165 113 94 0 0
1.1514 10.2217 -2.7749 -0.749 -0.494 -0.441 176 123 106 0 0
1.1693 10.2028 -2.7882 -0.794 -0.455 -0.404 151 96 78 0 0
1.1763 10.1908 -2.7942 -0.902 -0.257 -0.347 175 120 100 0 0
1.1823 10.1774 -2.7998 -0.902 -0.257 -0.347 174 121 102 0 0
1.1883 10.1641 -2.8054 -0.902 -0.257 -0.347 161 110 91 0 0
1.2427 10.1077 -2.8455 -0.795 -0.583 -0.171 161 108 91 0 0
1.2589 10.0864 -2.8583 -0.788 -0.614 -0.037 168 116 102 0 0
1.2709 10.0805 -2.8659 -0.713 -0.697 -0.074 152 100 86 0 0
1.2764 10.0666 -2.8714 -0.688 -0.696 -0.207 151 100 85 0 0
1.2723 10.0405 -2.8736 -0.934 -0.276 -0.226 165 114 98 0 0
1.2777 10.0266 -2.8790 -0.934 -0.276 -0.226 166 113 99 0 0
1.2824 10.0116 -2.8842 -0.954 -0.235 -0.186 160 107 91 0 0
1.2845 9.9935 -2.8884 -0.848 -0.419 -0.325 158 107 90 0 0
1.2930 9.9834 -2.8949 -0.767 -0.513 -0.387 140 89 71 0 0
1.2998 9.9711 -2.9008 -0.795 -0.472 -0.381 151 100 83 0 0
1.3408 9.9596 -2.9257 -0.853 -0.387 -0.351 167 116 99 0 0
1.5982 9.5109 -3.1465 -0.906 -0.309 -0.289 158 106 90 0 0
1.6044 9.4979 -3.1522 -0.906 -0.309 -0.289 180 127 110 0 0
1.6101 9.4844 -3.1577 -0.862 -0.448 -0.239 180 127 108 0 0
1.6177 9.4731 -3.1639 -0.862 -0.448 -0.239 183 128 108 0 0
1.6169 9.4130 -3.1737 -0.861 -0.279 -0.425 172 124 106 0 0
1.7983 9.1006 -3.3286 -0.935 -0.310 -0.170 170 122 106 0 0
1.8038 9.0870 -3.3340 -0.935 -0.310 -0.170 162 113 98 0 0
1.8953 9.0074 -3.3988 -0.913 -0.264 -0.312 162 110 91 0 0
1.8974 8.9904 -3.4028 -0.969 -0.132 -0.208 162 113 94 0 0
1.8996 8.9737 -3.4070 -0.884 -0.391 -0.257 151 104 87 0 0
1.9070 8.9620 -3.4131 -0.923 -0.371 -0.103 162 116 100 0 0
1.9135 8.9495 -3.4189 -0.900 -0.414 -0.139 158 112 97 0 0
2.7383 8.9829 -3.8748 -0.942 0.319 -0.107 227 224 219 0 0
2.7359 8.9612 -3.8772 -0.753 0.303 -0.584 225 223 218 0 0
2.9260 8.1005 -4.1306 -0.996 0.044 0.078 205 192 176 0 0
2.9242 8.0811 -4.1329 -0.989 0.136 -0.054 198 181 160 0 0
2.9190 8.0592 -4.1337 -0.925 0.176 0.338 198 177 154 0 0
2.9183 8.0228 -4.1396 -0.727 -0.180 0.663 201 176 144 0 0
3.0133 7.5125 -4.2799 -0.936 -0.244 -0.253 197 173 137 0 0
3.0345 7.4924 -4.2952 -0.951 -0.116 -0.286 195 171 136 0 0
3.1823 7.2322 -4.4224 -0.697 -0.566 -0.439 196 173 141 0 0
3.8087 6.9218 -4.8260 -0.024 -0.970 -0.243 216 213 210 0 0
3.8483 6.9262 -4.8475 -0.024 -0.970 -0.243 215 214 210 0 0
3.7533 6.7926 -4.8171 -0.956 0.086 -0.280 216 217 212 0 0
3.8175 6.7269 -4.8643 -0.801 -0.017 0.598 218 219 214 0 0
3.8031 6.6540 -4.8687 -0.360 -0.395 0.845 221 221 219 0 0
3.8863 6.5813 -4.9276 -0.104 -0.989 -0.106 225 225 223 0 0
0.6575 11.2088 -2.3472 -0.974 0.118 -0.195 169 118 100 0 0
0.6609 11.1908 -2.3521 -0.929 -0.042 -0.367 176 124 103 0 0
0.6515 11.1525 -2.3533 -0.943 -0.317 0.098 187 135 113 0 0
0.6549 11.1346 -2.3583 -0.704 -0.573 -0.419 184 132 111 0 0
0.6657 11.1285 -2.3654 -0.836 -0.444 -0.322 158 106 84 0 0
0.6839 11.0877 -2.3825 -0.984 -0.179 -0.008 166 114 93 0 0
0.6894 11.0732 -2.3881 -0.815 -0.474 -0.333 164 111 91 0 0
0.7030 11.0714 -2.3960 -0.905 -0.297 -0.306 175 120 99 0 0
0.7098 11.0589 -2.4019 -0.777 -0.475 -0.413 171 115 95 0 0
0.7175 11.0480 -2.4082 -0.902 -0.359 -0.242 164 108 88 0 0
0.7621 10.9335 -2.4526 -0.805 -0.474 -0.356 166 114 93 0 0
0.7715 10.9250 -2.4594 -0.957 -0.275 -0.097 176 124 103 0 0
0.7771 10.9107 -2.4649 -0.951 -0.307 -0.027 171 119 98 0 0
0.7856 10.9009 -2.4713 -0.761 -0.594 -0.261 155 103 83 0 0
0.8974 10.7293 -2.5633 -0.927 -0.214 -0.309 168 116 97 0 0
0.9179 10.6922 -2.5811 -0.899 -0.266 -0.348 164 113 95 0 0
0.9179 10.6480 -2.5886 -0.845 -0.448 -0.293 171 122 104 0 0
1.1124 10.3511 -2.7482 -0.983 -0.181 -0.008 163 112 98 0 0
1.1439 10.2434 -2.7842 -0.794 -0.455 -0.404 170 117 96 0 0
1.1629 10.2260 -2.7978 -0.832 -0.446 -0.329 174 118 100 0 0
1.2409 10.1156 -2.8604 -0.844 -0.514 -0.154 166 113 96 0 0
1.2553 10.0919 -2.8724 -0.788 -0.614 -0.037 191 140 123 0 0
1.2671 10.0859 -2.8801 -0.713 -0.697 -0.074 166 114 98 0 0
1.2944 10.0575 -2.9002 -0.830 -0.553 -0.066 137 84 70 0 0
1.2828 10.0222 -2.8997 -0.954 -0.235 -0.186 155 103 88 0 0
1.2851 10.0043 -2.9041 -0.848 -0.419 -0.325 160 108 92 0 0
1.3334 9.9812 -2.9351 -0.837 -0.452 -0.308 167 116 99 0 0
1.3420 9.9710 -2.9416 -0.862 -0.417 -0.289 161 110 93 0 0
1.3999 9.7744 -3.0076 -0.698 -0.628 -0.344 177 123 105 0 0
1.4688 9.7136 -3.0566 -0.906 -0.268 -0.329 181 130 111 0 0
1.4871 9.6944 -3.0701 -0.772 -0.581 -0.258 160 109 92 0 0
1.4972 9.6860 -3.0772 -0.891 -0.363 -0.272 167 116 99 0 0
1.5935 9.5548 -3.1535 -0.974 -0.182 -0.135 166 114 97 0 0
1.5978 9.5199 -3.1619 -0.960 -0.211 -0.185 167 115 98 0 0
1.6292 9.4160 -3.1972 -0.815 -0.389 -0.429 167 118 100 0 0
1.6422 9.3909 -3.2087 -0.912 -0.126 -0.389 175 124 105 0 0
1.6464 9.3759 -3.2136 -0.912 -0.126 -0.389 179 128 109 0 0
1.8683 9.0084 -3.4006 -0.842 -0.411 -0.350 170 118 100 0 0
1.8993 9.0012 -3.4193 -0.855 -0.379 -0.352 166 116 99 0 0
1.9114 8.9751 -3.4305 -0.884 -0.309 -0.351 160 113 97 0 0
1.9702 8.9190 -3.4730 -0.602 -0.711 -0.364 161 120 107 0 0
2.5427 9.2498 -3.7381 0.391 -0.842 -0.371 211 204 197 0 0
2.4329 8.8370 -3.7466 -0.637 -0.744 -0.205 224 221 216 0 0
2.4853 8.8455 -3.7746 -0.295 -0.904 0.310 226 223 216 0 0
3.0537 8.2590 -4.1933 -0.762 0.369 -0.532 227 224 217 0 0
2.9351 8.0972 -4.1542 -0.938 0.210 -0.274 223 214 201 0 0
2.9281 8.0739 -4.1542 -0.946 0.295 -0.132 216 204 190 0 0
2.9208 8.0505 -4.1541 -0.896 -0.087 0.435 203 189 171 0 0
2.9102 8.0248 -4.1526 -0.983 0.165 0.079 196 178 156 0 0
2.9285 7.9312 -4.1787 -0.932 0.051 -0.360 202 175 144 0 0
2.9979 7.5781 -4.2777 -0.951 -0.171 -0.258 202 176 144 0 0
2.9900 7.5557 -4.2771 -0.758 -0.653 -0.005 199 173 141 0 0
3.0012 7.5461 -4.2850 -0.632 -0.689 -0.355 196 172 139 0 0
3.1777 7.2868 -4.4281 -0.949 -0.300 0.101 194 169 138 0 0
3.2398 7.1908 -4.4793 -0.777 -0.490 -0.395 195 172 140 0 0
3.2545 7.1830 -4.4889 -0.745 -0.497 -0.445 194 171 140 0 0
3.4244 7.0498 -4.6068 -0.437 -0.894 0.100 182 161 131 0 0
3.5395 7.0488 -4.6716 -0.374 -0.685 -0.625 177 163 140 0 0
3.7322 6.9884 -4.7901 -0.331 -0.642 -0.692 213 212 208 0 0
3.7691 6.9917 -4.8102 -0.304 -0.821 -0.484 214 213 209 0 0
3.8878 6.9206 -4.8889 -0.369 -0.303 -0.879 216 217 212 0 0
3.7566 6.8012 -4.8355 -0.958 -0.153 -0.241 217 218 213 0 0
3.8185 6.5870 -4.9067 -0.299 -0.918 0.260 224 224 222 0 0
3.8335 6.5783 -4.9166 -0.307 -0.900 0.311 224 224 222 0 0
3.8466 6.5685 -4.9256 -0.221 -0.975 0.012 225 225 223 0 0
0.6663 11.2346 -2.3650 -0.982 0.170 -0.085 185 133 115 0 0
0.6533 11.1670 -2.3691 -0.989 -0.057 -0.139 170 119 98 0 0
0.6562 11.1484 -2.3739 -0.718 -0.510 -0.474 178 127 106 0 0
0.6824 11.0969 -2.3973 -0.984 -0.179 -0.008 172 117 97 0 0
0.6908 11.0870 -2.4037 -0.764 -0.611 -0.206 163 108 88 0 0
0.7036 11.0839 -2.4114 -0.869 -0.377 -0.320 178 123 103 0 0
0.7124 11.0746 -2.4180 -0.810 -0.474 -0.346 182 128 108 0 0
0.7172 11.0590 -2.4233 -0.902 -0.359 -0.242 169 115 95 0 0
0.7239 11.0463 -2.4292 -0.902 -0.359 -0.242 139 85 67 0 0
0.7703 10.9345 -2.4742 -0.957 -0.275 -0.097 179 124 103 0 0
0.8155 10.8440 -2.5150 -0.891 -0.363 -0.274 177 131 114 0 0
0.8440 10.7963 -2.5391 -0.830 -0.338 -0.443 161 116 100 0 0
0.8935 10.7570 -2.5736 -0.856 -0.355 -0.376 168 116 98 0 0
0.8990 10.7426 -2.5791 -0.944 -0.262 -0.201 170 119 102 0 0
0.9007 10.7228 -2.5834 -0.913 -0.214 -0.348 158 108 91 0 0
0.9172 10.7245 -2.5924 -0.889 -0.395 -0.231 170 121 105 0 0
0.9231 10.6664 -2.6056 -0.724 -0.640 -0.259 158 109 92 0 0
0.9328 10.6582 -2.6124 -0.724 -0.640 -0.259 165 116 98 0 0
0.9389 10.6447 -2.6181 -0.890 -0.344 -0.298 153 103 86 0 0
0.9717 10.6251 -2.6399 -0.946 -0.324 -0.029 163 111 95 0 0
0.9769 10.6104 -2.6453 -0.946 -0.324 -0.029 171 118 101 0 0
0.9837 10.5979 -2.6512 -0.986 -0.164 0.036 162 111 92 0 0
0.9883 10.5825 -2.6565 -0.992 -0.098 -0.078 141 91 75 0 0
1.0211 10.4751 -2.6930 -0.634 -0.699 -0.331 181 132 116 0 0
1.0403 10.4799 -2.7030 -0.929 -0.293 -0.227 161 114 97 0 0
1.0462 10.4662 -2.7087 -0.939 -0.276 -0.206 152 104 86 0 0
1.0518 10.4522 -2.7142 -0.929 -0.293 -0.227 159 111 92 0 0
1.1154 10.3657 -2.7646 -0.975 -0.221 -0.033 159 107 92 0 0
1.1808 10.2172 -2.8265 -0.897 -0.371 -0.242 165 113 95 0 0
1.2006 10.1794 -2.8441 -0.949 -0.316 -0.018 149 101 86 0 0
1.2357 10.1401 -2.8704 -0.984 -0.162 0.072 153 100 85 0 0
1.2406 10.1253 -2.8757 -0.893 -0.449 0.027 175 122 106 0 0
1.2409 10.1048 -2.8794 -0.930 -0.243 0.276 168 115 97 0 0
