ply
format ascii 1.0
element vertex 822
property float x
property float y
property float z
property float nx
property float ny
property float nz
property uchar diffuse_red
property uchar diffuse_green
property uchar diffuse_blue
property uchar class
property uchar detection
end_header
3.7334 7.4418 -1.9977 0.037 -0.823 0.567 226 206 177 0 0
3.7476 7.4385 -1.9970 -0.391 -0.680 0.621 229 209 179 0 0
4.5044 7.1776 -1.9534 -0.171 -0.961 0.219 230 211 181 0 0
4.9281 6.9916 -1.9260 -0.423 -0.672 0.608 224 205 176 0 0
4.9399 6.9829 -1.9249 -0.625 -0.542 0.562 225 207 180 0 0
5.1801 6.8847 -1.9099 -0.380 -0.647 0.661 229 211 184 0 0
6.4162 8.4906 -1.9938 0.581 -0.565 0.586 231 228 224 0 0
6.4470 8.5092 -1.9942 0.569 -0.617 0.543 222 215 206 0 0
6.4218 8.3322 -1.9815 -0.780 0.184 -0.599 180 159 133 0 0
6.3974 8.2581 -1.9766 -0.790 0.190 -0.583 180 158 133 0 0
6.3522 7.9589 -1.9552 -0.727 -0.317 -0.610 166 145 116 0 0
6.3542 7.8381 -1.9459 -0.836 -0.416 -0.357 165 146 116 0 0
6.3571 7.8122 -1.9438 -0.878 -0.444 -0.181 170 151 120 0 0
6.3964 7.7538 -1.9382 -0.701 -0.496 -0.513 172 151 119 0 0
6.4153 7.7239 -1.9353 -0.706 -0.500 -0.501 169 146 114 0 0
6.5979 7.3448 -1.9006 -0.721 -0.644 -0.256 167 150 121 0 0
6.7197 7.2246 -1.8876 -0.398 -0.857 -0.328 176 161 132 0 0
6.7618 7.2051 -1.8848 -0.248 -0.929 -0.275 169 153 127 0 0
7.0653 7.0318 -1.8621 -0.656 -0.738 0.158 181 166 141 0 0
7.0890 7.0382 -1.8618 -0.331 -0.931 -0.156 178 164 138 0 0
7.0892 7.0139 -1.8600 -0.409 -0.886 0.219 177 161 135 0 0
7.9288 7.0673 -1.8378 0.339 -0.857 -0.388 206 191 171 0 0
1.2540 9.2070 -2.2260 -0.258 -0.764 0.591 168 118 99 0 0
1.4679 9.0104 -2.2041 -0.467 -0.837 0.284 180 127 106 0 0
1.5368 8.9300 -2.1957 -0.258 -0.898 0.356 183 131 110 0 0
1.5515 8.9261 -2.1950 -0.258 -0.898 0.356 176 124 103 0 0
1.5663 8.9225 -2.1942 -0.097 -0.994 0.056 162 111 90 0 0
1.5813 8.9211 -2.1937 -0.097 -0.994 0.056 183 134 112 0 0
1.5958 8.9150 -2.1927 -0.235 -0.937 0.259 179 132 112 0 0
1.6106 8.9112 -2.1920 -0.372 -0.900 0.227 192 143 125 0 0
1.6250 8.9037 -2.1910 -0.242 -0.870 0.430 199 150 131 0 0
2.2282 8.7077 -2.1571 -0.284 -0.578 0.765 194 147 131 0 0
2.2427 8.7017 -2.1562 -0.285 -0.623 0.728 172 123 106 0 0
2.2899 8.7057 -2.1551 -0.389 -0.558 0.733 168 116 98 0 0
2.5717 8.7013 -2.1461 -0.178 -0.903 0.391 152 100 79 0 0
2.8410 8.6900 -2.1369 0.146 -0.823 0.549 131 100 80 0 0
3.1300 7.5942 -2.0427 -0.415 -0.817 0.400 226 207 177 0 0
3.1432 7.5879 -2.0419 -0.599 -0.698 0.392 228 209 179 0 0
3.2289 7.5732 -2.0381 -0.247 -0.860 0.446 228 209 179 0 0
3.2423 7.5678 -2.0372 -0.376 -0.715 0.589 227 208 178 0 0
3.2554 7.5609 -2.0363 -0.509 -0.769 0.387 228 208 180 0 0
3.2845 7.5577 -2.0352 -0.385 -0.757 0.528 227 208 178 0 0
3.2963 7.5468 -2.0339 -0.430 -0.706 0.563 226 205 176 0 0
3.3098 7.5415 -2.0331 -0.342 -0.697 0.630 226 204 176 0 0
3.5172 7.4787 -2.0218 -0.032 -0.690 0.723 225 204 175 0 0
3.5331 7.4807 -2.0215 -0.139 -0.662 0.736 223 202 173 0 0
3.5467 7.4757 -2.0207 -0.425 -0.750 0.507 223 204 174 0 0
3.5612 7.4734 -2.0201 -0.631 -0.693 0.349 227 208 178 0 0
3.9161 7.3889 -2.0026 0.023 -0.944 0.330 229 208 181 0 0
4.4422 7.1788 -1.9700 -0.633 -0.613 0.474 225 202 171 0 0
4.4869 7.1723 -1.9681 -0.277 -0.791 0.545 228 208 179 0 0
4.5036 7.1740 -1.9678 -0.013 -0.862 0.507 228 208 178 0 0
4.5479 7.1315 -1.9631 -0.225 -0.880 0.417 227 206 177 0 0
5.2744 6.8177 -1.9163 -0.284 -0.602 0.746 224 205 176 0 0
6.4297 8.4778 -2.0099 0.541 -0.631 0.556 229 228 222 0 0
6.4727 8.5169 -2.0116 0.597 -0.560 0.574 209 200 189 0 0
6.4452 8.3696 -2.0010 -0.780 0.183 -0.598 180 160 135 0 0
6.4290 8.3092 -1.9968 -0.798 0.195 -0.571 182 161 135 0 0
6.4062 8.2383 -1.9920 -0.741 0.163 -0.651 179 159 132 0 0
6.3893 8.1776 -1.9878 -0.756 0.169 -0.632 180 159 132 0 0
6.3544 7.9607 -1.9720 -0.448 -0.708 -0.546 169 147 116 0 0
6.3638 7.9447 -1.9705 -0.876 -0.105 -0.471 171 148 117 0 0
6.3746 7.7778 -1.9572 -0.821 -0.510 -0.256 168 147 116 0 0
6.4014 7.7601 -1.9550 -0.702 -0.550 -0.452 171 149 117 0 0
6.4100 7.7437 -1.9534 -0.587 -0.736 -0.337 172 149 117 0 0
6.4209 7.7311 -1.9521 -0.567 -0.824 0.027 165 142 111 0 0
6.4613 7.5881 -1.9397 -0.595 -0.702 -0.392 165 143 112 0 0
6.6487 7.3085 -1.9122 -0.269 -0.893 -0.360 172 156 130 0 0
6.7237 7.2289 -1.9037 -0.398 -0.857 -0.328 177 162 133 0 0
6.7509 7.2145 -1.9017 -0.375 -0.841 -0.391 173 157 131 0 0
6.8379 7.1536 -1.8943 -0.354 -0.771 -0.530 174 160 133 0 0
7.0720 7.0392 -1.8782 -0.391 -0.859 -0.331 177 162 137 0 0
7.0877 7.0351 -1.8774 -0.289 -0.867 -0.405 179 165 139 0 0
8.2866 7.3602 -1.8658 0.587 -0.713 -0.384 231 228 221 0 0
1.5516 8.9178 -2.2099 0.060 -0.942 0.329 187 135 116 0 0
1.5664 8.9140 -2.2092 -0.297 -0.892 0.342 187 137 117 0 0
1.5820 8.9203 -2.2092 -0.110 -0.993 0.038 191 143 122 0 0
1.6099 8.8941 -2.2063 -0.349 -0.735 0.582 197 149 131 0 0
2.1047 8.7015 -2.1760 -0.615 -0.490 0.617 173 124 103 0 0
2.1327 8.6827 -2.1737 -0.502 -0.521 0.691 183 134 114 0 0
2.6315 8.6780 -2.1582 -0.118 -0.949 0.293 161 106 86 0 0
2.6478 8.6802 -2.1579 -0.038 -0.997 0.070 127 72 52 0 0
2.8392 8.6777 -2.1519 0.087 -0.802 0.591 128 100 79 0 0
3.0283 7.6004 -2.0608 -0.738 -0.603 0.302 227 206 177 0 0
3.0409 7.5918 -2.0597 -0.291 -0.765 0.575 223 202 171 0 0
3.2258 7.5595 -2.0516 -0.299 -0.695 0.654 226 207 177 0 0
3.2404 7.5584 -2.0510 -0.418 -0.702 0.576 225 206 176 0 0
3.2536 7.5520 -2.0501 -0.387 -0.746 0.542 229 209 181 0 0
3.2668 7.5458 -2.0493 -0.387 -0.746 0.542 229 210 181 0 0
3.4328 7.4967 -2.0403 -0.245 -0.696 0.675 226 207 177 0 0
3.7279 7.4213 -2.0254 -0.017 -0.745 0.667 222 203 174 0 0
3.7389 7.4087 -2.0241 -0.373 -0.697 0.612 224 204 175 0 0
3.7530 7.4053 -2.0234 -0.665 -0.663 0.345 226 206 177 0 0
3.8018 7.3698 -2.0191 -0.629 -0.582 0.515 227 207 179 0 0
3.9794 7.3079 -2.0088 -0.345 -0.868 0.357 228 205 176 0 0
3.9914 7.2986 -2.0077 -0.627 -0.779 0.013 225 204 175 0 0
4.0019 7.2859 -2.0064 -0.314 -0.949 0.041 227 206 177 0 0
4.0164 7.2832 -2.0058 -0.245 -0.969 -0.044 227 205 177 0 0
4.0361 7.2940 -2.0060 0.008 -0.971 0.238 227 206 177 0 0
4.0509 7.2920 -2.0054 -0.363 -0.646 0.671 227 206 177 0 0
4.4567 7.1736 -1.9838 -0.429 -0.563 0.706 228 208 179 0 0
4.5557 7.1120 -1.9759 -0.397 -0.890 0.224 227 206 177 0 0
4.5739 7.1170 -1.9757 -0.306 -0.633 0.711 229 208 179 0 0
5.3111 6.7944 -1.9278 -0.046 -0.645 0.763 226 207 178 0 0
5.3273 6.7942 -1.9273 0.065 -0.682 0.729 227 208 178 0 0
6.4039 8.4319 -2.0246 0.615 -0.553 0.562 227 226 221 0 0
6.4526 8.3469 -2.0164 -0.823 0.205 -0.529 183 164 138 0 0
6.4328 8.2809 -2.0118 -0.816 0.202 -0.542 180 160 133 0 0
6.4130 8.2151 -2.0071 -0.837 0.214 -0.503 175 155 128 0 0
6.3575 7.9639 -1.9889 -0.116 -0.760 -0.640 170 147 116 0 0
6.4092 7.7708 -1.9720 -0.681 -0.439 -0.586 171 148 117 0 0
6.4144 7.7490 -1.9701 -0.701 -0.524 -0.483 169 146 114 0 0
6.4238 7.7338 -1.9687 -0.672 -0.677 -0.301 169 146 114 0 0
6.5694 7.4097 -1.9386 -0.647 -0.631 -0.427 164 145 115 0 0
6.6396 7.3209 -1.9294 -0.353 -0.827 -0.438 168 153 124 0 0
6.6537 7.3143 -1.9284 -0.353 -0.827 -0.438 169 154 126 0 0
6.6571 7.2922 -1.9266 -0.592 -0.792 -0.146 173 157 131 0 0
6.6641 7.2754 -1.9250 -0.209 -0.978 -0.012 172 156 130 0 0
6.6803 7.2719 -1.9243 -0.209 -0.978 -0.012 176 159 133 0 0
6.8342 7.1728 -1.9118 -0.115 -0.869 -0.481 171 155 129 0 0
7.2342 6.9787 -1.8843 -0.375 -0.921 -0.107 175 159 133 0 0
8.3229 7.4003 -1.8848 0.587 -0.713 -0.384 242 243 236 0 0
0.6081 11.6284 -2.4724 -0.880 -0.187 -0.436 240 239 237 0 0
1.5828 8.9193 -2.2247 -0.217 -0.967 0.135 188 140 120 0 0
2.6314 8.6732 -2.1737 -0.118 -0.949 0.293 134 79 58 0 0
2.8398 8.6763 -2.1677 0.307 -0.893 0.330 125 84 65 0 0
3.0275 7.5940 -2.0747 -0.743 -0.650 0.160 224 203 173 0 0
3.0407 7.5881 -2.0739 -0.452 -0.737 0.502 221 200 171 0 0
3.0535 7.5803 -2.0729 -0.238 -0.774 0.587 224 203 173 0 0
3.0812 7.5732 -2.0715 -0.221 -0.780 0.585 228 209 179 0 0
3.2796 7.5353 -2.0625 -0.300 -0.733 0.611 226 207 177 0 0
3.7240 7.4077 -2.0390 0.076 -0.830 0.552 226 207 177 0 0
3.7510 7.3971 -2.0373 -0.595 -0.658 0.461 228 208 181 0 0
3.7628 7.3871 -2.0362 -0.627 -0.588 0.511 227 206 179 0 0
3.9889 7.2901 -2.0216 -0.551 -0.702 0.451 227 206 177 0 0
4.0008 7.2808 -2.0205 -0.375 -0.920 0.113 227 206 177 0 0
4.0199 7.2901 -2.0207 -0.307 -0.779 0.548 226 205 176 0 0
4.0362 7.2920 -2.0204 -0.157 -0.936 0.316 231 210 181 0 0
4.0508 7.2897 -2.0198 -0.157 -0.936 0.316 229 208 180 0 0
4.6544 7.0490 -1.9824 -0.118 -0.712 0.692 227 206 177 0 0
4.6659 7.0397 -1.9813 -0.159 -0.890 0.428 227 206 177 0 0
4.7433 7.0021 -1.9759 -0.266 -0.805 0.531 225 206 176 0 0
4.7573 6.9980 -1.9752 -0.266 -0.805 0.531 226 207 177 0 0
4.8221 6.9675 -1.9708 -0.191 -0.763 0.617 228 207 178 0 0
4.9112 6.9532 -1.9670 -0.022 -0.783 0.622 223 206 180 0 0
4.9170 6.9331 -1.9652 -0.489 -0.571 0.659 228 208 181 0 0
6.3601 8.3891 -2.0399 0.613 -0.694 0.376 229 226 220 0 0
6.5297 8.5417 -2.0472 0.461 -0.619 0.635 188 172 159 0 0
6.4517 8.3105 -2.0308 -0.780 0.198 -0.593 180 160 133 0 0
6.4344 8.2489 -2.0264 -0.785 0.200 -0.586 181 161 135 0 0
6.4098 8.1755 -2.0212 -0.765 0.185 -0.618 176 156 129 0 0
6.3763 7.9616 -2.0049 -0.911 -0.399 -0.103 167 145 116 0 0
6.4345 7.7491 -1.9860 -0.288 -0.712 -0.640 174 151 119 0 0
6.6651 7.2754 -1.9409 -0.209 -0.978 -0.012 168 152 126 0 0
8.3595 7.4409 -1.9039 0.587 -0.713 -0.384 242 243 238 0 0
0.5358 11.8445 -2.5114 0.513 -0.588 0.625 239 239 237 0 0
0.5543 11.7991 -2.5071 0.682 -0.587 0.437 240 239 237 0 0
1.2694 9.1679 -2.2699 -0.309 -0.864 0.397 188 135 118 0 0
1.2839 9.1574 -2.2686 -0.532 -0.750 0.394 181 129 111 0 0
1.3129 9.1369 -2.2661 -0.326 -0.815 0.479 169 118 99 0 0
1.3952 9.0131 -2.2535 -0.618 -0.752 -0.230 173 118 97 0 0
1.4094 9.0013 -2.2521 -0.608 -0.756 -0.242 174 119 98 0 0
1.8561 8.7721 -2.2202 0.096 -0.701 0.706 182 130 110 0 0
2.5033 8.6591 -2.1920 -0.382 -0.924 -0.004 167 116 95 0 0
2.8413 8.6789 -2.1838 0.174 -0.975 0.139 114 68 50 0 0
3.0075 7.5712 -2.0879 -0.453 -0.623 0.638 229 207 177 0 0
3.0380 7.5748 -2.0873 -0.436 -0.631 0.642 224 204 175 0 0
3.0638 7.5605 -2.0853 -0.367 -0.693 0.620 226 206 177 0 0
3.2906 7.5190 -2.0753 -0.311 -0.659 0.685 225 206 176 0 0
3.3414 7.4882 -2.0713 -0.313 -0.769 0.556 225 203 172 0 0
3.3545 7.4819 -2.0704 -0.296 -0.853 0.430 229 205 176 0 0
3.3976 7.4754 -2.0686 -0.111 -0.814 0.570 223 204 174 0 0
3.4791 7.4467 -2.0639 -0.255 -0.678 0.690 228 206 176 0 0
3.4918 7.4390 -2.0629 -0.070 -0.740 0.669 228 205 174 0 0
3.5214 7.4371 -2.0619 -0.070 -0.740 0.669 226 205 176 0 0
3.9869 7.2825 -2.0356 -0.474 -0.651 0.592 229 208 179 0 0
4.3057 7.1487 -2.0152 -0.323 -0.747 0.581 227 209 180 0 0
4.4385 7.0937 -2.0068 -0.108 -0.915 0.389 229 210 180 0 0
4.6362 7.0424 -1.9969 -0.099 -0.695 0.712 226 205 176 0 0
5.3253 6.7589 -1.9534 -0.032 -0.584 0.811 225 206 176 0 0
6.5455 8.5325 -2.0637 0.396 -0.637 0.661 182 165 150 0 0
6.5802 8.5568 -2.0646 0.397 -0.629 0.669 182 162 141 0 0
6.4434 8.1970 -2.0390 -0.778 0.141 -0.612 177 156 129 0 0
6.4208 7.8161 -2.0084 -0.643 -0.552 -0.531 167 144 115 0 0
6.4410 7.7877 -2.0055 -0.533 -0.601 -0.595 168 145 114 0 0
6.4433 7.7613 -2.0032 -0.088 -0.773 -0.628 171 148 116 0 0
6.4506 7.6836 -1.9966 0.094 -0.825 -0.557 165 145 112 0 0
6.6528 7.3099 -1.9600 -0.664 -0.554 -0.502 168 151 123 0 0
7.1313 7.0385 -1.9237 -0.344 -0.866 -0.362 182 168 142 0 0
7.2533 7.0002 -1.9170 -0.368 -0.728 -0.578 182 167 141 0 0
7.2798 6.9855 -1.9150 -0.133 -0.860 -0.493 174 160 135 0 0
7.7512 7.0169 -1.9038 0.053 -0.972 0.227 196 181 160 0 0
8.3965 7.4817 -1.9232 0.587 -0.713 -0.384 243 242 241 0 0
1.2846 9.1542 -2.2841 -0.599 -0.725 0.340 195 141 123 0 0
1.3680 9.0429 -2.2724 -0.632 -0.699 0.335 167 112 91 0 0
1.3963 9.0169 -2.2694 -0.556 -0.773 -0.306 166 111 90 0 0
1.8984 8.7384 -2.2317 -0.341 -0.581 0.739 178 126 109 0 0
1.9121 8.7259 -2.2303 -0.432 -0.599 0.675 183 134 115 0 0
2.0859 8.6592 -2.2197 -0.300 -0.685 0.663 170 115 95 0 0
2.4360 8.6288 -2.2071 -0.444 -0.896 0.003 152 100 78 0 0
2.4532 8.6374 -2.2074 -0.548 -0.785 0.290 152 101 80 0 0
2.8185 8.6438 -2.1974 0.320 -0.882 0.347 114 67 50 0 0
2.9903 7.5590 -2.1017 -0.285 -0.678 0.677 227 206 177 0 0
3.0051 7.5591 -2.1013 -0.451 -0.585 0.674 228 207 178 0 0
3.0343 7.5577 -2.1004 -0.054 -0.833 0.551 227 209 181 0 0
3.0489 7.5571 -2.0999 -0.054 -0.833 0.551 229 211 183 0 0
3.0765 7.5497 -2.0985 -0.238 -0.854 0.463 226 206 176 0 0
3.2729 7.5071 -2.0893 -0.206 -0.691 0.693 225 204 173 0 0
3.3393 7.4787 -2.0850 -0.273 -0.792 0.547 226 204 175 0 0
3.3950 7.4643 -2.0822 -0.388 -0.894 0.225 227 208 178 0 0
3.4067 7.4535 -2.0810 -0.490 -0.632 0.601 228 209 179 0 0
3.4177 7.4407 -2.0796 -0.673 -0.526 0.520 223 202 173 0 0
3.7630 7.3398 -2.0612 -0.259 -0.653 0.712 227 203 175 0 0
3.7766 7.3352 -2.0605 -0.259 -0.653 0.712 228 206 176 0 0
3.7886 7.3258 -2.0593 -0.404 -0.622 0.671 228 207 178 0 0
3.8110 7.3032 -2.0568 -0.436 -0.601 0.669 228 208 182 0 0
3.9854 7.2766 -2.0496 -0.560 -0.587 0.585 229 207 179 0 0
4.3041 7.1427 -2.0292 -0.245 -0.852 0.464 227 207 179 0 0
4.4368 7.0880 -2.0209 -0.108 -0.915 0.389 232 213 183 0 0
4.4851 7.0902 -2.0197 -0.179 -0.863 0.472 231 212 182 0 0
4.8216 6.8994 -1.9941 -0.593 -0.635 0.495 227 206 177 0 0
6.4738 8.2454 -2.0594 -0.848 0.165 -0.504 180 160 132 0 0
6.4550 8.1822 -2.0546 -0.873 0.179 -0.453 178 159 130 0 0
6.4348 7.7762 -2.0212 -0.468 -0.679 -0.565 164 141 110 0 0
6.4501 7.7703 -2.0203 -0.171 -0.843 -0.510 165 142 111 0 0
6.4546 7.7476 -2.0182 -0.462 -0.805 -0.373 165 142 111 0 0
6.4926 7.5720 -2.0025 -0.494 -0.855 -0.158 171 153 124 0 0
6.5062 7.5640 -2.0014 -0.494 -0.855 -0.158 169 152 124 0 0
6.8075 7.2356 -1.9653 -0.269 -0.942 0.199 172 155 127 0 0
6.8340 7.2201 -1.9632 -0.248 -0.964 0.096 172 155 127 0 0
6.8588 7.2024 -1.9610 -0.549 -0.835 -0.046 177 160 133 0 0
6.8669 7.1877 -1.9596 -0.137 -0.991 0.005 181 165 139 0 0
6.8941 7.1735 -1.9576 -0.630 -0.744 -0.223 176 161 135 0 0
8.2927 7.4097 -1.9373 0.547 -0.682 -0.485 239 238 231 0 0
8.3548 7.4568 -1.9395 0.551 -0.698 -0.458 242 242 239 0 0
8.4321 7.5211 -1.9426 0.581 -0.708 -0.403 243 241 242 0 0
0.5019 11.8207 -2.5490 -0.160 -0.844 0.513 240 239 237 0 0
0.5382 11.7938 -2.5457 0.346 -0.760 0.550 240 239 237 0 0
1.3098 9.0599 -2.2912 -0.283 -0.742 0.608 163 112 94 0 0
1.3246 9.0567 -2.2905 -0.364 -0.688 0.628 176 125 105 0 0
2.0704 8.6516 -2.2350 -0.370 -0.696 0.615 179 126 109 0 0
2.0853 8.6490 -2.2344 -0.050 -0.941 0.334 180 127 110 0 0
2.1004 8.6484 -2.2339 -0.050 -0.941 0.334 187 136 116 0 0
2.1150 8.6431 -2.2330 0.141 -0.946 0.293 191 140 119 0 0
2.1298 8.6400 -2.2323 -0.265 -0.923 0.279 188 137 119 0 0
2.1449 8.6390 -2.2318 -0.092 -0.932 0.352 194 144 124 0 0
2.6916 8.6432 -2.2168 -0.003 -0.818 0.575 161 111 89 0 0
2.7342 8.6189 -2.2135 -0.176 -0.779 0.602 115 64 45 0 0
3.0474 7.5484 -2.1136 -0.078 -0.798 0.597 228 208 180 0 0
3.0749 7.5409 -2.1122 -0.245 -0.800 0.548 228 207 178 0 0
3.0890 7.5383 -2.1115 -0.170 -0.814 0.555 229 207 177 0 0
3.0987 7.5198 -2.1097 -0.384 -0.658 0.647 230 207 175 0 0
3.1131 7.5183 -2.1092 -0.447 -0.699 0.558 231 208 176 0 0
3.1249 7.5074 -2.1079 -0.684 -0.409 0.604 227 204 172 0 0
3.2691 7.4914 -2.1025 -0.222 -0.670 0.708 226 205 176 0 0
3.3491 7.4588 -2.0975 -0.146 -0.745 0.650 231 210 183 0 0
3.3649 7.4615 -2.0972 -0.202 -0.823 0.531 227 206 177 0 0
3.3790 7.4585 -2.0966 -0.202 -0.823 0.531 229 208 179 0 0
3.4028 7.4384 -2.0942 -0.443 -0.680 0.584 226 206 177 0 0
3.4871 7.4193 -2.0902 -0.358 -0.783 0.509 225 204 175 0 0
3.7715 7.3186 -2.0736 -0.458 -0.657 0.599 227 206 177 0 0
3.7850 7.3136 -2.0728 -0.404 -0.622 0.671 225 204 175 0 0
3.8073 7.2909 -2.0703 -0.476 -0.656 0.585 227 209 179 0 0
3.8201 7.2842 -2.0693 -0.373 -0.634 0.677 226 207 180 0 0
3.9493 7.2604 -2.0637 -0.369 -0.717 0.591 228 209 179 0 0
4.0471 7.2342 -2.0587 -0.062 -0.710 0.701 230 209 179 0 0
4.2650 7.1591 -2.0462 -0.274 -0.649 0.710 230 206 178 0 0
4.3781 7.0950 -2.0375 -0.163 -0.799 0.579 227 205 174 0 0
4.4353 7.0825 -2.0349 -0.254 -0.952 0.171 228 209 179 0 0
4.4682 7.0858 -2.0342 -0.179 -0.863 0.472 231 210 181 0 0
4.4818 7.0810 -2.0334 0.093 -0.892 0.443 230 211 181 0 0
4.5802 7.0206 -2.0255 -0.159 -0.755 0.637 231 208 177 0 0
4.6978 6.9685 -2.0178 -0.337 -0.656 0.675 229 209 182 0 0
4.8253 6.9049 -2.0088 -0.708 -0.627 0.325 228 206 180 0 0
5.2924 6.7269 -1.9805 -0.304 -0.620 0.723 228 208 178 0 0
6.4488 8.4332 -2.0933 0.321 -0.654 0.685 223 221 216 0 0
6.5578 8.5156 -2.0972 0.586 -0.603 0.542 185 173 159 0 0
6.6032 8.5576 -2.0995 0.586 -0.603 0.542 185 165 146 0 0
6.4942 8.2773 -2.0787 -0.814 0.164 -0.558 182 162 135 0 0
6.4724 8.2090 -2.0735 -0.814 0.188 -0.550 180 159 134 0 0
6.3921 7.9198 -2.0511 -0.832 -0.285 -0.476 174 153 124 0 0
6.4523 7.8022 -2.0394 -0.780 -0.535 -0.325 166 144 113 0 0
6.4591 7.7529 -2.0350 -0.462 -0.805 -0.373 166 143 111 0 0
6.7928 7.2398 -1.9820 -0.575 -0.810 -0.113 179 163 137 0 0
6.8086 7.2356 -1.9812 -0.281 -0.959 -0.011 178 162 134 0 0
7.0972 7.0653 -1.9585 -0.197 -0.932 -0.303 173 157 129 0 0
7.1540 7.0406 -1.9548 -0.349 -0.870 -0.350 180 165 142 0 0
8.3325 7.4540 -1.9569 0.523 -0.665 -0.533 241 242 236 0 0
8.4714 7.5646 -1.9624 0.581 -0.708 -0.403 242 242 240 0 0
8.6894 7.7636 -1.9732 0.611 -0.699 -0.372 242 242 240 0 0
2.7428 8.6556 -2.2323 0.268 -0.829 -0.490 119 68 49 0 0
2.9855 7.5342 -2.1284 -0.115 -0.609 0.785 226 205 176 0 0
3.0225 7.5075 -2.1251 -0.219 -0.568 0.793 230 210 181 0 0
3.1330 7.4804 -2.1197 -0.652 -0.455 0.606 226 203 172 0 0
3.1565 7.4589 -2.1172 -0.276 -0.544 0.793 227 204 175 0 0
3.3184 7.4535 -2.1123 -0.445 -0.745 0.496 226 206 176 0 0
3.3445 7.4410 -2.1104 0.102 -0.987 0.123 227 206 179 0 0
4.0266 7.2192 -2.0724 0.018 -0.804 0.594 225 202 171 0 0
4.0423 7.2198 -2.0720 0.018 -0.804 0.594 227 206 175 0 0
4.0563 7.2163 -2.0713 0.043 -0.816 0.576 223 203 172 0 0
4.1090 7.1932 -2.0679 -0.417 -0.713 0.563 229 208 179 0 0
4.1213 7.1853 -2.0669 -0.318 -0.777 0.544 228 207 178 0 0
4.1347 7.1804 -2.0661 -0.318 -0.777 0.544 226 205 176 0 0
4.1482 7.1753 -2.0653 -0.195 -0.759 0.621 227 206 178 0 0
4.4194 7.0801 -2.0495 -0.149 -0.808 0.570 223 202 173 0 0
4.4366 7.0836 -2.0493 -0.239 -0.737 0.633 224 204 174 0 0
4.5610 7.0114 -2.0397 0.129 -0.974 0.187 229 206 176 0 0
4.5763 7.0103 -2.0391 0.065 -0.888 0.455 228 205 174 0 0
4.6003 6.9944 -2.0371 -0.243 -0.595 0.766 229 208 179 0 0
4.6178 6.9647 -2.0341 -0.091 -0.847 0.524 227 206 177 0 0
4.6931 6.9570 -2.0313 -0.337 -0.656 0.675 225 207 179 0 0
6.4365 8.4106 -2.1091 0.321 -0.654 0.685 222 219 214 0 0
6.4645 8.4243 -2.1095 0.422 -0.753 0.505 219 219 215 0 0
6.4873 8.4291 -2.1093 0.615 -0.618 0.490 220 217 210 0 0
6.5374 8.4795 -2.1123 0.632 -0.599 0.492 209 201 189 0 0
6.5911 8.5356 -2.1157 0.619 -0.629 0.471 184 170 153 0 0
6.5093 8.3004 -2.0976 -0.770 0.150 -0.620 178 158 131 0 0
6.4928 8.2408 -2.0929 -0.814 0.188 -0.550 177 157 130 0 0
6.4924 7.7143 -2.0473 -0.053 -0.868 -0.494 166 146 117 0 0
6.5061 7.7060 -2.0462 -0.580 -0.814 -0.021 166 146 118 0 0
6.7525 7.2874 -2.0031 -0.551 -0.627 -0.550 168 152 126 0 0
6.8265 7.2329 -1.9963 -0.466 -0.841 -0.276 177 162 133 0 0
6.8524 7.2167 -1.9942 -0.317 -0.945 -0.079 169 153 126 0 0
6.8584 7.1990 -1.9925 -0.343 -0.888 -0.307 175 159 133 0 0
7.0157 7.1059 -1.9801 -0.097 -0.980 -0.176 174 158 132 0 0
7.0292 7.0988 -1.9791 -0.151 -0.905 -0.399 175 159 133 0 0
7.1262 7.0523 -1.9724 -0.647 -0.752 -0.126 176 160 135 0 0
7.1409 7.0468 -1.9715 -0.546 -0.795 -0.262 178 162 137 0 0
7.5407 7.0423 -1.9601 -0.223 -0.855 -0.469 186 171 147 0 0
7.5558 7.0371 -1.9593 -0.196 -0.889 -0.413 186 172 147 0 0
8.3156 7.4573 -1.9747 0.520 -0.648 -0.557 241 240 236 0 0
8.5111 7.6085 -1.9824 0.581 -0.708 -0.403 242 242 240 0 0
8.5863 7.6697 -1.9856 0.551 -0.698 -0.458 243 243 241 0 0
0.5240 11.6226 -2.5696 -0.011 -0.878 0.479 238 237 235 0 0
2.5921 8.6113 -2.2483 -0.125 -0.966 0.227 157 106 85 0 0
2.6419 8.6243 -2.2481 0.438 -0.896 0.068 159 105 84 0 0
3.0870 7.4711 -2.1344 -0.239 -0.580 0.779 226 203 172 0 0
3.1298 7.4660 -2.1328 -0.664 -0.493 0.562 228 205 174 0 0
3.1823 7.4431 -2.1294 -0.193 -0.870 0.454 229 208 179 0 0
3.1966 7.4413 -2.1288 -0.079 -0.847 0.525 231 210 180 0 0
3.4777 7.3851 -2.1163 -0.470 -0.644 0.604 227 207 178 0 0
4.0220 7.2054 -2.0857 0.132 -0.853 0.504 223 202 171 0 0
4.0521 7.2034 -2.0847 -0.041 -0.824 0.566 225 203 172 0 0
4.1060 7.1837 -2.0815 -0.425 -0.696 0.578 230 210 183 0 0
4.1186 7.1766 -2.0806 -0.483 -0.662 0.573 229 209 180 0 0
4.1313 7.1698 -2.0796 -0.425 -0.696 0.578 231 210 181 0 0
4.1456 7.1670 -2.0790 -0.287 -0.592 0.753 227 206 176 0 0
4.2490 7.1172 -2.0718 -0.233 -0.873 0.428 227 206 178 0 0
4.2617 7.1106 -2.0709 -0.300 -0.688 0.660 226 205 176 0 0
4.4162 7.0711 -2.0632 -0.149 -0.808 0.570 227 206 177 0 0
4.5263 7.0027 -2.0542 0.020 -0.934 0.356 228 207 180 0 0
4.5389 6.9958 -2.0533 -0.252 -0.782 0.570 228 207 178 0 0
4.5830 6.9892 -2.0515 -0.306 -0.694 0.652 225 204 175 0 0
4.6000 6.9585 -2.0483 -0.011 -0.753 0.658 228 207 176 0 0
4.6148 6.9566 -2.0478 -0.091 -0.847 0.524 227 207 177 0 0
4.6273 6.9497 -2.0468 -0.006 -0.745 0.667 227 207 179 0 0
4.8294 6.8781 -2.0350 -0.051 -0.730 0.682 229 209 182 0 0
5.2785 6.6994 -2.0071 -0.290 -0.623 0.726 228 207 179 0 0
5.2885 6.6887 -2.0059 -0.494 -0.569 0.658 228 207 179 0 0
6.4726 8.4025 -2.1249 0.625 -0.639 0.448 216 216 211 0 0
6.5704 8.4992 -2.1308 0.632 -0.599 0.492 195 187 173 0 0
6.6213 8.5503 -2.1339 0.632 -0.599 0.492 184 167 150 0 0
6.5357 8.3094 -2.1150 -0.868 0.184 -0.461 175 157 128 0 0
6.4746 8.1768 -2.1049 -0.841 0.169 -0.515 175 155 128 0 0
6.4861 7.7324 -2.0655 -0.166 -0.825 -0.540 164 143 113 0 0
6.5015 7.7267 -2.0646 -0.252 -0.832 -0.495 162 143 114 0 0
6.5121 7.7137 -2.0631 -0.761 -0.626 -0.169 166 146 118 0 0
6.5271 7.7073 -2.0622 -0.844 -0.472 -0.256 168 148 121 0 0
6.6073 7.4846 -2.0404 -0.554 -0.648 -0.523 172 155 129 0 0
7.0331 7.1026 -1.9952 -0.184 -0.934 -0.307 171 155 129 0 0
7.0530 7.1039 -1.9948 -0.287 -0.889 -0.356 170 154 128 0 0
7.5761 7.0366 -1.9747 -0.112 -0.865 -0.489 183 168 145 0 0
8.5512 7.6529 -2.0026 0.581 -0.708 -0.403 242 242 240 0 0
8.6329 7.7213 -2.0064 0.540 -0.701 -0.466 242 242 240 0 0
0.4889 11.6629 -2.5931 0.409 -0.744 0.528 238 237 235 0 0
0.5066 11.6712 -2.5934 0.403 -0.839 0.365 238 237 235 0 0
0.6318 11.6502 -2.5882 -0.749 -0.278 -0.601 236 235 233 0 0
2.2180 8.5995 -2.2728 -0.199 -0.959 0.201 163 110 90 0 0
2.5914 8.6036 -2.2633 -0.217 -0.976 -0.030 174 122 101 0 0
2.6469 7.6344 -2.1750 0.422 -0.736 0.529 204 178 154 0 0
2.8521 7.5205 -2.1594 -0.138 -0.834 0.534 228 211 182 0 0
2.8664 7.5194 -2.1589 -0.526 -0.733 0.430 226 207 177 0 0
2.8801 7.5159 -2.1582 -0.258 -0.834 0.487 227 208 178 0 0
3.1378 7.4391 -2.1445 -0.188 -0.606 0.773 224 201 170 0 0
3.1511 7.4343 -2.1437 -0.372 -0.582 0.724 226 203 172 0 0
3.1798 7.4314 -2.1427 -0.280 -0.792 0.543 231 208 177 0 0
3.3475 7.3966 -2.1351 -0.247 -0.570 0.784 226 205 175 0 0
3.4028 7.3825 -2.1324 -0.137 -0.789 0.599 225 205 178 0 0
3.5854 7.3437 -2.1241 -0.323 -0.713 0.622 226 207 177 0 0
3.8665 7.2375 -2.1071 -0.078 -0.807 0.585 230 210 183 0 0
3.8798 7.2324 -2.1063 -0.202 -0.793 0.575 229 209 181 0 0
4.0652 7.1955 -2.0981 -0.081 -0.736 0.672 228 207 177 0 0
4.1266 7.1562 -2.0929 -0.433 -0.526 0.732 226 207 177 0 0
4.1781 7.1309 -2.0893 -0.486 -0.586 0.648 228 209 178 0 0
4.3350 7.0621 -2.0790 -0.383 -0.719 0.579 223 202 172 0 0
4.5232 6.9940 -2.0679 -0.018 -0.942 0.336 229 209 180 0 0
4.6076 6.9396 -2.0608 -0.111 -0.677 0.727 227 207 178 0 0
4.6224 6.9377 -2.0602 -0.020 -0.731 0.682 229 209 181 0 0
4.8216 6.8610 -2.0480 -0.182 -0.623 0.761 226 207 177 0 0
4.9620 6.7942 -2.0383 -0.348 -0.635 0.690 228 208 181 0 0
5.2774 6.6679 -2.0187 -0.582 -0.428 0.691 230 210 183 0 0
6.4940 8.4033 -2.1418 0.607 -0.570 0.554 215 214 208 0 0
6.5565 8.3419 -2.1347 -0.946 0.200 -0.253 174 156 129 0 0
6.4935 8.2060 -2.1242 -0.880 0.194 -0.434 173 153 127 0 0
6.4527 7.9815 -2.1051 -0.846 -0.027 -0.532 172 152 123 0 0
6.4721 7.8587 -2.0936 -0.704 -0.277 -0.654 164 142 114 0 0
6.5086 7.7361 -2.0817 -0.275 -0.810 -0.517 161 142 111 0 0
6.6031 7.5049 -2.0585 -0.477 -0.776 -0.413 170 153 127 0 0
6.9267 7.1865 -2.0214 -0.318 -0.936 -0.152 178 162 137 0 0
7.0408 7.1114 -2.0116 -0.061 -0.993 -0.097 174 158 132 0 0
7.0562 7.1068 -2.0108 -0.168 -0.968 0.186 173 157 131 0 0
7.0729 7.1037 -2.0101 -0.334 -0.942 -0.024 172 156 130 0 0
7.5546 7.0566 -1.9931 -0.065 -0.840 -0.538 194 179 156 0 0
8.5917 7.6977 -2.0230 0.581 -0.708 -0.403 241 241 239 0 0
0.4881 11.8061 -2.6252 0.483 -0.601 0.636 239 238 236 0 0
0.5087 11.5780 -2.6039 0.263 -0.674 0.690 238 237 235 0 0
0.6327 11.6831 -2.6103 -0.883 -0.254 -0.394 236 235 233 0 0
1.4097 8.9380 -2.3402 -0.632 -0.664 0.398 171 119 98 0 0
1.8595 8.6324 -2.3006 -0.384 -0.644 0.662 190 138 116 0 0
1.8736 8.6247 -2.2996 -0.230 -0.631 0.741 180 128 107 0 0
1.9186 8.6247 -2.2984 -0.071 -0.601 0.796 179 130 113 0 0
2.0507 8.5956 -2.2923 -0.171 -0.703 0.690 149 97 76 0 0
2.5939 8.6119 -2.2797 0.113 -0.989 0.100 150 99 78 0 0
2.6104 8.6157 -2.2796 0.185 -0.886 0.424 119 69 49 0 0
2.6756 8.6254 -2.2788 0.138 -0.940 -0.313 106 62 46 0 0
2.6451 7.6225 -2.1883 0.286 -0.667 0.688 223 202 175 0 0
2.7546 7.5332 -2.1773 -0.294 -0.666 0.686 226 205 176 0 0
2.8498 7.5078 -2.1725 -0.208 -0.926 0.316 230 210 182 0 0
2.8654 7.5122 -2.1725 -0.526 -0.733 0.430 225 206 176 0 0
2.9024 7.4859 -2.1691 -0.385 -0.742 0.549 221 202 172 0 0
2.9131 7.4708 -2.1675 -0.628 -0.609 0.485 222 203 173 0 0
2.9268 7.4679 -2.1669 -0.302 -0.821 0.484 226 205 178 0 0
2.9416 7.4689 -2.1666 -0.239 -0.714 0.658 229 205 178 0 0
3.1205 7.4271 -2.1581 -0.188 -0.606 0.773 227 206 175 0 0
3.1781 7.4226 -2.1562 -0.187 -0.721 0.668 229 205 175 0 0
3.1920 7.4196 -2.1556 -0.187 -0.721 0.668 228 204 174 0 0
3.6275 7.2877 -2.1322 -0.543 -0.521 0.659 228 206 177 0 0
3.6364 7.2698 -2.1304 -0.210 -0.707 0.675 227 207 177 0 0
3.6543 7.2781 -2.1307 -0.187 -0.683 0.706 226 207 177 0 0
3.9175 7.2084 -2.1175 -0.332 -0.541 0.773 229 208 179 0 0
3.9967 7.1758 -2.1125 0.055 -0.729 0.682 224 203 174 0 0
4.0125 7.1770 -2.1121 0.066 -0.684 0.727 223 202 173 0 0
4.0726 7.1733 -2.1103 -0.097 -0.653 0.751 228 208 178 0 0
4.6341 6.9274 -2.0733 0.052 -0.732 0.680 228 207 179 0 0
4.7406 6.8872 -2.0668 -0.714 -0.572 0.403 224 204 173 0 0
4.7530 6.8803 -2.0659 -0.428 -0.628 0.650 226 207 176 0 0
4.9567 6.7825 -2.0517 -0.348 -0.635 0.690 231 211 184 0 0
6.4400 8.3774 -2.1583 0.403 -0.749 0.525 221 212 201 0 0
6.4735 8.3672 -2.1565 0.607 -0.570 0.554 213 213 208 0 0
6.5253 8.4203 -2.1600 0.588 -0.563 0.581 215 211 204 0 0
6.6209 8.5124 -2.1659 0.575 -0.558 0.598 183 166 148 0 0
6.5099 8.2311 -2.1432 -0.884 0.194 -0.426 174 154 129 0 0
6.4685 8.0364 -2.1266 -0.802 -0.003 -0.597 172 151 123 0 0
6.4653 8.0000 -2.1233 -0.797 -0.011 -0.604 167 147 120 0 0
6.4736 7.9513 -2.1187 -0.873 -0.161 -0.461 169 149 122 0 0
6.4758 7.9240 -2.1161 -0.810 -0.192 -0.555 164 143 116 0 0
6.4764 7.8944 -2.1134 -0.704 -0.277 -0.654 165 144 117 0 0
6.4659 7.7869 -2.1039 -0.489 -0.556 -0.672 162 142 115 0 0
6.5199 7.7224 -2.0966 -0.627 -0.694 -0.355 161 142 112 0 0
6.5303 7.6505 -2.0898 -0.669 -0.536 -0.514 166 149 121 0 0
6.5501 7.6228 -2.0868 -0.669 -0.536 -0.514 171 155 129 0 0
6.6016 7.5292 -2.0769 -0.195 -0.773 -0.604 166 149 121 0 0
6.6970 7.3919 -2.0619 -0.638 -0.717 -0.280 168 150 120 0 0
6.7085 7.3812 -2.0607 -0.638 -0.717 -0.280 156 139 111 0 0
6.7441 7.3512 -2.0570 -0.515 -0.729 -0.451 170 155 128 0 0
6.9256 7.1835 -2.0370 -0.343 -0.911 -0.230 183 169 145 0 0
7.0430 7.1129 -2.0275 -0.061 -0.993 -0.097 171 155 130 0 0
7.0551 7.1039 -2.0264 -0.168 -0.968 0.186 173 157 131 0 0
7.3815 7.0813 -2.0159 -0.262 -0.946 -0.191 168 153 124 0 0
7.3931 7.0716 -2.0147 -0.485 -0.812 -0.325 178 163 134 0 0
7.4093 7.0677 -2.0139 -0.393 -0.910 -0.129 182 167 139 0 0
7.4218 7.0592 -2.0128 -0.464 -0.848 -0.257 183 167 141 0 0
7.4434 7.0619 -2.0125 -0.029 -0.992 -0.121 189 173 147 0 0
7.4623 7.0613 -2.0119 -0.168 -0.962 -0.214 189 173 148 0 0
7.5638 7.0666 -2.0098 -0.065 -0.840 -0.538 190 177 152 0 0
8.3369 7.4537 -2.0249 0.156 -0.698 -0.699 240 240 238 0 0
8.3636 7.4601 -2.0248 0.174 -0.681 -0.712 240 240 238 0 0
1.4099 8.9291 -2.3549 -0.632 -0.664 0.398 160 109 92 0 0
1.8724 8.6082 -2.3134 -0.331 -0.584 0.742 182 132 112 0 0
2.0350 8.5859 -2.3072 -0.163 -0.743 0.649 175 124 103 0 0
2.2924 8.5741 -2.2995 0.264 -0.895 0.360 156 104 83 0 0
2.5945 8.6107 -2.2952 0.274 -0.961 -0.015 132 77 58 0 0
2.7126 7.5350 -2.1927 -0.432 -0.546 0.718 226 207 177 0 0
2.8983 7.4667 -2.1817 -0.394 -0.621 0.678 226 206 178 0 0
2.9110 7.4597 -2.1807 -0.394 -0.621 0.678 227 207 179 0 0
2.9255 7.4594 -2.1803 -0.578 -0.753 0.315 227 205 177 0 0
2.9398 7.4587 -2.1799 -0.138 -0.759 0.637 230 209 179 0 0
3.1043 7.4186 -2.1720 -0.381 -0.660 0.648 227 206 177 0 0
3.1444 7.4047 -2.1697 -0.348 -0.701 0.623 225 204 174 0 0
3.1587 7.4033 -2.1692 -0.264 -0.853 0.450 224 203 172 0 0
3.1756 7.4110 -2.1694 -0.145 -0.880 0.453 225 203 172 0 0
3.1895 7.4080 -2.1688 -0.187 -0.721 0.668 227 204 173 0 0
3.2433 7.3902 -2.1658 -0.241 -0.697 0.675 226 205 175 0 0
3.5381 7.2871 -2.1488 -0.064 -0.738 0.672 227 208 179 0 0
3.6512 7.2667 -2.1440 -0.202 -0.700 0.685 230 210 180 0 0
4.5844 6.9200 -2.0882 -0.316 -0.607 0.729 226 205 176 0 0
4.5969 6.9135 -2.0872 -0.408 -0.622 0.668 226 207 178 0 0
4.6797 6.8898 -2.0829 -0.055 -0.762 0.645 230 210 179 0 0
4.6974 6.8938 -2.0828 0.134 -0.918 0.374 229 209 179 0 0
4.7102 6.8877 -2.0820 -0.484 -0.583 0.652 233 210 182 0 0
4.7275 6.8908 -2.0818 -0.661 -0.644 0.385 229 208 177 0 0
4.7382 6.8805 -2.0806 -0.661 -0.644 0.385 227 207 175 0 0
4.9137 6.7897 -2.0677 -0.265 -0.556 0.788 231 211 181 0 0
4.9379 6.7753 -2.0658 -0.206 -0.609 0.766 230 210 183 0 0
5.3026 6.6247 -2.0425 -0.094 -0.666 0.740 230 211 185 0 0
5.3169 6.6214 -2.0419 -0.202 -0.702 0.683 228 209 182 0 0
5.3308 6.6176 -2.0412 -0.201 -0.717 0.668 226 207 180 0 0
5.3427 6.6105 -2.0402 -0.095 -0.742 0.664 223 204 176 0 0
6.5120 8.3964 -2.1757 0.477 -0.617 0.626 215 210 206 0 0
6.5553 8.4352 -2.1781 0.478 -0.566 0.671 213 206 199 0 0
6.5611 8.3131 -2.1667 -0.924 0.165 -0.344 173 153 127 0 0
6.4910 8.0710 -2.1461 -0.638 -0.029 -0.769 175 154 127 0 0
6.4889 7.7914 -2.1203 -0.807 -0.339 -0.483 160 141 113 0 0
6.4940 7.7695 -2.1181 -0.667 -0.496 -0.555 157 139 111 0 0
6.5462 7.6732 -2.1079 -0.152 -0.810 -0.567 164 147 119 0 0
6.5464 7.6446 -2.1052 -0.660 -0.563 -0.498 168 152 125 0 0
6.5567 7.6313 -2.1037 -0.660 -0.563 -0.498 165 148 122 0 0
6.6628 7.4504 -2.0843 0.059 -0.880 -0.472 168 152 124 0 0
6.6734 7.4383 -2.0829 -0.799 -0.471 -0.373 166 151 122 0 0
6.7074 7.3782 -2.0765 -0.648 -0.756 0.094 167 150 121 0 0
6.7332 7.3611 -2.0742 -0.766 -0.580 -0.279 163 146 118 0 0
6.7533 7.3360 -2.0714 -0.768 -0.546 -0.335 168 153 127 0 0
6.8613 7.2755 -2.0631 -0.327 -0.892 -0.311 176 162 136 0 0
6.8975 7.2472 -2.0595 -0.186 -0.925 -0.331 173 158 135 0 0
6.9698 7.1909 -2.0525 -0.251 -0.922 -0.293 175 160 135 0 0
7.0463 7.1159 -2.0436 -0.184 -0.934 -0.307 179 164 139 0 0
7.0626 7.1124 -2.0429 -0.184 -0.934 -0.307 181 165 142 0 0
7.3502 7.0890 -2.0334 -0.066 -0.944 -0.323 176 160 135 0 0
7.3990 7.0776 -2.0311 -0.321 -0.940 -0.114 183 167 141 0 0
7.4143 7.0725 -2.0302 -0.388 -0.920 -0.059 184 168 142 0 0
7.4291 7.0669 -2.0293 -0.368 -0.928 -0.067 184 168 143 0 0
7.4460 7.0638 -2.0286 -0.029 -0.992 -0.121 190 175 150 0 0
7.4649 7.0632 -2.0281 -0.029 -0.992 -0.121 188 174 148 0 0
8.3964 7.5206 -2.0466 0.116 -0.559 -0.821 240 240 238 0 0
0.5452 11.6759 -2.6501 0.150 -0.782 0.605 236 235 233 0 0
0.6527 11.6484 -2.6449 -0.910 -0.247 -0.334 231 230 228 0 0
1.8716 8.5948 -2.3275 -0.304 -0.707 0.638 198 155 136 0 0
1.8859 8.5898 -2.3266 -0.285 -0.729 0.623 172 125 106 0 0
1.9006 8.5874 -2.3260 -0.135 -0.738 0.661 173 128 109 0 0
2.1242 8.5678 -2.3186 -0.248 -0.944 0.217 141 90 71 0 0
2.2753 8.5586 -2.3140 -0.090 -0.942 0.324 170 115 94 0 0
2.3692 8.5677 -2.3125 -0.037 -0.957 0.287 162 111 90 0 0
2.3846 8.5672 -2.3121 -0.037 -0.957 0.287 175 124 104 0 0
2.5977 8.6226 -2.3120 0.393 -0.910 -0.134 123 72 53 0 0
2.6145 8.6275 -2.3120 0.394 -0.878 -0.270 114 68 49 0 0
2.6492 8.6433 -2.3126 0.052 -0.948 -0.313 117 72 56 0 0
2.9494 7.4365 -2.1917 -0.264 -0.674 0.690 225 206 176 0 0
3.2277 7.3847 -2.1799 -0.411 -0.670 0.618 227 206 177 0 0
3.2395 7.3745 -2.1787 -0.427 -0.570 0.702 227 206 177 0 0
3.2518 7.3664 -2.1776 -0.387 -0.692 0.609 227 206 177 0 0
3.8927 7.1789 -2.1440 -0.360 -0.737 0.572 230 210 182 0 0
4.2731 7.0564 -2.1230 -0.284 -0.749 0.599 217 198 168 0 0
4.2862 7.0510 -2.1222 -0.551 -0.624 0.555 223 204 174 0 0
4.2987 7.0440 -2.1212 -0.454 -0.636 0.624 225 205 177 0 0
4.3921 6.9745 -2.1123 -0.252 -0.856 0.452 226 205 175 0 0
4.5924 6.9021 -2.1005 -0.408 -0.622 0.668 229 211 180 0 0
4.7178 6.8695 -2.0943 -0.512 -0.715 0.477 227 206 174 0 0
4.7310 6.8642 -2.0935 -0.794 -0.536 0.287 227 207 175 0 0
4.9303 6.7592 -2.0787 -0.316 -0.711 0.628 231 211 183 0 0
4.9484 6.7335 -2.0758 -0.081 -0.838 0.539 228 210 182 0 0
4.9639 6.7328 -2.0754 -0.173 -0.877 0.448 230 213 185 0 0
5.2392 6.6248 -2.0583 -0.259 -0.682 0.684 229 209 182 0 0
5.2910 6.6032 -2.0550 -0.293 -0.841 0.455 230 210 182 0 0
5.3026 6.5954 -2.0540 -0.114 -0.871 0.478 229 209 182 0 0
5.3195 6.5969 -2.0537 -0.176 -0.655 0.735 226 206 179 0 0
5.3302 6.5877 -2.0526 -0.855 -0.440 0.274 226 206 177 0 0
5.3420 6.5804 -2.0516 -0.647 -0.499 0.577 226 207 180 0 0
6.4624 8.3449 -2.1895 0.445 -0.610 0.655 213 210 206 0 0
6.5693 8.4232 -2.1942 0.477 -0.509 0.716 206 198 189 0 0
6.5518 8.2637 -2.1797 -0.690 0.023 -0.724 172 152 127 0 0
6.5428 8.2168 -2.1755 -0.656 0.029 -0.754 170 150 125 0 0
6.5211 8.0863 -2.1638 -0.731 0.088 -0.676 170 153 125 0 0
6.5177 7.7749 -2.1346 -0.548 -0.417 -0.725 161 142 115 0 0
6.7063 7.4572 -2.1000 -0.326 -0.905 -0.272 167 150 122 0 0
6.7069 7.3760 -2.0924 -0.449 -0.890 0.072 172 156 128 0 0
6.7277 7.3788 -2.0921 -0.495 -0.826 -0.272 172 155 127 0 0
6.7429 7.3736 -2.0912 -0.430 -0.846 -0.315 168 152 124 0 0
6.7566 7.3662 -2.0902 -0.424 -0.781 -0.458 168 153 125 0 0
6.7942 7.3390 -2.0867 -0.419 -0.733 -0.535 169 153 127 0 0
6.8150 7.3151 -2.0839 -0.168 -0.967 -0.192 171 157 130 0 0
7.1471 7.1221 -2.0575 -0.250 -0.854 -0.456 179 163 139 0 0
7.3582 7.0977 -2.0500 -0.522 -0.848 -0.095 170 154 127 0 0
8.2223 7.4638 -2.0628 0.490 -0.621 -0.612 235 232 224 0 0
0.4614 11.3944 -2.6444 -0.238 -0.965 -0.106 238 237 235 0 0
0.5647 11.5817 -2.6598 -0.525 -0.641 0.559 235 234 232 0 0
0.5825 11.5816 -2.6593 -0.300 -0.681 0.668 234 233 231 0 0
0.6537 11.6164 -2.6609 -0.966 -0.241 -0.092 230 230 226 0 0
1.5086 8.8341 -2.3745 -0.668 -0.640 0.379 182 131 109 0 0
1.6859 8.6602 -2.3535 -0.596 -0.675 0.435 185 135 114 0 0
2.2753 8.5534 -2.3289 -0.090 -0.942 0.324 168 115 94 0 0
2.3061 8.5539 -2.3282 0.289 -0.953 0.088 159 108 86 0 0
2.3384 8.5632 -2.3283 -0.072 -0.966 0.250 174 123 101 0 0
2.4008 8.5665 -2.3271 -0.095 -0.865 0.493 166 118 98 0 0
2.4941 8.5672 -2.3249 0.043 -0.895 0.443 136 79 60 0 0
2.5120 8.5797 -2.3257 0.326 -0.917 0.231 143 93 75 0 0
2.6001 8.6306 -2.3284 0.412 -0.883 -0.224 113 67 47 0 0
2.7774 8.7190 -2.3325 0.266 -0.871 -0.413 96 51 35 0 0
2.6373 7.5766 -2.2269 0.138 -0.749 0.648 221 199 167 0 0
2.7189 7.4934 -2.2169 -0.256 -0.775 0.578 225 206 176 0 0
2.7597 7.4838 -2.2150 -0.063 -0.810 0.583 226 205 176 0 0
2.9666 7.3886 -2.2009 -0.134 -0.645 0.753 225 204 175 0 0
3.2212 7.3598 -2.1919 -0.576 -0.534 0.619 229 208 179 0 0
3.6438 7.2405 -2.1702 -0.536 -0.498 0.681 225 204 176 0 0
3.8339 7.1817 -2.1600 0.009 -0.729 0.685 230 210 183 0 0
3.8637 7.1804 -2.1591 -0.058 -0.642 0.764 228 208 181 0 0
3.8765 7.1741 -2.1582 -0.334 -0.689 0.643 226 206 179 0 0
3.8903 7.1704 -2.1575 -0.476 -0.657 0.584 226 206 179 0 0
3.9020 7.1610 -2.1563 -0.358 -0.658 0.662 228 208 180 0 0
3.9185 7.1645 -2.1563 -0.237 -0.789 0.567 228 208 180 0 0
4.2344 7.0363 -2.1363 -0.168 -0.667 0.726 228 207 177 0 0
4.2709 7.0495 -2.1367 -0.446 -0.838 0.315 230 211 181 0 0
4.2845 7.0452 -2.1359 -0.460 -0.736 0.498 229 210 180 0 0
4.2946 7.0326 -2.1345 -0.551 -0.624 0.555 228 209 180 0 0
4.3897 6.9672 -2.1259 -0.100 -0.849 0.519 225 204 175 0 0
4.7403 6.8494 -2.1061 -0.326 -0.795 0.511 226 205 175 0 0
5.2320 6.6106 -2.0713 -0.312 -0.722 0.618 227 207 180 0 0
5.2576 6.5994 -2.0697 -0.254 -0.629 0.734 230 210 183 0 0
5.2762 6.6037 -2.0696 -0.284 -0.770 0.571 226 206 178 0 0
5.2897 6.5993 -2.0689 -0.284 -0.770 0.571 226 207 177 0 0
5.2991 6.5879 -2.0675 -0.352 -0.780 0.518 227 206 178 0 0
5.3122 6.5828 -2.0667 -0.287 -0.786 0.548 227 206 179 0 0
5.3196 6.5681 -2.0651 -0.715 -0.583 0.387 225 205 176 0 0
5.3251 6.5501 -2.0633 -0.512 -0.834 0.204 225 206 176 0 0
5.3443 6.5554 -2.0633 -0.625 -0.480 0.616 225 204 174 0 0
6.4902 7.9112 -2.1648 -0.676 -0.241 -0.696 171 151 124 0 0
6.4999 7.8657 -2.1602 -0.449 -0.380 -0.809 165 144 115 0 0
6.5254 7.7853 -2.1519 -0.763 -0.345 -0.547 166 146 119 0 0
6.5313 7.7647 -2.1498 -0.846 -0.377 -0.378 169 148 123 0 0
6.7098 7.4609 -2.1165 -0.326 -0.905 -0.272 172 155 127 0 0
6.7311 7.3821 -2.1084 -0.495 -0.826 -0.272 172 157 128 0 0
6.7475 7.3786 -2.1077 -0.440 -0.817 -0.372 171 155 128 0 0
6.7607 7.3704 -2.1066 -0.296 -0.906 -0.304 172 156 129 0 0
6.8011 7.3472 -2.1034 -0.419 -0.733 -0.535 167 151 125 0 0
6.8271 7.3572 -2.1037 -0.766 -0.615 -0.187 172 156 130 0 0
6.8322 7.3377 -2.1017 -0.455 -0.657 -0.601 172 156 130 0 0
6.8403 7.3224 -2.1001 -0.528 -0.711 -0.465 168 152 127 0 0
7.1863 7.1470 -2.0749 -0.211 -0.935 -0.284 180 165 140 0 0
7.2121 7.1061 -2.0703 0.024 -0.928 -0.373 179 163 137 0 0
7.2343 7.1100 -2.0702 -0.119 -0.806 -0.580 176 160 135 0 0
7.3599 7.0985 -2.0660 -0.522 -0.848 -0.095 177 158 131 0 0
7.3728 7.0904 -2.0649 -0.522 -0.848 -0.095 179 161 135 0 0
8.2084 7.4704 -2.0808 0.490 -0.621 -0.612 232 230 225 0 0
8.6008 7.8023 -2.1029 0.490 -0.621 -0.612 240 239 237 0 0
0.3895 11.5615 -2.6810 0.240 -0.943 -0.232 239 238 236 0 0
0.4289 11.3223 -2.6568 0.205 -0.966 -0.158 237 236 234 0 0
0.6725 11.5397 -2.6721 -0.964 -0.229 -0.133 227 225 220 0 0
1.4799 8.8379 -2.3909 -0.582 -0.728 0.363 178 128 106 0 0
1.4939 8.8274 -2.3896 -0.582 -0.728 0.363 172 123 101 0 0
1.5222 8.8090 -2.3871 -0.570 -0.820 0.058 176 126 105 0 0
1.8691 8.5609 -2.3548 -0.248 -0.620 0.744 197 155 138 0 0
2.1243 8.5575 -2.3484 -0.270 -0.961 0.066 144 93 73 0 0
2.1395 8.5574 -2.3480 -0.173 -0.968 0.183 162 111 90 0 0
2.1542 8.5542 -2.3474 -0.008 -0.989 0.148 162 110 89 0 0
2.3850 8.5597 -2.3424 0.044 -0.995 0.094 178 130 110 0 0
2.4005 8.5604 -2.3421 0.044 -0.995 0.094 183 135 115 0 0
2.7446 8.7116 -2.3485 0.257 -0.845 -0.470 103 60 44 0 0
2.6046 7.5548 -2.2397 0.340 -0.694 0.635 220 195 170 0 0
2.6202 7.5608 -2.2399 0.001 -0.636 0.772 227 206 177 0 0
2.6355 7.5649 -2.2400 0.138 -0.749 0.648 216 194 163 0 0
2.6323 7.4865 -2.2324 -0.761 -0.409 0.504 213 190 158 0 0
2.6987 7.4649 -2.2288 -0.337 -0.740 0.582 226 206 177 0 0
2.7129 7.4642 -2.2284 -0.374 -0.750 0.545 225 204 175 0 0
2.7706 7.4661 -2.2272 0.086 -0.867 0.491 224 203 174 0 0
2.8192 7.4296 -2.2225 -0.468 -0.555 0.688 225 205 175 0 0
3.6920 7.2043 -2.1798 -0.054 -0.754 0.654 226 206 176 0 0
3.8443 7.1668 -2.1725 -0.014 -0.765 0.644 230 210 182 0 0
4.0384 7.0794 -2.1594 -0.011 -0.845 0.535 232 212 183 0 0
4.0537 7.0794 -2.1591 -0.011 -0.845 0.535 231 212 183 0 0
4.1238 7.0639 -2.1559 -0.198 -0.718 0.667 228 207 178 0 0
4.1381 7.0614 -2.1553 -0.173 -0.677 0.716 231 208 179 0 0
4.1795 7.0501 -2.1532 -0.287 -0.705 0.648 227 206 175 0 0
4.2942 7.0296 -2.1485 -0.470 -0.710 0.524 229 210 180 0 0
4.3752 6.9675 -2.1405 -0.364 -0.645 0.673 227 207 178 0 0
4.3967 6.9464 -2.1380 -0.051 -0.743 0.667 228 207 178 0 0
4.4147 6.9520 -2.1381 -0.272 -0.715 0.644 231 210 181 0 0
4.5410 6.8890 -2.1290 -0.121 -0.716 0.688 227 204 175 0 0
4.8109 6.7691 -2.1109 -0.210 -0.786 0.582 227 207 177 0 0
4.9801 6.7005 -2.1002 -0.603 -0.612 0.513 230 210 183 0 0
4.9925 6.6940 -2.0993 -0.349 -0.703 0.619 229 209 182 0 0
5.2529 6.5897 -2.0830 -0.424 -0.748 0.510 230 210 180 0 0
5.3240 6.5468 -2.0771 -0.582 -0.720 0.378 222 202 172 0 0
5.3401 6.5468 -2.0767 -0.690 -0.494 0.530 226 204 172 0 0
6.5165 8.3652 -2.2249 0.062 -0.848 0.526 205 204 200 0 0
6.5176 7.9223 -2.1820 -0.497 -0.276 -0.823 172 152 125 0 0
6.5193 7.8946 -2.1792 -0.293 -0.520 -0.803 165 144 117 0 0
6.5280 7.8176 -2.1716 -0.719 -0.218 -0.660 164 143 116 0 0
6.8180 7.3697 -2.1212 -0.322 -0.721 -0.614 172 156 131 0 0
6.8296 7.3593 -2.1199 -0.472 -0.707 -0.526 170 154 128 0 0
6.8347 7.3397 -2.1179 -0.614 -0.575 -0.541 172 156 130 0 0
6.8460 7.3290 -2.1166 -0.528 -0.711 -0.465 168 152 127 0 0
6.8788 7.2955 -2.1126 -0.280 -0.950 -0.136 171 156 133 0 0
6.8945 7.2909 -2.1118 -0.455 -0.889 0.047 166 151 128 0 0
6.9092 7.2850 -2.1108 -0.158 -0.984 -0.076 170 154 131 0 0
7.2787 7.1163 -2.0857 -0.003 -0.874 -0.486 182 164 140 0 0
7.3745 7.0912 -2.0809 -0.522 -0.848 -0.095 179 161 136 0 0
8.1944 7.4771 -2.0988 0.490 -0.621 -0.612 229 226 220 0 0
0.3922 11.4778 -2.6915 0.429 -0.648 0.629 238 237 235 0 0
0.5505 11.3992 -2.6801 0.465 -0.884 0.052 233 232 230 0 0
1.5464 8.7363 -2.3948 -0.611 -0.787 0.085 181 130 109 0 0
1.5606 8.7288 -2.3938 -0.643 -0.764 0.057 169 117 96 0 0
1.5743 8.7161 -2.3922 -0.610 -0.792 0.021 173 121 102 0 0
1.6173 8.7006 -2.3897 -0.148 -0.966 0.212 150 95 75 0 0
1.6320 8.6985 -2.3891 -0.148 -0.966 0.212 140 85 65 0 0
1.6458 8.6884 -2.3878 -0.634 -0.683 0.363 172 119 99 0 0
2.1250 8.5562 -2.3636 -0.270 -0.961 0.066 175 123 102 0 0
2.1399 8.5545 -2.3631 -0.173 -0.968 0.183 171 119 98 0 0
2.1547 8.5519 -2.3625 -0.008 -0.989 0.148 168 117 95 0 0
2.3535 8.5509 -2.3578 -0.478 -0.842 0.249 173 122 101 0 0
2.6033 8.6379 -2.3605 0.536 -0.844 -0.021 107 61 45 0 0
2.6920 8.6849 -2.3630 0.233 -0.875 -0.425 103 58 41 0 0
2.7476 8.7219 -2.3654 0.257 -0.845 -0.470 104 58 42 0 0
2.6310 7.4772 -2.2456 -0.900 -0.394 0.187 222 199 167 0 0
2.7640 7.4352 -2.2384 -0.251 -0.724 0.642 228 207 178 0 0
2.8159 7.4127 -2.2350 -0.238 -0.741 0.628 228 208 178 0 0
2.8729 7.4110 -2.2335 -0.259 -0.647 0.717 226 205 176 0 0
2.9755 7.3614 -2.2262 -0.083 -0.793 0.604 228 207 178 0 0
3.8250 7.1534 -2.1859 -0.154 -0.745 0.649 228 208 179 0 0
3.8396 7.1520 -2.1854 -0.200 -0.745 0.636 229 209 180 0 0
3.8533 7.1482 -2.1847 -0.180 -0.725 0.665 229 207 179 0 0
3.8675 7.1456 -2.1841 -0.030 -0.800 0.600 226 203 175 0 0
3.9124 7.1046 -2.1791 -0.264 -0.657 0.706 231 211 184 0 0
3.9231 7.0931 -2.1777 -0.371 -0.690 0.622 230 210 183 0 0
4.0373 7.0744 -2.1732 -0.345 -0.652 0.675 229 209 182 0 0
4.1622 7.0433 -2.1672 0.008 -0.755 0.656 231 210 181 0 0
4.1934 7.0083 -2.1630 -0.357 -0.701 0.617 229 209 178 0 0
4.6658 6.8221 -2.1337 -0.097 -0.693 0.714 229 208 179 0 0
4.9832 6.6751 -2.1118 -0.346 -0.709 0.615 230 210 182 0 0
5.3194 6.5375 -2.0904 -0.375 -0.613 0.696 228 208 178 0 0
5.3341 6.5353 -2.0899 -0.696 -0.521 0.494 227 206 174 0 0
6.4908 8.3537 -2.2418 0.019 -0.937 0.348 211 204 197 0 0
6.5110 8.3543 -2.2414 0.019 -0.937 0.348 207 203 199 0 0
6.5259 7.9337 -2.1997 -0.587 -0.370 -0.720 169 149 121 0 0
6.5337 7.9156 -2.1977 -0.359 -0.461 -0.812 164 144 117 0 0
6.6314 7.6229 -2.1666 -0.283 -0.707 -0.648 166 147 119 0 0
6.8337 7.3636 -2.1364 -0.474 -0.716 -0.513 171 155 130 0 0
6.8516 7.3354 -2.1332 -0.516 -0.599 -0.613 168 153 127 0 0
6.9188 7.2968 -2.1278 -0.159 -0.978 -0.137 172 156 132 0 0
6.9357 7.2940 -2.1271 -0.159 -0.978 -0.137 176 162 137 0 0
0.3756 11.4834 -2.7112 0.526 -0.723 0.448 239 238 236 0 0
0.6038 11.4335 -2.7010 0.385 -0.897 0.219 232 229 228 0 0
0.6214 11.4409 -2.7014 0.385 -0.897 0.219 232 228 227 0 0
0.6390 11.4485 -2.7017 0.401 -0.887 0.229 230 226 225 0 0
0.6742 11.4156 -2.6976 -0.794 -0.559 -0.241 227 225 223 0 0
1.4128 8.9130 -2.4308 -0.911 -0.378 -0.165 193 145 127 0 0
1.5462 8.7241 -2.4089 -0.421 -0.878 -0.228 176 125 104 0 0
1.5603 8.7170 -2.4079 -0.421 -0.878 -0.228 165 114 93 0 0
1.5745 8.7100 -2.4069 -0.421 -0.878 -0.228 185 133 112 0 0
1.6034 8.7016 -2.4054 -0.372 -0.928 0.014 170 115 95 0 0
1.6178 8.6975 -2.4046 -0.255 -0.957 -0.140 140 85 65 0 0
1.6320 8.6902 -2.4036 -0.372 -0.928 0.014 168 113 93 0 0
1.8086 8.5388 -2.3844 -0.206 -0.714 0.669 183 132 112 0 0
2.2451 8.5403 -2.3746 -0.057 -0.984 0.172 141 92 72 0 0
2.3548 8.5539 -2.3735 -0.235 -0.931 0.278 179 128 107 0 0
2.5869 8.6300 -2.3758 0.406 -0.897 -0.178 117 73 57 0 0
2.6792 8.6962 -2.3803 0.185 -0.761 -0.621 120 74 58 0 0
2.7684 8.7402 -2.3827 0.418 -0.855 0.306 112 66 53 0 0
2.6297 7.4676 -2.2587 -0.683 -0.421 0.597 216 193 161 0 0
2.7203 7.4281 -2.2527 -0.365 -0.603 0.709 229 208 178 0 0
2.7354 7.4316 -2.2527 -0.232 -0.687 0.689 230 209 180 0 0
2.7488 7.4279 -2.2521 -0.406 -0.610 0.680 227 206 177 0 0
2.7758 7.4215 -2.2508 -0.201 -0.717 0.667 228 207 178 0 0
2.8143 7.4030 -2.2481 -0.254 -0.767 0.589 226 206 178 0 0
2.8698 7.3955 -2.2461 -0.185 -0.707 0.683 224 202 173 0 0
2.9104 7.3854 -2.2441 -0.267 -0.618 0.740 223 201 173 0 0
2.9375 7.3787 -2.2428 -0.218 -0.781 0.585 228 207 180 0 0
2.9616 7.3606 -2.2405 -0.005 -0.779 0.627 225 204 175 0 0
2.9761 7.3607 -2.2402 -0.005 -0.779 0.627 226 206 176 0 0
3.9073 7.0892 -2.1918 -0.329 -0.678 0.657 227 207 180 0 0
4.0597 7.0524 -2.1847 -0.414 -0.685 0.599 230 210 185 0 0
4.1726 6.9932 -2.1762 -0.340 -0.723 0.601 228 209 178 0 0
4.1861 6.9889 -2.1754 -0.415 -0.660 0.626 229 209 178 0 0
4.1993 6.9840 -2.1746 -0.274 -0.681 0.679 229 207 177 0 0
4.8869 6.6999 -2.1306 -0.522 -0.475 0.708 229 210 183 0 0
5.2377 6.5604 -2.1087 -0.136 -0.746 0.651 228 205 177 0 0
5.3307 6.5280 -2.1033 -0.848 -0.432 0.306 226 207 176 0 0
6.5432 8.3727 -2.2599 0.158 -0.968 0.195 204 201 198 0 0
6.5330 7.9434 -2.2172 -0.702 -0.573 -0.423 171 151 123 0 0
6.5549 7.9473 -2.2171 -0.771 -0.144 -0.620 167 146 119 0 0
6.6009 7.7784 -2.1992 -0.696 -0.379 -0.609 159 142 114 0 0
6.6915 7.5971 -2.1790 -0.135 -0.751 -0.646 165 147 121 0 0
6.8461 7.3795 -2.1538 -0.761 -0.592 -0.267 172 156 131 0 0
6.9212 7.2987 -2.1440 -0.159 -0.978 -0.137 170 155 130 0 0
6.9858 7.2310 -2.1358 -0.420 -0.836 0.353 173 158 134 0 0
6.9980 7.2218 -2.1346 -0.476 -0.878 0.057 176 162 138 0 0
8.1018 7.4388 -2.1311 0.449 -0.611 -0.652 207 198 187 0 0
8.1631 7.4866 -2.1345 0.474 -0.622 -0.623 231 226 222 0 0
0.5536 11.2490 -2.7022 -0.602 -0.641 -0.475 233 232 230 0 0
0.5884 11.2035 -2.6968 -0.481 -0.775 -0.410 232 230 228 0 0
0.6753 11.4476 -2.7196 -0.805 -0.588 0.080 228 224 223 0 0
0.6933 11.5845 -2.7331 -0.883 -0.261 -0.389 226 222 219 0 0
1.4387 8.8497 -2.4394 -0.567 -0.751 0.337 192 144 124 0 0
1.5613 8.7186 -2.4233 -0.334 -0.904 -0.266 177 126 105 0 0
1.5756 8.7131 -2.4225 -0.334 -0.904 -0.266 179 128 107 0 0
1.6040 8.6995 -2.4205 -0.443 -0.895 -0.051 183 128 107 0 0
1.6174 8.6841 -2.4186 -0.302 -0.909 0.287 174 118 98 0 0
2.1213 8.5202 -2.3908 0.026 -0.938 0.347 155 102 81 0 0
2.2454 8.5364 -2.3896 -0.210 -0.977 0.036 159 105 87 0 0
2.3550 8.5503 -2.3886 -0.254 -0.925 0.284 162 108 88 0 0
2.5715 8.6276 -2.3916 0.109 -0.922 -0.372 112 65 48 0 0
2.6062 8.6437 -2.3925 0.370 -0.904 -0.213 108 61 45 0 0
2.5975 7.4471 -2.2714 -0.442 -0.539 0.717 219 195 163 0 0
2.6378 7.4370 -2.2695 -0.300 -0.582 0.756 224 201 168 0 0
2.7186 7.4176 -2.2657 -0.248 -0.702 0.668 227 208 176 0 0
2.7319 7.4135 -2.2650 -0.248 -0.702 0.668 226 205 174 0 0
2.7452 7.4095 -2.2643 -0.248 -0.702 0.668 225 204 173 0 0
2.7735 7.4085 -2.2636 -0.415 -0.647 0.639 224 203 173 0 0
2.9834 7.3311 -2.2511 -0.263 -0.650 0.713 225 204 175 0 0
2.9959 7.3239 -2.2501 -0.671 -0.567 0.477 227 206 177 0 0
3.3998 7.2123 -2.2297 -0.183 -0.774 0.606 230 209 179 0 0
3.4146 7.2123 -2.2294 0.017 -0.737 0.676 227 207 177 0 0
3.7852 7.1226 -2.2121 0.349 -0.838 0.420 229 209 182 0 0
3.8164 7.1257 -2.2117 -0.177 -0.845 0.505 228 209 179 0 0
3.8327 7.1290 -2.2117 -0.105 -0.745 0.659 225 206 176 0 0
3.9134 7.0637 -2.2032 -0.433 -0.685 0.585 226 206 179 0 0
3.9269 7.0595 -2.2025 -0.315 -0.726 0.611 225 204 174 0 0
4.0608 7.0155 -2.1951 -0.059 -0.866 0.497 228 208 181 0 0
4.1692 6.9831 -2.1894 -0.259 -0.618 0.742 226 204 173 0 0
4.1826 6.9786 -2.1886 -0.415 -0.660 0.626 226 204 172 0 0
4.1961 6.9743 -2.1879 -0.222 -0.642 0.734 229 209 179 0 0
4.4325 6.8834 -2.1734 -0.335 -0.675 0.658 227 207 181 0 0
4.4455 6.8781 -2.1726 -0.249 -0.670 0.699 223 202 176 0 0
4.7258 6.7507 -2.1534 -0.153 -0.813 0.561 224 203 174 0 0
