ply
format ascii 1.0
element vertex 820
property float x
property float y
property float z
property float nx
property float ny
property float nz
property uchar diffuse_red
property uchar diffuse_green
property uchar diffuse_blue
property uchar class
property uchar detection
end_header
4.3183 10.3858 -0.4673 -0.359 -0.608 0.708 193 142 120 0 0
4.6440 10.2782 -0.4300 -0.324 -0.675 0.663 184 135 116 0 0
4.9040 10.2203 -0.3992 -0.265 -0.650 0.712 187 137 118 0 0
4.9221 10.2144 -0.3971 -0.332 -0.636 0.697 170 119 100 0 0
6.0052 9.9203 -0.2707 -0.092 -0.688 0.720 193 145 126 0 0
6.5866 9.9333 -0.1961 -0.234 -0.970 0.066 158 107 89 0 0
6.8141 9.9730 -0.1655 -0.105 -0.989 -0.102 175 128 109 0 0
6.8969 8.6941 -0.2057 -0.626 0.087 0.775 248 250 247 0 0
6.7751 8.2125 -0.2403 -0.422 -0.115 0.899 229 218 202 0 0
6.7834 8.1933 -0.2400 -0.373 -0.136 0.918 230 215 198 0 0
6.7955 8.1813 -0.2389 -0.323 -0.166 0.932 237 220 201 0 0
6.7725 7.9368 -0.2516 -0.500 -0.186 0.846 236 219 194 0 0
6.9352 7.5596 -0.2458 -0.669 -0.646 0.367 234 217 191 0 0
6.9697 7.5575 -0.2415 -0.026 -0.993 0.114 234 218 192 0 0
1.8091 11.0562 -0.7798 -0.259 -0.377 0.889 194 148 127 0 0
2.1162 10.8871 -0.7472 0.177 -0.724 0.667 195 153 137 0 0
2.1349 10.8942 -0.7445 0.177 -0.724 0.667 183 141 124 0 0
2.5904 10.7774 -0.6911 -0.253 -0.656 0.711 176 126 103 0 0
2.7555 10.7449 -0.6714 -0.262 -0.667 0.697 165 113 91 0 0
3.1183 10.6320 -0.6296 -0.401 -0.642 0.654 179 128 109 0 0
3.2117 10.6240 -0.6180 -0.220 -0.778 0.588 188 135 114 0 0
3.7284 10.5170 -0.5565 -0.213 -0.641 0.737 188 139 117 0 0
3.7469 10.5135 -0.5543 -0.213 -0.641 0.737 182 129 108 0 0
3.7675 10.5212 -0.5513 -0.443 -0.624 0.644 186 132 110 0 0
4.0187 10.4257 -0.5231 0.210 -0.709 0.674 186 139 120 0 0
4.0402 10.4360 -0.5200 0.139 -0.811 0.569 180 132 113 0 0
4.0927 10.4099 -0.5143 -0.178 -0.613 0.770 175 128 110 0 0
4.1097 10.3986 -0.5126 -0.254 -0.610 0.750 173 125 107 0 0
4.1277 10.3926 -0.5105 -0.339 -0.595 0.729 185 138 120 0 0
4.6157 10.2366 -0.4544 -0.247 -0.676 0.694 181 133 113 0 0
4.8802 10.1984 -0.4223 -0.458 -0.511 0.727 174 120 104 0 0
4.9188 10.1952 -0.4175 -0.485 -0.717 0.501 175 122 101 0 0
4.9375 10.1916 -0.4153 -0.250 -0.706 0.663 166 112 92 0 0
4.9438 10.1453 -0.4162 -0.038 -0.690 0.723 170 119 98 0 0
5.1127 10.1155 -0.3959 -0.352 -0.731 0.585 182 130 109 0 0
5.8115 9.9371 -0.3139 -0.338 -0.605 0.721 181 132 111 0 0
5.8294 9.9310 -0.3119 -0.282 -0.649 0.707 189 139 118 0 0
6.2241 9.9011 -0.2629 -0.036 -0.987 0.156 171 120 101 0 0
6.7962 9.9748 -0.1874 -0.011 -1.000 -0.003 153 110 94 0 0
6.8172 9.9747 -0.1847 -0.105 -0.989 -0.102 145 101 85 0 0
6.7301 8.2287 -0.2624 -0.570 -0.061 0.819 240 231 218 0 0
6.7337 8.2004 -0.2630 -0.500 -0.107 0.859 234 221 207 0 0
6.7488 8.1595 -0.2626 -0.427 -0.154 0.891 230 214 193 0 0
6.7518 8.1306 -0.2634 -0.394 -0.137 0.909 235 218 195 0 0
6.7613 8.1140 -0.2628 -0.323 -0.166 0.932 233 216 192 0 0
6.9322 7.5510 -0.2626 -0.480 -0.862 0.164 235 217 192 0 0
6.9492 7.5496 -0.2604 -0.095 -0.945 0.312 232 216 191 0 0
6.9681 7.5514 -0.2580 0.020 -0.923 0.383 233 217 192 0 0
1.4986 11.6408 -0.8169 -0.507 -0.180 0.843 244 243 241 0 0
1.6838 11.1516 -0.8113 -0.271 -0.728 0.629 210 186 175 0 0
1.9542 10.9173 -0.7857 -0.062 -0.586 0.808 184 137 120 0 0
2.7552 10.7208 -0.6915 -0.250 -0.625 0.740 178 126 103 0 0
2.8610 10.6605 -0.6803 -0.676 -0.463 0.574 184 133 110 0 0
3.7661 10.5015 -0.5715 -0.455 -0.581 0.675 185 134 111 0 0
3.7834 10.4915 -0.5696 -0.493 -0.596 0.634 190 138 115 0 0
4.3966 10.2865 -0.4995 -0.313 -0.618 0.721 168 117 96 0 0
4.8588 10.1845 -0.4447 -0.407 -0.564 0.718 176 122 104 0 0
4.8753 10.1732 -0.4430 -0.491 -0.583 0.647 182 125 108 0 0
4.9165 10.1796 -0.4376 -0.524 -0.624 0.580 177 121 103 0 0
4.9382 10.1184 -0.4371 -0.132 -0.610 0.782 186 132 114 0 0
5.1641 10.0823 -0.4098 -0.282 -0.552 0.785 190 139 118 0 0
5.8004 9.9010 -0.3359 -0.301 -0.634 0.712 197 150 130 0 0
7.1360 10.1938 -0.1560 0.476 -0.796 -0.374 247 248 244 0 0
6.8406 8.7642 -0.2458 -0.438 -0.038 0.898 249 249 247 0 0
6.7076 8.1821 -0.2839 -0.580 -0.076 0.811 232 217 196 0 0
6.7090 8.1500 -0.2849 -0.502 -0.115 0.857 224 207 183 0 0
6.7142 8.1253 -0.2852 -0.502 -0.115 0.857 228 212 188 0 0
6.8389 7.6627 -0.2863 -0.483 -0.449 0.752 232 213 187 0 0
6.9333 7.5494 -0.2785 -0.437 -0.718 0.541 229 212 187 0 0
6.9534 7.5533 -0.2758 -0.035 -0.886 0.463 230 214 189 0 0
6.9712 7.5532 -0.2736 0.143 -0.877 0.458 233 217 192 0 0
7.0857 7.5356 -0.2597 0.072 -0.604 0.794 231 215 190 0 0
7.1589 7.5087 -0.2515 -0.128 -0.568 0.813 234 218 193 0 0
7.1667 7.4924 -0.2511 -0.202 -0.613 0.763 235 219 194 0 0
7.2668 7.4801 -0.2388 -0.049 -0.534 0.844 234 216 191 0 0
1.4095 11.2841 -0.8606 -0.672 -0.419 0.610 242 242 240 0 0
1.5022 11.1427 -0.8539 -0.359 -0.827 0.433 245 243 241 0 0
1.6672 11.1349 -0.8333 -0.301 -0.409 0.862 175 149 135 0 0
2.3166 10.7763 -0.7639 -0.369 -0.681 0.633 174 125 104 0 0
2.3343 10.7651 -0.7621 -0.426 -0.657 0.621 174 123 102 0 0
2.3711 10.7636 -0.7575 -0.185 -0.671 0.718 188 136 115 0 0
3.1532 10.5790 -0.6653 -0.145 -0.685 0.714 190 136 119 0 0
4.1014 10.3402 -0.5540 -0.181 -0.665 0.725 190 142 124 0 0
4.4126 10.2634 -0.5174 -0.131 -0.731 0.670 181 129 108 0 0
4.4300 10.2553 -0.5155 -0.115 -0.663 0.739 169 117 96 0 0
4.4468 10.2447 -0.5138 -0.312 -0.609 0.729 174 122 101 0 0
4.6968 10.1576 -0.4853 -0.305 -0.612 0.730 199 146 128 0 0
4.7166 10.1587 -0.4827 -0.608 -0.583 0.539 172 119 101 0 0
5.1221 10.0673 -0.4348 0.063 -0.679 0.731 179 127 105 0 0
5.1387 10.0571 -0.4330 -0.050 -0.653 0.756 182 130 108 0 0
5.1528 10.0389 -0.4319 -0.166 -0.599 0.784 182 130 108 0 0
5.6241 9.9057 -0.3771 0.020 -0.760 0.650 203 164 147 0 0
5.6456 9.9099 -0.3742 0.049 -0.735 0.676 197 154 137 0 0
5.6678 9.9161 -0.3712 -0.025 -0.718 0.696 188 143 122 0 0
5.7056 9.9097 -0.3667 -0.166 -0.705 0.689 189 137 116 0 0
5.7248 9.9075 -0.3643 -0.166 -0.705 0.689 189 139 119 0 0
5.9682 9.8594 -0.3353 0.006 -1.000 -0.023 205 157 138 0 0
6.4256 9.8803 -0.2768 -0.194 -0.919 0.342 176 125 104 0 0
7.1162 10.1927 -0.1787 0.476 -0.796 -0.374 246 247 242 0 0
7.1452 10.2080 -0.1745 0.476 -0.796 -0.374 247 248 244 0 0
7.1633 10.2005 -0.1725 0.328 -0.820 -0.469 247 247 245 0 0
6.7903 8.7373 -0.2709 -0.408 -0.046 0.912 248 248 246 0 0
6.7932 8.6675 -0.2730 -0.438 -0.038 0.898 249 249 247 0 0
6.7745 8.5201 -0.2806 -0.526 0.039 0.849 249 248 244 0 0
6.6812 8.1284 -0.3061 -0.576 -0.060 0.815 228 209 184 0 0
6.6831 8.0975 -0.3069 -0.502 -0.113 0.858 230 210 184 0 0
6.6904 8.0767 -0.3067 -0.496 -0.138 0.857 232 214 189 0 0
6.6984 7.9226 -0.3111 -0.585 -0.197 0.787 236 218 193 0 0
6.7080 7.9070 -0.3105 -0.494 -0.327 0.806 234 217 191 0 0
6.7075 7.8730 -0.3117 -0.703 -0.191 0.685 233 216 190 0 0
6.7322 7.8197 -0.3105 -0.555 -0.369 0.745 233 216 190 0 0
6.7357 7.7935 -0.3110 -0.315 -0.401 0.860 232 215 189 0 0
6.7785 7.7100 -0.3085 -0.485 -0.404 0.776 232 215 188 0 0
6.8530 7.6218 -0.3022 -0.606 -0.443 0.661 228 211 183 0 0
6.9306 7.5413 -0.2952 -0.420 -0.774 0.474 226 210 184 0 0
7.1463 7.4851 -0.2700 -0.128 -0.568 0.813 232 216 191 0 0
7.1716 7.4682 -0.2674 -0.194 -0.536 0.822 234 218 193 0 0
7.9050 7.8000 -0.1632 0.416 -0.544 0.729 250 250 244 0 0
8.0495 7.9273 -0.1404 0.111 -0.375 0.920 250 250 248 0 0
8.0850 7.9508 -0.1351 0.111 -0.375 0.920 250 250 248 0 0
1.3548 11.3985 -0.8830 -0.461 -0.222 0.859 244 243 240 0 0
1.4119 11.2467 -0.8809 -0.393 -0.463 0.795 243 242 242 0 0
1.4304 11.2316 -0.8791 -0.474 -0.447 0.759 243 243 241 0 0
1.4489 11.2172 -0.8773 -0.352 -0.438 0.827 243 244 240 0 0
1.5043 11.1196 -0.8736 -0.236 -0.967 0.098 245 243 240 0 0
2.2633 10.7733 -0.7898 0.009 -0.688 0.725 187 141 121 0 0
4.3711 10.2433 -0.5424 -0.383 -0.753 0.534 161 105 85 0 0
4.3882 10.2337 -0.5406 -0.389 -0.791 0.472 164 108 88 0 0
4.4079 10.2354 -0.5381 0.046 -0.810 0.585 186 132 112 0 0
4.4270 10.2340 -0.5357 -0.168 -0.709 0.685 166 114 93 0 0
4.4819 10.2209 -0.5292 -0.264 -0.599 0.756 182 130 109 0 0
4.6736 10.1355 -0.5080 -0.395 -0.528 0.752 189 139 122 0 0
4.8749 10.0877 -0.4843 -0.164 -0.715 0.680 195 146 125 0 0
4.9284 10.0697 -0.4782 -0.341 -0.661 0.668 190 139 120 0 0
4.9460 10.0627 -0.4762 -0.341 -0.661 0.668 185 134 115 0 0
5.4419 9.9475 -0.4177 -0.338 -0.648 0.682 198 146 125 0 0
5.6202 9.8883 -0.3972 0.020 -0.760 0.650 220 178 161 0 0
5.6412 9.8912 -0.3945 0.020 -0.760 0.650 204 159 142 0 0
5.7001 9.8885 -0.3872 -0.192 -0.716 0.671 186 137 117 0 0
5.7190 9.8856 -0.3849 -0.192 -0.716 0.671 198 149 131 0 0
5.9637 9.8421 -0.3556 -0.221 -0.903 0.369 189 142 122 0 0
6.1381 9.8229 -0.3343 -0.344 -0.843 0.413 173 122 101 0 0
6.1559 9.8167 -0.3323 -0.344 -0.843 0.413 166 114 93 0 0
7.0964 10.1915 -0.2014 0.476 -0.796 -0.374 232 226 220 0 0
7.1254 10.2069 -0.1972 0.476 -0.796 -0.374 246 247 243 0 0
7.1544 10.2223 -0.1930 0.476 -0.796 -0.374 247 247 245 0 0
7.1727 10.2148 -0.1910 0.328 -0.820 -0.469 247 247 245 0 0
6.7695 8.7301 -0.2916 -0.496 0.003 0.868 249 248 246 0 0
6.7492 8.6524 -0.2967 -0.492 -0.010 0.871 249 248 246 0 0
6.7357 8.4776 -0.3043 -0.500 0.034 0.865 250 247 241 0 0
6.7205 8.4119 -0.3084 -0.520 0.039 0.853 242 235 225 0 0
6.7141 7.8157 -0.3293 -0.591 -0.369 0.717 231 214 188 0 0
6.7376 7.7612 -0.3281 -0.686 -0.425 0.591 230 213 186 0 0
6.7813 7.6485 -0.3264 -0.335 -0.545 0.769 223 204 176 0 0
6.9007 7.5475 -0.3148 -0.222 -0.586 0.779 227 209 181 0 0
6.9133 7.5388 -0.3135 -0.244 -0.793 0.558 219 202 175 0 0
6.9275 7.5327 -0.3119 -0.420 -0.774 0.474 221 204 177 0 0
7.3539 7.4129 -0.2623 0.063 -0.705 0.707 232 215 188 0 0
7.5341 7.4666 -0.2379 0.284 -0.754 0.592 235 219 196 0 0
8.0379 7.8791 -0.1606 0.124 -0.377 0.918 250 250 248 0 0
1.3580 11.3133 -0.9049 -0.493 -0.254 0.832 243 244 240 0 0
1.9560 10.7929 -0.8466 -0.208 -0.724 0.658 188 141 122 0 0
2.0467 10.7888 -0.8354 -0.134 -0.632 0.763 188 139 119 0 0
2.0646 10.7801 -0.8334 -0.373 -0.662 0.650 175 126 106 0 0
2.7889 10.6240 -0.7476 -0.262 -0.593 0.761 184 133 111 0 0
3.2745 10.4752 -0.6915 -0.496 -0.589 0.637 205 153 132 0 0
4.3728 10.2414 -0.5613 -0.475 -0.594 0.650 183 126 107 0 0
4.3880 10.2243 -0.5600 -0.236 -0.713 0.660 171 115 97 0 0
4.4957 10.1899 -0.5476 -0.688 -0.608 0.396 166 113 92 0 0
4.5110 10.1735 -0.5462 -0.688 -0.608 0.396 161 109 88 0 0
5.0723 10.0187 -0.4808 -0.534 -0.601 0.594 174 119 99 0 0
5.5781 9.8753 -0.4220 -0.127 -0.665 0.736 181 134 115 0 0
5.5976 9.8743 -0.4196 -0.127 -0.665 0.736 180 134 115 0 0
5.6171 9.8733 -0.4171 -0.127 -0.665 0.736 188 141 123 0 0
5.9816 9.8304 -0.3728 -0.264 -0.922 0.283 165 117 98 0 0
6.1273 9.7905 -0.3558 -0.220 -0.972 0.081 172 120 99 0 0
7.1052 10.2049 -0.2199 0.565 -0.765 -0.309 239 235 229 0 0
6.6841 8.5203 -0.3268 -0.642 0.009 0.766 248 248 246 0 0
6.6873 8.4896 -0.3274 -0.609 -0.009 0.793 249 248 245 0 0
6.6856 8.4496 -0.3289 -0.598 -0.004 0.802 250 247 242 0 0
6.6966 8.4343 -0.3280 -0.498 -0.012 0.867 243 238 228 0 0
6.6849 8.3752 -0.3313 -0.483 -0.013 0.875 235 225 212 0 0
6.6744 8.3191 -0.3345 -0.559 0.042 0.828 232 218 201 0 0
6.6454 7.8506 -0.3531 -0.533 -0.348 0.771 232 215 189 0 0
7.3432 7.3932 -0.2803 0.104 -0.800 0.590 229 212 186 0 0
1.3033 11.3998 -0.9285 -0.754 -0.199 0.627 244 244 240 0 0
2.0652 10.7466 -0.8533 -0.370 -0.624 0.689 191 140 120 0 0
4.1907 10.1937 -0.6046 -0.090 -0.623 0.777 185 134 113 0 0
4.4020 10.1932 -0.5782 -0.374 -0.568 0.733 189 135 114 0 0
5.5895 9.8451 -0.4405 0.092 -0.801 0.591 192 145 125 0 0
5.6092 9.8447 -0.4380 0.166 -0.751 0.639 175 127 108 0 0
5.6320 9.8529 -0.4349 0.134 -0.759 0.638 198 147 127 0 0
5.6516 9.8521 -0.4325 -0.019 -0.656 0.754 191 141 120 0 0
7.1148 10.2199 -0.2384 0.476 -0.796 -0.374 242 240 234 0 0
7.1438 10.2353 -0.2343 0.476 -0.796 -0.374 247 246 244 0 0
7.1376 10.1766 -0.2369 -0.166 -0.855 -0.491 247 247 245 0 0
6.6528 8.3815 -0.3524 -0.571 -0.003 0.821 236 228 215 0 0
6.6482 8.3362 -0.3543 -0.488 -0.008 0.873 234 219 203 0 0
6.6464 8.2969 -0.3557 -0.506 -0.007 0.863 232 216 195 0 0
6.6620 7.8116 -0.3686 -0.524 -0.289 0.802 235 215 190 0 0
6.6788 7.6802 -0.3705 -0.447 -0.623 0.642 232 212 185 0 0
6.6919 7.6718 -0.3692 -0.536 -0.587 0.606 227 207 180 0 0
6.7090 7.6706 -0.3671 -0.208 -0.725 0.657 226 206 179 0 0
6.8717 7.5214 -0.3513 -0.417 -0.583 0.697 223 206 180 0 0
7.2469 7.3515 -0.3096 -0.280 -0.613 0.739 222 206 181 0 0
7.3241 7.3604 -0.2997 0.252 -0.757 0.603 232 215 189 0 0
1.4742 11.0411 -0.9372 -0.391 -0.226 0.892 186 152 138 0 0
1.5105 11.0192 -0.9333 -0.362 -0.226 0.904 196 155 139 0 0
1.5467 10.9707 -0.9302 -0.514 -0.205 0.833 189 144 127 0 0
1.5827 10.9095 -0.9275 -0.476 -0.219 0.852 190 146 127 0 0
2.0659 10.7159 -0.8729 -0.262 -0.609 0.749 190 140 120 0 0
3.1233 10.4313 -0.7495 -0.260 -0.622 0.739 179 129 109 0 0
3.8958 10.2281 -0.6592 -0.133 -0.641 0.756 195 149 133 0 0
4.1508 10.1763 -0.6290 -0.272 -0.587 0.763 180 128 110 0 0
4.3420 10.1750 -0.6052 -0.159 -0.664 0.731 175 122 101 0 0
5.3876 9.8838 -0.4835 -0.268 -0.602 0.752 188 133 112 0 0
5.4075 9.8845 -0.4810 -0.168 -0.592 0.788 192 137 116 0 0
5.4239 9.8745 -0.4792 -0.314 -0.556 0.769 193 138 117 0 0
5.8557 9.8046 -0.4275 -0.385 -0.888 0.251 185 133 112 0 0
5.8656 9.7781 -0.4270 -0.139 -0.978 0.154 154 102 80 0 0
5.8902 9.7899 -0.4236 -0.371 -0.838 0.400 163 111 87 0 0
7.1240 10.2341 -0.2570 0.476 -0.796 -0.374 245 243 239 0 0
6.6196 8.3127 -0.3757 -0.571 -0.003 0.821 228 214 196 0 0
6.6132 8.2643 -0.3779 -0.484 -0.040 0.874 228 212 190 0 0
6.5999 7.9595 -0.3884 -0.361 -0.318 0.876 232 212 184 0 0
6.6108 7.8455 -0.3904 -0.617 -0.446 0.648 232 215 189 0 0
6.6852 7.6563 -0.3866 -0.393 -0.721 0.571 230 210 183 0 0
6.7950 7.5687 -0.3755 -0.393 -0.610 0.688 226 209 179 0 0
6.8091 7.5625 -0.3739 -0.397 -0.588 0.705 226 209 179 0 0
7.2393 7.3364 -0.3269 -0.220 -0.647 0.730 230 214 189 0 0
7.2543 7.3320 -0.3252 -0.221 -0.620 0.753 229 213 188 0 0
8.1803 7.8793 -0.1939 -0.148 -0.338 0.929 251 250 247 0 0
1.1496 11.1366 -0.9939 -0.496 -0.624 0.604 243 243 241 0 0
1.2755 11.1545 -0.9777 -0.188 -0.390 0.902 244 244 242 0 0
1.4766 10.9535 -0.9583 -0.391 -0.226 0.892 204 160 142 0 0
3.2334 10.4051 -0.7554 -0.159 -0.668 0.727 187 133 112 0 0
3.2877 10.3940 -0.7490 -0.296 -0.621 0.726 168 113 92 0 0
3.8406 10.2250 -0.6850 0.037 -0.912 0.409 175 123 103 0 0
3.8585 10.2201 -0.6829 -0.097 -0.812 0.575 172 120 99 0 0
3.8771 10.2186 -0.6806 0.029 -0.705 0.709 177 129 110 0 0
3.8951 10.2140 -0.6785 -0.180 -0.675 0.716 191 145 128 0 0
3.9140 10.2141 -0.6762 -0.438 -0.623 0.648 185 138 120 0 0
4.1473 10.1512 -0.6490 -0.285 -0.609 0.740 178 126 106 0 0
4.1655 10.1471 -0.6468 -0.084 -0.675 0.733 171 119 99 0 0
4.2058 10.1571 -0.6415 -0.134 -0.598 0.790 181 126 105 0 0
4.2247 10.1559 -0.6392 -0.134 -0.598 0.790 166 113 93 0 0
5.4285 9.8237 -0.4990 -0.160 -0.790 0.592 185 133 109 0 0
5.8559 9.7991 -0.4466 -0.385 -0.888 0.251 166 114 93 0 0
5.8901 9.7838 -0.4428 -0.445 -0.863 0.238 163 110 87 0 0
6.1296 9.8292 -0.4118 -0.398 -0.915 -0.062 179 128 106 0 0
6.4912 9.8618 -0.3660 -0.099 -0.992 -0.082 140 94 78 0 0
6.9316 10.0944 -0.3050 -0.048 -0.926 -0.373 151 105 90 0 0
6.9560 10.1008 -0.3018 0.333 -0.901 -0.280 146 101 87 0 0
7.2283 10.3105 -0.2622 -0.387 -0.301 -0.871 247 247 245 0 0
6.5785 7.9154 -0.4088 -0.404 -0.356 0.843 230 211 181 0 0
6.6551 7.7264 -0.4045 -0.077 -0.597 0.798 231 211 184 0 0
6.7287 7.6040 -0.3988 -0.720 -0.602 0.346 228 212 184 0 0
7.0072 7.3869 -0.3702 -0.278 -0.856 0.436 228 211 186 0 0
7.0224 7.3829 -0.3684 -0.278 -0.856 0.436 226 208 184 0 0
7.0334 7.3720 -0.3673 -0.656 -0.624 0.425 228 212 187 0 0
7.9415 7.6713 -0.2464 0.309 -0.438 0.844 251 246 238 0 0
1.2260 11.0401 -1.0060 -0.093 -0.902 0.423 244 243 240 0 0
1.4610 10.8954 -0.9807 -0.368 -0.234 0.900 196 150 131 0 0
1.5684 10.8014 -0.9698 -0.456 -0.368 0.811 176 129 110 0 0
1.7816 10.7064 -0.9459 -0.303 -0.656 0.692 194 146 129 0 0
2.0665 10.6376 -0.9125 -0.255 -0.618 0.744 194 147 129 0 0
2.4769 10.5391 -0.8643 -0.134 -0.657 0.742 177 124 103 0 0
3.8392 10.2074 -0.7044 -0.089 -0.910 0.406 166 114 93 0 0
3.8579 10.2066 -0.7021 -0.097 -0.812 0.575 187 135 114 0 0
3.8756 10.2007 -0.7001 -0.085 -0.751 0.655 184 135 115 0 0
3.8932 10.1939 -0.6981 -0.204 -0.670 0.714 184 138 119 0 0
3.9123 10.1950 -0.6957 -0.438 -0.623 0.648 178 131 111 0 0
3.9301 10.1898 -0.6936 -0.277 -0.637 0.719 187 137 116 0 0
4.1442 10.1277 -0.6688 -0.268 -0.672 0.690 181 128 108 0 0
4.2022 10.1315 -0.6615 -0.134 -0.598 0.790 176 123 102 0 0
4.2205 10.1286 -0.6593 -0.188 -0.651 0.735 182 130 109 0 0
4.2746 10.1150 -0.6530 -0.063 -0.718 0.693 181 127 107 0 0
4.2938 10.1157 -0.6506 -0.063 -0.718 0.693 165 109 89 0 0
4.3165 10.1305 -0.6474 0.116 -0.757 0.643 185 127 109 0 0
4.5051 10.0408 -0.6264 -0.262 -0.614 0.744 176 125 104 0 0
5.4700 9.8237 -0.5127 -0.465 -0.613 0.639 174 122 99 0 0
5.8180 9.7459 -0.4717 -0.315 -0.841 0.441 164 112 91 0 0
5.8836 9.7610 -0.4632 -0.156 -0.949 0.274 170 116 95 0 0
6.1265 9.8159 -0.4317 -0.447 -0.894 0.027 174 123 102 0 0
6.1434 9.8075 -0.4298 -0.447 -0.894 0.027 167 117 95 0 0
6.6160 8.4437 -0.4069 -0.850 0.137 0.510 241 236 227 0 0
6.6448 7.7039 -0.4226 -0.191 -0.616 0.764 228 208 181 0 0
6.8779 7.4917 -0.3993 0.042 -0.985 0.166 226 209 182 0 0
6.9866 7.3786 -0.3888 -0.160 -0.943 0.290 228 210 183 0 0
7.7869 7.4986 -0.2867 0.350 -0.513 0.784 236 221 203 0 0
1.5347 10.7628 -0.9937 -0.157 -0.653 0.741 167 121 105 0 0
1.7654 10.6902 -0.9670 -0.263 -0.667 0.697 194 147 127 0 0
1.9790 10.6486 -0.9417 -0.303 -0.708 0.638 193 143 123 0 0
2.9608 10.4136 -0.8264 -0.302 -0.663 0.685 186 135 114 0 0
3.8397 10.1989 -0.7234 -0.089 -0.910 0.406 178 123 102 0 0
3.8583 10.1976 -0.7211 -0.083 -0.954 0.289 193 140 119 0 0
3.8771 10.1973 -0.7188 -0.089 -0.910 0.406 186 136 115 0 0
4.0184 10.1496 -0.7025 -0.119 -0.592 0.797 180 133 113 0 0
4.0375 10.1503 -0.7002 -0.364 -0.567 0.739 186 139 119 0 0
4.0869 10.1159 -0.6949 -0.473 -0.589 0.656 171 119 98 0 0
4.1230 10.1078 -0.6907 -0.465 -0.545 0.698 170 117 96 0 0
4.1913 10.0747 -0.6831 -0.046 -0.712 0.700 191 140 119 0 0
4.2110 10.0777 -0.6806 -0.198 -0.635 0.747 181 130 109 0 0
4.2473 10.0704 -0.6763 -0.270 -0.726 0.633 158 103 83 0 0
5.1129 9.8615 -0.5747 -0.410 -0.467 0.783 190 134 114 0 0
5.8835 9.7549 -0.4823 -0.053 -0.907 0.417 167 111 91 0 0
5.9035 9.7548 -0.4798 -0.053 -0.907 0.417 165 110 88 0 0
6.8011 10.0312 -0.3624 0.342 -0.869 -0.359 148 100 84 0 0
7.0016 10.1423 -0.3350 0.599 -0.765 -0.237 147 102 90 0 0
7.1231 10.2626 -0.3170 -0.862 -0.217 -0.457 218 203 197 0 0
7.1327 10.2370 -0.3165 -0.845 -0.257 -0.468 245 246 241 0 0
7.1840 10.2532 -0.3098 0.388 -0.832 -0.397 246 247 243 0 0
6.5876 8.3469 -0.4300 -0.860 0.130 0.493 225 210 189 0 0
6.5187 7.8964 -0.4496 -0.104 -0.620 0.778 214 195 165 0 0
6.5574 7.8681 -0.4455 -0.284 -0.437 0.853 228 208 181 0 0
6.7197 7.5809 -0.4325 -0.607 -0.574 0.550 227 211 183 0 0
6.8608 7.4592 -0.4181 -0.380 -0.884 0.271 217 200 174 0 0
6.8789 7.4600 -0.4159 -0.060 -0.987 0.152 220 203 177 0 0
7.1656 7.2946 -0.3846 -0.232 -0.742 0.629 227 210 184 0 0
8.1515 7.7470 -0.2520 0.392 -0.600 0.697 251 250 248 0 0
8.2453 7.8517 -0.2378 0.460 -0.593 0.661 250 250 248 0 0
1.6960 10.6791 -0.9944 -0.340 -0.585 0.737 191 144 126 0 0
1.9800 10.6202 -0.9609 -0.214 -0.777 0.592 186 138 117 0 0
1.9980 10.6225 -0.9586 -0.398 -0.662 0.635 201 153 132 0 0
2.4579 10.4767 -0.9055 -0.582 -0.505 0.638 190 139 118 0 0
2.9599 10.3890 -0.8458 -0.331 -0.682 0.653 187 135 114 0 0
2.9954 10.3786 -0.8417 -0.149 -0.673 0.725 191 139 118 0 0
3.0131 10.3725 -0.8397 -0.008 -0.785 0.620 174 122 101 0 0
3.0316 10.3734 -0.8374 0.036 -0.708 0.706 182 131 110 0 0
3.3156 10.2894 -0.8044 -0.123 -0.757 0.642 176 125 107 0 0
3.3363 10.3034 -0.8016 0.048 -0.703 0.709 193 142 125 0 0
3.4904 10.2216 -0.7845 -0.192 -0.646 0.739 174 123 104 0 0
4.0818 10.0829 -0.7151 -0.577 -0.560 0.594 186 139 118 0 0
4.1369 10.0758 -0.7084 -0.281 -0.594 0.753 172 120 100 0 0
4.2093 10.0610 -0.6999 -0.282 -0.653 0.703 177 125 104 0 0
4.5660 9.9636 -0.6583 -0.108 -0.721 0.684 195 142 124 0 0
4.5848 9.9622 -0.6560 -0.116 -0.638 0.762 182 129 111 0 0
4.6039 9.9621 -0.6537 -0.060 -0.756 0.652 187 134 116 0 0
4.6232 9.9628 -0.6513 0.020 -0.791 0.612 203 152 133 0 0
4.7060 9.9149 -0.6422 0.046 -0.839 0.543 188 133 112 0 0
4.8156 9.8950 -0.6292 -0.020 -0.748 0.663 184 128 107 0 0
4.8353 9.8962 -0.6268 -0.275 -0.677 0.682 177 119 98 0 0
4.8530 9.8911 -0.6247 -0.275 -0.677 0.682 171 110 88 0 0
5.0003 9.8669 -0.6072 -0.003 -0.644 0.765 190 136 115 0 0
5.1348 9.8010 -0.5922 -0.310 -0.596 0.740 187 132 111 0 0
5.1528 9.7967 -0.5901 -0.228 -0.635 0.738 188 136 115 0 0
5.2563 9.7566 -0.5783 -0.420 -0.636 0.647 175 118 98 0 0
5.3136 9.7535 -0.5713 -0.075 -0.652 0.754 173 116 97 0 0
5.3343 9.7572 -0.5687 0.097 -0.642 0.761 190 135 116 0 0
5.5368 9.7208 -0.5446 -0.570 -0.620 0.539 179 128 108 0 0
6.2669 9.8002 -0.4531 0.012 -0.972 -0.233 124 77 61 0 0
6.2871 9.7998 -0.4506 0.012 -0.972 -0.233 121 74 58 0 0
6.3054 9.7947 -0.4485 -0.107 -0.992 -0.070 126 80 64 0 0
6.4703 9.8927 -0.4260 0.256 -0.960 -0.112 140 92 77 0 0
7.1401 10.2474 -0.3355 -0.845 -0.257 -0.468 245 246 241 0 0
6.4815 7.9240 -0.4699 -0.820 -0.212 0.532 227 207 182 0 0
6.4649 7.8579 -0.4735 0.185 -0.710 0.680 231 211 185 0 0
6.4907 7.8732 -0.4700 0.098 -0.737 0.669 223 203 176 0 0
6.5096 7.8753 -0.4676 -0.104 -0.620 0.778 206 187 157 0 0
6.6588 7.6579 -0.4543 -0.445 -0.843 0.304 225 205 179 0 0
6.6832 7.5130 -0.4546 -0.013 -0.806 0.592 224 206 178 0 0
6.7013 7.5140 -0.4523 -0.211 -0.714 0.668 228 211 185 0 0
6.7172 7.5111 -0.4505 -0.211 -0.714 0.668 231 214 188 0 0
6.7331 7.5082 -0.4486 -0.211 -0.714 0.668 228 211 185 0 0
6.8792 7.4571 -0.4318 0.011 -0.961 0.277 222 205 179 0 0
6.8958 7.4554 -0.4298 -0.087 -0.992 0.090 222 205 177 0 0
6.9152 7.3701 -0.4294 -0.287 -0.716 0.637 231 214 187 0 0
6.9265 7.3598 -0.4282 -0.259 -0.796 0.547 226 209 183 0 0
6.9980 7.3047 -0.4207 -0.329 -0.734 0.594 219 203 177 0 0
7.0836 7.3012 -0.4103 -0.377 -0.622 0.686 227 210 184 0 0
7.6302 7.3178 -0.3428 0.050 -0.816 0.575 232 216 193 0 0
8.1308 7.7418 -0.2715 0.370 -0.518 0.772 250 250 248 0 0
8.1568 7.7513 -0.2681 0.422 -0.567 0.708 250 250 248 0 0
8.2658 7.8500 -0.2524 0.451 -0.585 0.674 250 251 251 0 0
0.9214 11.2052 -1.0966 -0.641 -0.304 0.704 243 243 241 0 0
0.9846 10.9918 -1.0934 -0.333 -0.824 0.458 243 243 241 0 0
1.0202 10.9856 -1.0892 -0.256 -0.882 0.395 243 243 241 0 0
1.0380 10.9833 -1.0871 -0.240 -0.885 0.398 243 244 239 0 0
1.2716 10.8642 -1.0610 -0.400 -0.289 0.870 202 152 132 0 0
1.9814 10.6058 -0.9797 -0.257 -0.779 0.571 186 135 115 0 0
1.9992 10.6039 -0.9775 -0.439 -0.648 0.622 193 142 121 0 0
2.0865 10.5503 -0.9680 -0.201 -0.626 0.753 183 129 108 0 0
2.1041 10.5442 -0.9660 -0.257 -0.645 0.719 171 117 95 0 0
2.3344 10.4889 -0.9390 -0.439 -0.520 0.733 183 131 110 0 0
2.3520 10.4815 -0.9370 -0.257 -0.549 0.795 194 142 120 0 0
2.4408 10.4630 -0.9265 -0.539 -0.558 0.631 182 131 110 0 0
2.4595 10.4716 -0.9240 -0.417 -0.621 0.664 182 132 111 0 0
4.0815 10.0718 -0.7340 -0.404 -0.535 0.742 186 135 116 0 0
4.3490 10.0012 -0.7028 -0.182 -0.562 0.807 161 111 92 0 0
4.7029 9.8959 -0.6617 -0.123 -0.771 0.625 186 131 109 0 0
4.7193 9.8859 -0.6599 -0.585 -0.558 0.588 172 117 93 0 0
4.7437 9.9048 -0.6565 -0.723 -0.503 0.473 187 130 107 0 0
4.7577 9.8862 -0.6552 -0.372 -0.673 0.639 179 121 99 0 0
4.7958 9.8854 -0.6506 0.171 -0.837 0.520 163 103 82 0 0
5.1318 9.7847 -0.6116 -0.520 -0.561 0.644 185 132 111 0 0
5.2539 9.7427 -0.5976 -0.171 -0.789 0.590 170 114 94 0 0
5.2716 9.7376 -0.5955 -0.040 -0.840 0.541 191 134 115 0 0
5.2908 9.7370 -0.5932 -0.189 -0.851 0.491 181 123 104 0 0
6.6237 9.9532 -0.4253 0.103 -0.995 0.016 134 90 74 0 0
7.1559 10.2295 -0.3542 -0.845 -0.257 -0.468 246 246 242 0 0
6.4860 8.0329 -0.4835 -0.804 -0.223 0.551 227 208 182 0 0
6.4612 7.8811 -0.4898 -0.609 -0.607 0.510 224 204 179 0 0
6.4633 7.8510 -0.4902 0.079 -0.755 0.651 226 206 179 0 0
6.4839 7.8563 -0.4875 0.098 -0.737 0.669 219 200 171 0 0
6.5031 7.8589 -0.4851 -0.247 -0.702 0.668 206 186 156 0 0
6.7864 7.4754 -0.4587 -0.244 -0.965 0.095 225 206 180 0 0
6.8085 7.4529 -0.4565 -0.685 -0.679 0.264 229 213 187 0 0
6.8447 7.4250 -0.4526 -0.398 -0.746 0.534 223 206 180 0 0
6.9897 7.2878 -0.4378 -0.464 -0.812 0.355 223 205 180 0 0
7.3498 7.2446 -0.3947 -0.058 -0.839 0.541 229 213 188 0 0
7.3717 7.2509 -0.3918 0.043 -0.853 0.521 230 214 188 0 0
8.1714 7.7417 -0.2834 0.451 -0.585 0.674 250 251 250 0 0
8.2292 7.7958 -0.2751 0.451 -0.585 0.674 249 250 249 0 0
8.2243 7.7618 -0.2765 0.297 -0.564 0.771 250 250 250 0 0
0.8687 11.2242 -1.1217 -0.385 -0.287 0.877 243 243 241 0 0
0.8876 11.2047 -1.1198 -0.385 -0.287 0.877 243 243 241 0 0
0.9065 11.1853 -1.1178 -0.385 -0.287 0.877 243 243 241 0 0
0.9456 11.1126 -1.1145 -0.641 -0.304 0.704 243 243 240 0 0
1.0396 10.9908 -1.1055 -0.204 -0.652 0.731 246 243 239 0 0
1.3285 10.7582 -1.0749 -0.402 -0.369 0.838 185 141 124 0 0
1.6995 10.6512 -1.0318 -0.581 -0.666 0.467 195 150 129 0 0
1.9284 10.5622 -1.0056 -0.186 -0.590 0.786 191 146 126 0 0
1.9815 10.5541 -0.9993 -0.124 -0.669 0.733 187 136 115 0 0
2.0175 10.5617 -0.9947 -0.408 -0.622 0.669 183 135 114 0 0
2.0351 10.5564 -0.9927 -0.614 -0.521 0.594 188 140 120 0 0
2.7606 10.3679 -0.9080 -0.341 -0.763 0.549 187 136 115 0 0
3.0630 10.2987 -0.8724 -0.479 -0.481 0.734 177 124 104 0 0
3.6849 10.1397 -0.7997 -0.370 -0.567 0.736 189 134 115 0 0
3.7188 10.1215 -0.7960 -0.231 -0.589 0.774 195 141 120 0 0
3.8299 10.1169 -0.7825 -0.186 -0.741 0.645 200 150 130 0 0
3.8481 10.1140 -0.7803 -0.425 -0.751 0.506 189 140 121 0 0
3.8807 10.0899 -0.7768 -0.481 -0.706 0.520 194 148 130 0 0
4.9964 9.7761 -0.6470 -0.131 -0.681 0.721 184 128 105 0 0
5.0148 9.7734 -0.6448 -0.120 -0.674 0.729 183 128 105 0 0
5.2860 9.7158 -0.6128 -0.165 -0.643 0.748 194 139 119 0 0
5.5072 9.6799 -0.5866 0.133 -0.941 0.310 167 115 93 0 0
5.5706 9.6932 -0.5786 0.169 -0.909 0.381 163 115 93 0 0
5.5909 9.6952 -0.5761 -0.181 -0.871 0.456 160 113 91 0 0
7.1436 10.2904 -0.3747 -0.720 -0.524 -0.455 238 233 225 0 0
7.1590 10.2766 -0.3731 -0.710 -0.507 -0.489 244 246 241 0 0
7.1717 10.2576 -0.3719 -0.710 -0.507 -0.489 246 246 242 0 0
6.5759 8.4962 -0.4798 -0.809 0.130 0.573 224 213 199 0 0
6.4576 7.8704 -0.5068 -0.609 -0.607 0.510 221 201 173 0 0
6.4550 7.8313 -0.5079 0.146 -0.708 0.691 222 201 171 0 0
6.4765 7.8384 -0.5051 0.146 -0.708 0.691 215 194 163 0 0
6.4949 7.8395 -0.5028 -0.068 -0.655 0.753 220 199 170 0 0
6.5131 7.8402 -0.5006 -0.068 -0.655 0.753 227 206 177 0 0
6.6757 7.4926 -0.4877 -0.355 -0.767 0.534 224 204 177 0 0
6.6952 7.4962 -0.4853 -0.232 -0.881 0.413 222 203 176 0 0
6.7594 7.4556 -0.4782 -0.444 -0.812 0.378 225 204 177 0 0
6.7651 7.4351 -0.4780 -0.156 -0.948 -0.278 228 208 183 0 0
6.9584 7.2905 -0.4573 0.020 -0.991 0.134 221 204 178 0 0
6.9709 7.2825 -0.4559 -0.328 -0.936 0.131 219 202 175 0 0
6.9857 7.2781 -0.4542 -0.332 -0.921 0.203 216 199 172 0 0
7.0273 7.2606 -0.4495 -0.379 -0.657 0.652 224 207 179 0 0
7.0409 7.2543 -0.4479 -0.379 -0.657 0.652 221 204 176 0 0
7.3400 7.2267 -0.4120 -0.191 -0.981 0.022 229 211 187 0 0
8.0321 7.5962 -0.3202 0.398 -0.555 0.730 245 240 231 0 0
8.1939 7.7163 -0.2980 0.297 -0.564 0.771 250 250 250 0 0
8.3020 7.8129 -0.2829 0.282 -0.535 0.796 250 250 250 0 0
0.8578 11.1302 -1.1438 -0.458 -0.292 0.840 243 243 241 0 0
0.8769 11.1044 -1.1420 -0.344 -0.316 0.884 243 243 241 0 0
0.9918 10.9165 -1.1315 0.579 -0.772 -0.262 244 242 238 0 0
1.5249 10.6440 -1.0717 -0.378 -0.575 0.725 182 134 114 0 0
1.5425 10.6207 -1.0700 -0.496 -0.513 0.700 182 134 114 0 0
1.7008 10.5968 -1.0512 -0.309 -0.683 0.662 195 150 129 0 0
1.7185 10.6015 -1.0489 -0.367 -0.614 0.699 209 164 142 0 0
1.9117 10.5357 -1.0266 -0.310 -0.567 0.763 188 142 123 0 0
2.1232 10.4859 -1.0018 -0.309 -0.564 0.766 183 132 110 0 0
2.1411 10.4866 -0.9997 -0.324 -0.573 0.753 187 138 117 0 0
2.3350 10.4370 -0.9770 -0.312 -0.605 0.732 177 126 105 0 0
2.3519 10.4217 -0.9752 -0.245 -0.739 0.628 178 128 106 0 0
3.0615 10.2717 -0.8917 -0.441 -0.474 0.762 180 125 105 0 0
3.2898 10.1990 -0.8653 -0.212 -0.576 0.789 189 135 113 0 0
3.3076 10.1953 -0.8632 -0.212 -0.576 0.789 197 143 122 0 0
3.4681 10.1609 -0.8443 -0.070 -0.698 0.713 194 142 121 0 0
3.6105 10.1278 -0.8276 -0.614 -0.590 0.524 182 131 112 0 0
3.6575 10.0801 -0.8228 -0.191 -0.630 0.753 194 141 123 0 0
3.8788 10.0699 -0.7961 -0.408 -0.626 0.665 190 144 126 0 0
4.3906 9.9219 -0.7366 -0.156 -0.671 0.724 176 124 105 0 0
4.4277 9.9186 -0.7321 -0.163 -0.739 0.654 182 133 116 0 0
4.7461 9.8296 -0.6950 -0.125 -0.616 0.778 178 123 100 0 0
5.5111 9.6847 -0.6047 0.018 -0.958 0.287 185 134 112 0 0
5.5274 9.6756 -0.6029 -0.009 -0.979 0.204 155 105 84 0 0
5.5485 9.6800 -0.6002 0.169 -0.909 0.381 151 103 81 0 0
5.5693 9.6835 -0.5976 -0.065 -0.941 0.332 157 109 88 0 0
6.0967 9.7137 -0.5330 -0.194 -0.961 -0.199 148 99 82 0 0
6.1602 9.7709 -0.5242 -0.148 -0.943 0.298 135 84 69 0 0
6.1832 9.7775 -0.5213 -0.005 -0.984 -0.178 134 86 68 0 0
7.2003 10.2664 -0.3886 0.176 -0.962 0.209 246 246 242 0 0
6.4577 7.8666 -0.5232 -0.623 -0.711 0.326 226 205 176 0 0
6.4636 7.8438 -0.5229 -0.390 -0.780 0.490 223 202 171 0 0
6.4772 7.8358 -0.5214 -0.482 -0.711 0.512 215 194 163 0 0
6.4907 7.8277 -0.5199 -0.482 -0.711 0.512 225 204 175 0 0
6.6720 7.4826 -0.5042 -0.471 -0.776 0.419 227 207 179 0 0
6.7641 7.4301 -0.4940 -0.530 -0.792 0.301 226 206 181 0 0
6.8426 7.3556 -0.4858 -0.338 -0.759 0.557 224 206 181 0 0
6.9581 7.2869 -0.4730 -0.404 -0.912 -0.066 225 208 180 0 0
6.9718 7.2807 -0.4715 -0.404 -0.912 -0.066 224 207 179 0 0
6.9829 7.2704 -0.4703 -0.300 -0.889 0.347 220 203 175 0 0
7.8920 7.4479 -0.3565 0.398 -0.555 0.730 238 222 200 0 0
7.9429 7.4937 -0.3495 0.398 -0.555 0.730 235 221 204 0 0
7.9944 7.5399 -0.3424 0.398 -0.555 0.730 215 205 192 0 0
8.0459 7.5860 -0.3352 0.439 -0.570 0.695 239 235 227 0 0
8.2004 7.7223 -0.3139 0.402 -0.569 0.717 250 250 250 0 0
8.2648 7.7850 -0.3050 0.443 -0.574 0.689 250 250 250 0 0
8.2661 7.7600 -0.3053 0.321 -0.569 0.757 250 250 250 0 0
0.9935 10.9214 -1.1498 0.520 -0.853 0.041 212 201 194 0 0
2.1070 10.4799 -1.0224 0.245 -0.788 0.564 178 127 106 0 0
2.3354 10.4140 -0.9958 -0.312 -0.605 0.732 185 136 115 0 0
2.3523 10.3992 -0.9940 -0.267 -0.675 0.688 183 135 116 0 0
2.8645 10.2827 -0.9340 0.005 -0.654 0.756 181 126 103 0 0
3.3381 10.1405 -0.8790 -0.302 -0.635 0.711 185 132 110 0 0
3.3734 10.1316 -0.8748 0.070 -0.755 0.652 178 124 103 0 0
3.3923 10.1354 -0.8725 0.070 -0.755 0.652 161 109 88 0 0
4.4251 9.8998 -0.7513 -0.247 -0.643 0.725 195 142 124 0 0
4.4417 9.8907 -0.7495 -0.230 -0.646 0.727 188 139 119 0 0
5.6069 9.6729 -0.6120 -0.151 -0.979 0.137 173 123 101 0 0
5.6256 9.6703 -0.6098 -0.151 -0.979 0.137 168 117 96 0 0
6.4545 7.8565 -0.5401 -0.673 -0.584 0.454 225 204 176 0 0
6.4665 7.8455 -0.5388 -0.618 -0.631 0.468 224 204 176 0 0
6.4786 7.8346 -0.5375 -0.618 -0.631 0.468 213 194 166 0 0
6.4875 7.8178 -0.5367 -0.482 -0.711 0.512 224 203 175 0 0
6.5340 7.6731 -0.5336 -0.751 -0.458 0.476 221 200 172 0 0
6.6267 7.5227 -0.5249 -0.660 -0.749 0.067 225 208 181 0 0
6.6603 7.4893 -0.5214 -0.229 -0.968 -0.102 225 206 176 0 0
6.7234 7.4468 -0.5145 -0.236 -0.931 0.278 225 208 182 0 0
6.7681 7.4336 -0.5092 -0.598 -0.798 0.075 222 204 177 0 0
6.9637 7.2926 -0.4879 -0.254 -0.885 0.389 217 200 174 0 0
6.9720 7.2778 -0.4872 -0.328 -0.936 0.131 223 206 180 0 0
6.9832 7.2676 -0.4860 -0.399 -0.886 0.235 221 203 177 0 0
7.1113 7.2209 -0.4713 0.157 -0.926 0.343 217 200 171 0 0
7.2867 7.2201 -0.4500 -0.180 -0.814 0.552 223 206 179 0 0
7.2990 7.2120 -0.4487 -0.305 -0.828 0.470 223 206 180 0 0
7.3138 7.2075 -0.4470 -0.305 -0.828 0.470 221 204 178 0 0
8.1643 7.6688 -0.3361 0.402 -0.569 0.717 250 250 248 0 0
8.2757 7.7434 -0.3213 0.330 -0.584 0.742 250 250 250 0 0
0.9974 10.8759 -1.1687 -0.451 -0.252 0.856 159 125 111 0 0
2.2656 10.4088 -1.0228 -0.289 -0.713 0.638 182 129 107 0 0
2.2827 10.3972 -1.0209 -0.279 -0.729 0.626 163 111 88 0 0
2.3178 10.3880 -1.0168 -0.410 -0.629 0.660 202 151 129 0 0
2.9529 10.2452 -0.9423 -0.142 -0.734 0.664 174 123 103 0 0
3.1090 10.1848 -0.9244 -0.436 -0.519 0.735 188 136 115 0 0
3.3365 10.1168 -0.8980 -0.436 -0.645 0.628 169 112 92 0 0
3.3544 10.1143 -0.8959 -0.255 -0.637 0.727 164 110 90 0 0
3.3720 10.1100 -0.8938 -0.101 -0.725 0.681 189 139 118 0 0
3.4806 10.1001 -0.8809 -0.429 -0.563 0.707 180 131 112 0 0
3.4965 10.0855 -0.8792 -0.560 -0.526 0.640 182 132 112 0 0
3.5131 10.0749 -0.8773 -0.591 -0.504 0.630 193 142 124 0 0
3.6790 10.0735 -0.8573 -0.600 -0.764 0.237 170 117 101 0 0
3.7294 10.0461 -0.8516 -0.243 -0.729 0.639 164 109 90 0 0
3.7662 10.0442 -0.8472 -0.121 -0.959 0.255 177 123 104 0 0
3.7840 10.0405 -0.8451 -0.164 -0.960 0.229 190 135 115 0 0
3.8634 9.9731 -0.8366 -0.153 -0.774 0.615 178 129 110 0 0
4.4879 9.8415 -0.7632 -0.234 -0.622 0.748 187 135 114 0 0
4.5557 9.8122 -0.7555 0.054 -0.656 0.753 175 122 101 0 0
5.2859 9.6378 -0.6700 -0.128 -0.783 0.609 196 140 118 0 0
5.3486 9.6519 -0.6622 -0.758 -0.626 -0.184 179 124 103 0 0
5.3666 9.6482 -0.6601 -0.787 -0.612 0.076 181 129 107 0 0
5.5102 9.6697 -0.6424 0.081 -0.992 0.096 149 97 75 0 0
6.1527 9.7910 -0.5630 0.059 -0.967 0.247 131 82 66 0 0
6.3641 9.9069 -0.5356 0.069 -0.929 -0.364 124 76 60 0 0
6.6137 9.9563 -0.5047 0.156 -0.987 -0.025 132 89 75 0 0
6.6358 9.9591 -0.5020 0.134 -0.987 -0.084 129 85 72 0 0
6.6703 9.9896 -0.4974 -0.237 -0.866 -0.441 137 95 81 0 0
6.9890 10.1761 -0.4560 0.569 -0.799 -0.195 151 108 92 0 0
6.5299 7.6617 -0.5503 -0.732 -0.484 0.480 225 204 177 0 0
6.5752 7.5839 -0.5460 -0.185 -0.552 0.813 223 204 176 0 0
6.9695 7.2704 -0.5033 -0.439 -0.863 0.248 224 207 181 0 0
6.9830 7.2640 -0.5017 -0.439 -0.863 0.248 224 206 181 0 0
7.7157 7.2690 -0.4132 0.125 -0.713 0.690 234 219 198 0 0
7.7562 7.3010 -0.4078 0.315 -0.750 0.582 235 220 199 0 0
8.3055 7.7816 -0.3340 0.443 -0.574 0.689 250 250 249 0 0
8.3969 7.8807 -0.3215 0.495 -0.588 0.640 251 251 249 0 0
0.9839 10.8308 -1.1896 -0.407 -0.271 0.872 188 145 127 0 0
1.5482 10.5323 -1.1258 -0.238 -0.609 0.757 192 149 130 0 0
1.6005 10.5179 -1.1198 -0.168 -0.670 0.723 164 116 94 0 0
3.1751 10.1214 -0.9358 -0.438 -0.581 0.686 158 102 81 0 0
3.3356 10.0977 -0.9168 -0.336 -0.598 0.728 188 133 113 0 0
3.4789 10.0775 -0.8999 -0.429 -0.563 0.707 194 146 129 0 0
3.4950 10.0641 -0.8981 -0.560 -0.526 0.640 179 128 110 0 0
3.5456 10.0382 -0.8924 -0.358 -0.655 0.666 183 133 113 0 0
3.5623 10.0284 -0.8905 -0.033 -0.733 0.679 185 136 119 0 0
4.0748 9.9083 -0.8305 -0.267 -0.616 0.741 196 142 121 0 0
4.5684 9.7809 -0.7729 -0.172 -0.624 0.762 156 98 77 0 0
4.5866 9.7785 -0.7707 -0.172 -0.624 0.762 171 111 90 0 0
4.6037 9.7720 -0.7688 -0.108 -0.626 0.772 186 130 107 0 0
5.6806 9.6477 -0.6409 -0.289 -0.915 0.283 149 97 75 0 0
6.4399 7.8209 -0.5750 -0.658 -0.497 0.566 227 209 183 0 0
6.4508 7.8078 -0.5739 -0.658 -0.497 0.566 227 210 184 0 0
6.8474 7.2954 -0.5333 -0.354 -0.748 0.561 217 200 175 0 0
6.9685 7.2656 -0.5191 -0.633 -0.693 0.345 219 202 176 0 0
8.3863 7.8361 -0.3405 0.443 -0.574 0.689 250 251 248 0 0
0.6433 11.2772 -1.2434 -0.508 -0.176 0.843 243 243 241 0 0
0.6817 11.2350 -1.2393 -0.504 -0.170 0.847 243 243 241 0 0
0.9705 10.7830 -1.2103 -0.436 -0.265 0.860 198 151 130 0 0
0.9886 10.7679 -1.2083 -0.434 -0.286 0.854 197 150 129 0 0
1.6721 10.4876 -1.1299 -0.396 -0.634 0.665 174 129 110 0 0
1.8119 10.4690 -1.1133 -0.497 -0.512 0.700 197 150 129 0 0
2.0912 10.3940 -1.0808 -0.352 -0.772 0.529 169 119 97 0 0
2.5092 10.2679 -1.0322 -0.721 -0.509 0.470 168 116 94 0 0
2.5253 10.2467 -1.0305 -0.721 -0.509 0.470 167 113 91 0 0
3.2473 10.1039 -0.9457 -0.238 -0.593 0.770 174 119 98 0 0
3.2830 10.0987 -0.9415 -0.322 -0.547 0.773 188 132 111 0 0
3.3342 10.0755 -0.9357 -0.336 -0.598 0.728 197 146 126 0 0
3.5774 9.9980 -0.9075 -0.221 -0.679 0.700 188 137 117 0 0
3.8807 9.9461 -0.8717 0.157 -0.897 0.414 169 118 98 0 0
3.9001 9.9506 -0.8694 0.157 -0.897 0.414 183 132 113 0 0
4.0006 9.8994 -0.8579 -0.489 -0.518 0.702 185 136 118 0 0
4.0167 9.8882 -0.8561 -0.590 -0.620 0.517 183 132 112 0 0
4.0513 9.8769 -0.8521 -0.135 -0.766 0.628 181 126 105 0 0
4.2612 9.8183 -0.8277 -0.168 -0.720 0.673 195 143 123 0 0
4.6920 9.7415 -0.7770 -0.165 -0.654 0.739 183 129 105 0 0
4.7103 9.7393 -0.7748 -0.089 -0.679 0.729 190 137 115 0 0
4.8258 9.6802 -0.7617 -0.230 -0.559 0.797 188 133 112 0 0
5.1705 9.6244 -0.7211 -0.368 -0.869 0.332 137 79 57 0 0
5.8305 9.6733 -0.6413 -0.291 -0.931 0.219 181 130 111 0 0
6.3579 9.9302 -0.5749 -0.193 -0.965 -0.178 127 79 62 0 0
6.3768 9.9260 -0.5727 -0.193 -0.965 -0.178 138 91 75 0 0
6.7082 10.0168 -0.5318 0.118 -0.949 -0.292 140 97 81 0 0
7.0093 10.2092 -0.4933 0.450 -0.740 -0.500 139 93 78 0 0
6.4066 7.8897 -0.5944 -0.838 -0.286 0.465 226 206 179 0 0
6.4065 7.8551 -0.5948 -0.847 -0.300 0.440 227 207 179 0 0
6.5307 7.6234 -0.5828 -0.742 -0.617 0.261 222 202 175 0 0
6.5396 7.6075 -0.5819 -0.745 -0.579 0.331 222 202 175 0 0
6.5522 7.5987 -0.5805 -0.929 -0.368 0.046 223 204 174 0 0
6.5688 7.5334 -0.5794 -0.185 -0.543 0.819 210 190 160 0 0
6.6323 7.4600 -0.5727 -0.488 -0.716 0.500 225 205 180 0 0
6.6442 7.4502 -0.5714 -0.413 -0.723 0.553 226 209 181 0 0
6.6567 7.4417 -0.5700 -0.510 -0.604 0.613 222 205 178 0 0
6.7264 7.3217 -0.5631 -0.239 -0.833 0.499 223 203 176 0 0
6.8618 7.2871 -0.5473 -0.186 -0.903 0.387 222 205 179 0 0
6.8819 7.2629 -0.5452 -0.416 -0.906 -0.080 220 203 175 0 0
8.3186 7.7134 -0.3673 0.433 -0.598 0.675 250 250 248 0 0
0.5893 11.3116 -1.2686 -0.276 -0.768 0.578 243 243 241 0 0
0.6135 11.2239 -1.2666 -0.538 -0.333 0.775 243 243 241 0 0
0.9576 10.7297 -1.2309 -0.413 -0.262 0.873 187 141 125 0 0
0.9933 10.7054 -1.2269 -0.434 -0.286 0.854 178 134 113 0 0
1.0826 10.6265 -1.2171 0.137 -0.786 0.603 202 159 141 0 0
1.5520 10.4892 -1.1625 -0.221 -0.765 0.605 178 130 110 0 0
1.7607 10.4402 -1.1381 -0.501 -0.600 0.623 190 145 125 0 0
1.7779 10.4302 -1.1361 -0.406 -0.641 0.652 189 143 122 0 0
1.7953 10.4253 -1.1341 -0.017 -0.824 0.567 188 141 119 0 0
2.4400 10.2688 -1.0588 -0.336 -0.630 0.700 189 139 121 0 0
2.4907 10.2351 -1.0531 -0.177 -0.723 0.668 192 142 121 0 0
2.5089 10.2401 -1.0509 -0.378 -0.702 0.604 187 135 114 0 0
2.5254 10.2239 -1.0491 -0.736 -0.634 0.238 170 118 97 0 0
2.5416 10.2058 -1.0473 -0.736 -0.634 0.238 178 124 103 0 0
3.1209 10.0938 -0.9793 -0.232 -0.626 0.744 161 102 82 0 0
3.1550 10.0788 -0.9754 -0.433 -0.641 0.634 181 122 101 0 0
3.1718 10.0694 -0.9735 -0.433 -0.641 0.634 192 133 110 0 0
3.1894 10.0657 -0.9714 -0.340 -0.723 0.601 188 128 104 0 0
3.2066 10.0593 -0.9695 -0.728 -0.640 0.245 179 122 100 0 0
3.4373 10.0228 -0.9423 -0.051 -0.727 0.685 184 136 115 0 0
4.0321 9.8644 -0.8729 -0.173 -0.742 0.648 185 130 109 0 0
4.0501 9.8618 -0.8708 -0.135 -0.766 0.628 177 119 99 0 0
4.5789 9.7339 -0.8090 -0.282 -0.559 0.780 169 112 89 0 0
4.5961 9.7280 -0.8070 -0.282 -0.559 0.780 169 115 91 0 0
4.6317 9.7206 -0.8029 -0.350 -0.673 0.651 182 130 106 0 0
4.6480 9.7115 -0.8010 -0.406 -0.580 0.706 176 124 100 0 0
4.6840 9.7053 -0.7968 -0.116 -0.780 0.615 184 128 105 0 0
4.7069 9.7198 -0.7939 -0.262 -0.740 0.620 194 139 118 0 0
5.2184 9.5886 -0.7342 -0.429 -0.821 0.376 162 106 86 0 0
5.8956 9.6310 -0.6528 -0.595 -0.800 0.080 134 86 72 0 0
6.3632 9.9373 -0.5936 -0.185 -0.951 -0.248 145 98 81 0 0
6.7135 10.0233 -0.5508 0.156 -0.936 -0.314 155 112 95 0 0
6.9878 10.2042 -0.5160 0.450 -0.780 -0.434 148 102 87 0 0
6.5168 7.6264 -0.6004 -0.479 -0.679 0.557 223 203 176 0 0
6.5300 7.6184 -0.5990 -0.479 -0.679 0.557 224 204 177 0 0
6.5317 7.5895 -0.5991 -0.711 -0.531 0.461 223 202 174 0 0
6.5845 7.4954 -0.5938 -0.535 -0.531 0.657 223 205 179 0 0
6.5962 7.4852 -0.5925 -0.535 -0.531 0.657 226 207 180 0 0
6.6285 7.4497 -0.5890 -0.511 -0.711 0.483 227 207 182 0 0
6.7222 7.3112 -0.5793 -0.313 -0.788 0.530 223 203 176 0 0
6.7387 7.3098 -0.5774 -0.200 -0.791 0.579 221 204 176 0 0
6.7696 7.3036 -0.5737 -0.437 -0.753 0.493 226 209 180 0 0
0.5276 11.4443 -1.2937 -0.459 -0.165 0.873 242 243 241 0 0
0.5493 11.3953 -1.2916 -0.459 -0.165 0.873 243 243 241 0 0
0.5854 11.1521 -1.2896 -0.299 -0.228 0.927 242 243 242 0 0
0.6091 11.0694 -1.2876 -0.326 -0.306 0.895 242 244 242 0 0
1.0685 10.5947 -1.2373 -0.019 -0.725 0.688 188 144 127 0 0
1.0856 10.5968 -1.2353 -0.548 -0.698 0.461 194 151 134 0 0
1.6754 10.4459 -1.1664 -0.404 -0.604 0.687 193 149 130 0 0
1.7623 10.4224 -1.1563 -0.421 -0.800 0.427 191 143 124 0 0
1.7796 10.4158 -1.1543 -0.241 -0.818 0.522 190 140 119 0 0
1.7970 10.4155 -1.1523 0.059 -0.888 0.456 185 135 113 0 0
2.0931 10.3520 -1.1176 -0.233 -0.640 0.732 171 121 99 0 0
2.4573 10.2363 -1.0753 -0.176 -0.852 0.493 178 130 111 0 0
2.4746 10.2310 -1.0733 -0.317 -0.820 0.477 174 124 105 0 0
2.4924 10.2311 -1.0712 -0.139 -0.910 0.390 178 127 106 0 0
2.5100 10.2293 -1.0691 -0.139 -0.910 0.390 177 125 104 0 0
2.5274 10.2253 -1.0671 -0.661 -0.735 0.149 170 118 98 0 0
2.5429 10.1974 -1.0655 -0.582 -0.701 0.412 177 126 105 0 0
2.6151 10.2097 -1.0568 -0.314 -0.553 0.772 180 126 105 0 0
2.6323 10.2027 -1.0548 -0.314 -0.553 0.772 185 132 112 0 0
2.9281 10.1213 -1.0203 -0.125 -0.644 0.755 198 146 126 0 0
2.9988 10.1112 -1.0120 -0.612 -0.491 0.620 190 138 116 0 0
3.0658 10.0718 -1.0044 0.124 -0.775 0.619 177 126 105 0 0
3.0846 10.0772 -1.0021 -0.303 -0.671 0.677 183 131 109 0 0
3.1206 10.0769 -0.9978 -0.385 -0.606 0.696 178 122 101 0 0
3.1544 10.0597 -0.9940 -0.294 -0.648 0.702 178 119 96 0 0
3.1882 10.0431 -0.9901 -0.361 -0.653 0.666 168 109 85 0 0
3.2083 10.0574 -0.9876 -0.685 -0.728 -0.003 185 130 106 0 0
3.2391 10.0201 -0.9843 -0.724 -0.671 0.160 198 146 124 0 0
3.4386 10.0182 -0.9605 -0.194 -0.563 0.803 180 128 107 0 0
3.6820 9.9455 -0.9322 -0.230 -0.671 0.705 184 131 110 0 0
3.8762 9.9037 -0.9095 -0.293 -0.665 0.687 191 141 120 0 0
3.8935 9.8982 -0.9075 -0.293 -0.665 0.687 188 141 122 0 0
3.9777 9.8598 -0.8978 -0.637 -0.519 0.570 173 124 105 0 0
4.5576 9.7168 -0.8301 -0.355 -0.669 0.653 177 119 99 0 0
4.5906 9.7001 -0.8263 -0.334 -0.572 0.749 199 144 122 0 0
4.6265 9.6940 -0.8221 -0.331 -0.590 0.736 194 142 119 0 0
4.9068 9.6196 -0.7894 -0.468 -0.583 0.664 169 116 94 0 0
4.9257 9.6197 -0.7872 -0.148 -0.676 0.722 186 132 111 0 0
4.9427 9.6134 -0.7852 -0.166 -0.654 0.738 186 132 112 0 0
5.8315 9.6642 -0.6789 -0.291 -0.931 0.219 133 85 64 0 0
5.8666 9.6525 -0.6748 -0.537 -0.839 -0.085 130 83 66 0 0
5.8830 9.6436 -0.6730 -0.600 -0.797 -0.075 133 86 71 0 0
5.8950 9.6236 -0.6717 -0.705 -0.699 -0.121 132 86 71 0 0
6.1675 9.8047 -0.6376 0.106 -0.918 -0.382 127 82 65 0 0
6.3882 7.8462 -0.6297 -0.882 -0.302 0.361 222 203 177 0 0
6.5142 7.5857 -0.6171 -0.404 -0.752 0.521 222 202 176 0 0
6.5283 7.5795 -0.6155 -0.302 -0.643 0.703 225 205 179 0 0
6.5660 7.4897 -0.6119 -0.292 -0.575 0.764 209 189 162 0 0
6.5805 7.4845 -0.6102 -0.292 -0.575 0.764 216 198 169 0 0
6.5951 7.4795 -0.6085 -0.250 -0.579 0.776 224 205 176 0 0
6.6255 7.4408 -0.6052 -0.511 -0.711 0.483 221 203 176 0 0
6.7238 7.3104 -0.5948 -0.725 -0.632 0.272 223 203 176 0 0
6.7358 7.3016 -0.5934 -0.428 -0.715 0.552 223 206 179 0 0
6.7766 7.2829 -0.5887 -0.578 -0.734 0.357 221 204 175 0 0
6.7887 7.2740 -0.5874 -0.578 -0.734 0.357 216 199 170 0 0
6.8143 7.2881 -0.5842 -0.206 -0.915 0.348 216 199 171 0 0
8.1641 7.5740 -0.4208 0.485 -0.606 0.631 250 250 245 0 0
0.5186 11.3563 -1.3148 -0.452 -0.161 0.877 243 243 241 0 0
0.5401 11.3089 -1.3126 -0.407 -0.160 0.899 243 243 241 0 0
1.0711 10.5775 -1.2554 -0.019 -0.725 0.688 191 145 128 0 0
1.0883 10.5761 -1.2533 -0.460 -0.586 0.667 188 144 127 0 0
1.2450 10.4967 -1.2354 -0.482 -0.581 0.656 192 153 134 0 0
1.2964 10.5019 -1.2292 -0.341 -0.618 0.709 173 129 110 0 0
1.7459 10.3727 -1.1769 -0.237 -0.692 0.682 171 124 104 0 0
1.7632 10.3688 -1.1749 -0.237 -0.692 0.682 170 122 102 0 0
2.0940 10.3289 -1.1359 -0.305 -0.615 0.727 197 146 125 0 0
2.4752 10.2143 -1.0916 -0.304 -0.720 0.623 175 124 105 0 0
2.4925 10.2087 -1.0896 -0.304 -0.720 0.623 192 140 119 0 0
2.5102 10.2079 -1.0875 -0.463 -0.649 0.603 205 153 132 0 0
2.5270 10.1961 -1.0856 -0.523 -0.637 0.566 209 158 137 0 0
2.5437 10.1840 -1.0837 -0.523 -0.637 0.566 203 153 132 0 0
2.7712 10.1421 -1.0571 -0.411 -0.649 0.640 188 137 116 0 0
3.0660 10.0581 -1.0227 0.157 -0.833 0.530 187 135 114 0 0
3.0841 10.0590 -1.0206 -0.317 -0.673 0.668 185 133 111 0 0
3.8918 9.8799 -0.9262 -0.352 -0.648 0.676 189 142 123 0 0
4.3430 9.7462 -0.8737 0.027 -0.669 0.742 187 135 114 0 0
4.8730 9.6260 -0.8117 -0.304 -0.661 0.686 179 125 101 0 0
5.1284 9.5926 -0.7817 0.052 -0.769 0.637 177 119 97 0 0
5.1821 9.5814 -0.7754 -0.179 -0.816 0.550 151 91 68 0 0
6.0100 9.7586 -0.6758 0.262 -0.943 -0.204 132 83 66 0 0
6.4147 9.9502 -0.6262 0.116 -0.877 -0.466 134 88 73 0 0
6.4418 9.9650 -0.6229 0.405 -0.892 -0.203 142 96 80 0 0
6.9594 10.2256 -0.5595 0.446 -0.710 -0.544 139 93 78 0 0
6.9789 10.2211 -0.5572 -0.230 -0.781 -0.581 145 99 84 0 0
6.4011 7.7649 -0.6451 -0.892 -0.341 0.297 223 203 174 0 0
6.5595 7.4744 -0.6286 -0.392 -0.576 0.717 218 199 171 0 0
6.5719 7.4656 -0.6272 -0.265 -0.612 0.745 209 190 160 0 0
6.6224 7.4320 -0.6214 -0.511 -0.711 0.483 217 200 171 0 0
6.7333 7.2938 -0.6094 -0.407 -0.861 0.306 220 203 176 0 0
6.7716 7.2711 -0.6050 -0.477 -0.770 0.424 215 198 171 0 0
1.0740 10.5492 -1.2734 -0.091 -0.678 0.729 197 151 134 0 0
1.0911 10.5510 -1.2714 -0.488 -0.566 0.665 166 121 105 0 0
1.1086 10.5382 -1.2694 -0.488 -0.566 0.665 187 144 127 0 0
1.1609 10.5087 -1.2634 -0.454 -0.555 0.697 173 128 109 0 0
1.2129 10.4848 -1.2574 -0.274 -0.612 0.742 184 141 124 0 0
1.2474 10.4744 -1.2534 -0.482 -0.581 0.656 188 147 128 0 0
1.2645 10.4773 -1.2513 -0.393 -0.611 0.687 180 139 121 0 0
1.2816 10.4775 -1.2493 -0.231 -0.622 0.748 191 150 132 0 0
1.9029 10.3161 -1.1769 -0.451 -0.637 0.626 186 135 116 0 0
1.9200 10.3040 -1.1749 -0.335 -0.686 0.646 189 138 119 0 0
2.5442 10.1670 -1.1020 -0.377 -0.647 0.663 196 144 123 0 0
2.9596 10.0518 -1.0536 -0.405 -0.556 0.726 182 131 110 0 0
3.0665 10.0466 -1.0410 0.157 -0.833 0.530 172 120 99 0 0
3.6236 9.9042 -0.9760 -0.069 -0.855 0.514 189 137 116 0 0
3.6961 9.9012 -0.9675 0.033 -0.678 0.734 168 116 95 0 0
3.7888 9.8136 -0.9571 -0.569 -0.603 0.558 195 145 122 0 0
3.8424 9.8076 -0.9508 0.074 -0.689 0.721 190 141 120 0 0
3.8644 9.8257 -0.9481 -0.535 -0.797 0.282 178 130 110 0 0
3.8816 9.8202 -0.9461 -0.250 -0.801 0.544 185 136 119 0 0
4.1061 9.7538 -0.9199 -0.212 -0.586 0.782 188 137 116 0 0
4.3589 9.7269 -0.8902 0.088 -0.666 0.741 168 116 94 0 0
4.4364 9.6660 -0.8814 -0.130 -0.715 0.687 179 127 105 0 0
4.4557 9.6686 -0.8791 0.007 -0.851 0.525 181 129 108 0 0
5.5142 9.5890 -0.7545 -0.139 -0.910 0.390 168 113 92 0 0
5.5329 9.5871 -0.7523 -0.139 -0.910 0.390 173 121 99 0 0
5.5517 9.5852 -0.7501 -0.139 -0.910 0.390 175 123 101 0 0
5.5703 9.5830 -0.7479 -0.198 -0.880 0.432 171 120 97 0 0
5.6998 9.6167 -0.7324 0.053 -0.998 0.034 147 96 75 0 0
6.4451 9.9673 -0.6420 0.112 -0.836 -0.537 139 93 78 0 0
6.6500 10.0541 -0.6172 0.129 -0.976 -0.178 122 79 63 0 0
6.9643 10.2310 -0.5790 0.219 -0.946 -0.239 134 88 75 0 0
7.1857 10.4251 -0.5515 -0.190 -0.725 -0.663 167 135 126 0 0
6.5120 7.5423 -0.6496 -0.247 -0.951 0.188 222 203 175 0 0
6.5428 7.5351 -0.6460 -0.739 -0.662 0.128 221 201 174 0 0
6.5798 7.4450 -0.6422 -0.323 -0.605 0.728 206 187 157 0 0
6.7452 7.2814 -0.6236 -0.362 -0.848 0.387 215 198 171 0 0
0.3639 10.7864 -1.3740 -0.329 -0.705 0.629 242 242 240 0 0
0.8715 10.5545 -1.3154 -0.339 -0.472 0.814 191 151 134 0 0
1.9042 10.2952 -1.1949 -0.436 -0.588 0.682 182 131 112 0 0
1.9912 10.2910 -1.1847 0.001 -0.775 0.632 179 132 110 0 0
2.2335 10.2339 -1.1564 -0.490 -0.767 0.414 185 137 116 0 0
2.2506 10.2264 -1.1545 -0.433 -0.739 0.517 191 141 120 0 0
2.2676 10.2174 -1.1525 -0.387 -0.742 0.548 195 145 124 0 0
2.6119 10.1095 -1.1125 -0.059 -0.633 0.772 190 134 111 0 0
2.6296 10.1103 -1.1104 -0.059 -0.633 0.772 192 136 113 0 0
2.8916 10.0651 -1.0797 0.104 -0.730 0.676 191 140 121 0 0
2.9100 10.0697 -1.0775 0.104 -0.730 0.676 179 128 108 0 0
2.9281 10.0709 -1.0754 -0.164 -0.685 0.710 179 127 105 0 0
2.9444 10.0577 -1.0735 -0.056 -0.738 0.673 192 139 118 0 0
2.9936 10.0220 -1.0679 -0.263 -0.598 0.757 188 137 119 0 0
3.4478 9.9271 -1.0149 -0.384 -0.566 0.730 180 129 108 0 0
3.5143 9.8919 -1.0072 -0.348 -0.755 0.556 174 119 100 0 0
4.1028 9.7298 -0.9387 -0.203 -0.623 0.756 180 129 107 0 0
4.1203 9.7262 -0.9366 -0.020 -0.690 0.724 190 138 117 0 0
