ply
format ascii 1.0
element vertex 818
property float x
property float y
property float z
property float nx
property float ny
property float nz
property uchar diffuse_red
property uchar diffuse_green
property uchar diffuse_blue
property uchar class
property uchar detection
end_header
5.6593 10.5186 0.0140 -0.020 -0.787 0.616 181 130 109 0 0
5.6807 10.5144 0.0132 -0.089 -0.709 0.700 165 113 91 0 0
6.1320 10.2706 -0.0239 -0.219 -0.584 0.782 198 147 126 0 0
6.8532 10.0447 -0.0599 -0.042 -0.841 0.539 180 135 118 0 0
6.8366 8.6843 -0.2536 0.593 -0.791 -0.151 254 254 251 0 0
6.6195 7.8252 -0.3748 -0.814 -0.311 0.491 235 218 190 0 0
6.6374 7.8193 -0.3758 -0.481 -0.507 0.716 236 219 191 0 0
6.8001 7.4757 -0.4256 -0.658 -0.560 0.503 226 209 182 0 0
6.8899 7.3540 -0.4434 -0.445 -0.650 0.616 229 212 186 0 0
6.9623 7.2864 -0.4534 -0.513 -0.798 0.317 222 206 180 0 0
6.9800 7.2806 -0.4543 -0.313 -0.944 0.106 219 202 176 0 0
6.9971 7.2743 -0.4553 -0.289 -0.934 0.211 217 200 173 0 0
7.0109 7.2647 -0.4568 -0.201 -0.950 0.238 229 212 186 0 0
7.0309 7.2611 -0.4574 -0.232 -0.901 0.366 230 213 187 0 0
7.0419 7.2488 -0.4592 -0.330 -0.729 0.600 227 211 185 0 0
7.5212 7.1758 -0.4721 0.006 -0.768 0.641 230 214 191 0 0
7.7778 7.2925 -0.4569 0.230 -0.627 0.744 234 221 198 0 0
3.4638 11.8529 0.1950 0.042 -0.530 0.847 244 244 240 0 0
3.5898 11.8980 0.2006 -0.112 -0.534 0.838 246 245 241 0 0
4.6500 11.0156 0.0697 -0.350 -0.615 0.707 200 149 126 0 0
4.6683 11.0068 0.0683 -0.321 -0.804 0.501 199 147 125 0 0
5.3600 10.6583 0.0149 -0.674 -0.385 0.631 186 134 113 0 0
5.6559 10.4772 -0.0124 -0.304 -0.586 0.751 191 140 120 0 0
5.6754 10.4700 -0.0136 0.000 -0.778 0.628 193 142 121 0 0
5.9204 10.3235 -0.0357 -0.421 -0.534 0.733 200 151 130 0 0
6.9980 8.8736 -0.2469 -0.686 0.272 0.675 254 254 252 0 0
6.7891 7.4662 -0.4442 -0.351 -0.832 0.430 228 211 185 0 0
6.9499 7.2761 -0.4720 -0.348 -0.904 0.248 227 211 185 0 0
6.9726 7.2752 -0.4723 -0.190 -0.955 0.229 227 210 183 0 0
6.9913 7.2704 -0.4730 -0.318 -0.900 0.299 218 201 174 0 0
7.0086 7.2642 -0.4740 -0.156 -0.978 0.140 214 197 171 0 0
7.0292 7.2384 -0.4778 -0.463 -0.644 0.609 222 205 178 0 0
7.8327 7.2977 -0.4743 0.285 -0.686 0.669 234 222 204 0 0
3.4687 11.7559 0.1608 0.410 -0.886 0.216 246 245 241 0 0
3.7730 11.4848 0.1208 -0.265 -0.559 0.786 171 124 106 0 0
4.0367 11.3328 0.0978 -0.014 -0.733 0.680 194 147 129 0 0
4.5016 11.0391 0.0535 -0.209 -0.672 0.711 195 142 118 0 0
5.0994 10.7387 0.0074 -0.385 -0.534 0.753 189 138 119 0 0
5.1246 10.7422 0.0077 -0.347 -0.534 0.771 177 126 107 0 0
5.1616 10.7249 0.0051 -0.224 -0.585 0.779 193 142 121 0 0
5.4122 10.5492 -0.0212 -0.074 -0.745 0.663 181 133 113 0 0
5.6357 10.4474 -0.0370 0.062 -0.806 0.589 193 142 123 0 0
5.6760 10.4352 -0.0389 -0.258 -0.639 0.725 196 148 129 0 0
5.9759 10.2625 -0.0651 -0.178 -0.609 0.773 188 137 116 0 0
6.0462 10.2215 -0.0714 -0.265 -0.607 0.749 194 143 124 0 0
6.0639 10.2113 -0.0729 -0.214 -0.637 0.740 198 147 128 0 0
6.5599 9.9982 -0.1061 -0.377 -0.820 0.431 145 100 81 0 0
7.2011 10.1961 -0.0828 0.344 -0.720 -0.603 253 253 251 0 0
6.5915 7.8747 -0.4031 -0.740 -0.380 0.555 233 215 189 0 0
6.5984 7.8568 -0.4056 -0.680 -0.414 0.606 232 215 188 0 0
6.5860 7.8179 -0.4110 -0.866 -0.283 0.413 232 215 187 0 0
6.5892 7.7711 -0.4175 -0.723 -0.612 0.321 231 212 185 0 0
6.9041 7.3483 -0.4788 -0.576 -0.602 0.554 228 211 185 0 0
6.9316 7.2829 -0.4881 -0.159 -0.961 0.225 224 209 180 0 0
6.9451 7.2731 -0.4896 -0.348 -0.904 0.248 220 204 176 0 0
6.9612 7.2658 -0.4907 -0.204 -0.966 0.155 226 209 183 0 0
7.1763 7.1985 -0.5016 -0.051 -0.919 0.391 223 207 182 0 0
7.7799 7.2529 -0.4981 0.309 -0.715 0.627 231 219 197 0 0
3.4693 11.7617 0.1411 0.291 -0.955 -0.061 245 245 241 0 0
3.4960 11.7752 0.1427 0.203 -0.938 0.283 245 246 242 0 0
3.5203 11.7823 0.1435 0.338 -0.838 0.428 248 244 239 0 0
4.4494 11.0277 0.0320 0.033 -0.750 0.660 200 145 122 0 0
4.4715 11.0271 0.0317 -0.041 -0.828 0.560 190 136 112 0 0
5.0664 10.7243 -0.0147 -0.201 -0.615 0.763 199 148 127 0 0
5.0841 10.7143 -0.0163 -0.129 -0.665 0.735 193 144 124 0 0
5.1046 10.7094 -0.0171 -0.129 -0.665 0.735 197 146 127 0 0
5.1424 10.6939 -0.0195 -0.297 -0.591 0.750 196 145 124 0 0
5.3241 10.6026 -0.0335 -0.209 -0.685 0.698 187 132 111 0 0
5.3412 10.5515 -0.0407 -0.588 -0.410 0.697 185 133 113 0 0
5.3576 10.5395 -0.0425 -0.235 -0.673 0.701 196 147 129 0 0
5.3825 10.5418 -0.0424 -0.156 -0.714 0.682 203 155 137 0 0
5.3995 10.5308 -0.0441 -0.089 -0.748 0.658 198 151 131 0 0
5.4338 10.5091 -0.0473 -0.159 -0.642 0.750 194 147 127 0 0
5.6116 10.4501 -0.0569 -0.406 -0.642 0.650 195 144 125 0 0
5.6250 10.4332 -0.0593 -0.140 -0.709 0.691 198 147 128 0 0
5.6611 10.4143 -0.0622 -0.279 -0.668 0.690 189 141 123 0 0
5.6757 10.3993 -0.0644 -0.421 -0.561 0.713 195 147 130 0 0
6.5470 9.9832 -0.1286 -0.182 -0.878 0.442 182 136 114 0 0
6.5686 9.9783 -0.1295 -0.182 -0.878 0.442 165 117 96 0 0
7.2166 10.2187 -0.1012 0.405 -0.718 -0.566 253 253 251 0 0
6.5658 7.9250 -0.4136 -0.469 -0.396 0.789 232 212 185 0 0
6.7490 7.4291 -0.4836 -0.800 -0.553 0.233 227 210 184 0 0
6.8018 7.3649 -0.4929 -0.515 -0.681 0.521 224 207 181 0 0
6.8140 7.3538 -0.4946 -0.424 -0.660 0.620 227 210 185 0 0
6.9255 7.2787 -0.5058 -0.393 -0.798 0.456 224 209 180 0 0
6.9478 7.2546 -0.5093 -0.212 -0.829 0.517 224 207 180 0 0
7.8201 7.2452 -0.5173 0.331 -0.718 0.612 234 219 201 0 0
8.3703 7.5627 -0.4776 0.383 -0.693 0.611 253 254 255 0 0
3.4919 11.7688 0.1213 0.246 -0.965 -0.094 247 242 233 0 0
3.8923 11.3614 0.0621 -0.563 -0.388 0.730 200 151 129 0 0
4.1661 11.1858 0.0357 -0.158 -0.623 0.766 194 144 121 0 0
4.1875 11.1842 0.0353 -0.264 -0.592 0.761 198 146 124 0 0
4.2038 11.1715 0.0335 -0.554 -0.496 0.668 197 145 123 0 0
4.7595 10.8400 -0.0167 -0.189 -0.601 0.777 177 124 105 0 0
4.9488 10.7656 -0.0285 -0.339 -0.551 0.763 187 136 115 0 0
5.0690 10.6903 -0.0398 -0.226 -0.537 0.813 194 143 123 0 0
5.2172 10.5827 -0.0558 0.035 -0.807 0.590 194 140 119 0 0
5.2444 10.5894 -0.0551 -0.112 -0.701 0.705 175 121 99 0 0
5.4191 10.4874 -0.0706 -0.134 -0.630 0.765 199 152 132 0 0
5.5972 10.4295 -0.0800 -0.168 -0.687 0.707 180 129 108 0 0
5.7490 10.2531 -0.1054 -0.107 -0.756 0.646 194 142 121 0 0
5.9084 10.2023 -0.1137 -0.086 -0.676 0.732 179 131 109 0 0
6.0323 10.1336 -0.1242 -0.229 -0.653 0.722 185 133 111 0 0
6.0825 10.0997 -0.1293 -0.343 -0.603 0.720 194 142 121 0 0
6.3694 9.9473 -0.1526 -0.032 -0.805 0.592 201 154 135 0 0
6.5334 9.9671 -0.1512 -0.100 -0.898 0.429 175 126 105 0 0
6.5644 9.9752 -0.1504 -0.467 -0.880 0.093 167 118 96 0 0
7.0810 10.1486 -0.1310 0.564 -0.794 -0.225 236 233 227 0 0
7.1800 10.1741 -0.1283 0.223 -0.684 -0.695 252 252 250 0 0
6.6712 7.5420 -0.4847 -0.861 -0.411 0.300 227 208 180 0 0
6.7938 7.3586 -0.5109 -0.399 -0.716 0.573 223 206 181 0 0
7.2369 7.1240 -0.5468 -0.071 -0.891 0.449 220 204 178 0 0
8.2013 7.4422 -0.5113 0.421 -0.710 0.564 255 254 250 0 0
8.3710 7.5189 -0.5022 0.376 -0.737 0.561 254 254 254 0 0
3.4690 11.7696 0.1011 0.013 -0.997 0.078 200 172 161 0 0
3.9754 11.2543 0.0265 -0.401 -0.530 0.747 183 135 113 0 0
4.1747 11.1598 0.0118 -0.304 -0.591 0.747 173 121 99 0 0
4.1934 11.1525 0.0107 -0.554 -0.496 0.668 188 136 114 0 0
4.2044 11.1283 0.0073 -0.368 -0.546 0.753 194 144 121 0 0
4.2763 11.0453 -0.0046 -0.242 -0.652 0.719 179 129 106 0 0
4.3115 11.0262 -0.0076 -0.013 -0.804 0.594 178 127 104 0 0
4.3335 11.0256 -0.0079 -0.013 -0.804 0.594 178 126 104 0 0
4.4634 10.9261 -0.0226 -0.171 -0.607 0.776 199 147 126 0 0
4.7632 10.8067 -0.0415 -0.161 -0.692 0.704 199 148 128 0 0
5.2290 10.5657 -0.0785 0.003 -0.821 0.571 187 134 112 0 0
5.5732 10.3935 -0.1050 -0.357 -0.528 0.770 187 136 115 0 0
5.7370 10.2373 -0.1277 -0.177 -0.755 0.632 186 134 112 0 0
5.9591 10.1720 -0.1387 -0.263 -0.712 0.651 179 127 106 0 0
5.9724 10.1193 -0.1459 -0.300 -0.784 0.544 191 142 120 0 0
5.9960 10.1183 -0.1463 -0.047 -0.833 0.551 188 137 115 0 0
6.1032 10.0257 -0.1598 -0.186 -0.633 0.751 192 144 124 0 0
6.4409 9.9457 -0.1738 -0.045 -0.868 0.494 178 127 105 0 0
6.5629 9.9757 -0.1709 -0.569 -0.821 0.046 177 126 105 0 0
7.0941 10.1683 -0.1496 0.564 -0.783 -0.263 238 235 229 0 0
7.1415 10.1955 -0.1464 0.518 -0.809 -0.279 253 252 247 0 0
7.1979 10.1998 -0.1463 0.375 -0.713 -0.593 253 253 251 0 0
6.5371 7.9229 -0.4491 -0.528 -0.594 0.607 223 204 175 0 0
6.6818 7.5548 -0.5004 -0.814 -0.451 0.366 227 207 179 0 0
6.8847 7.2652 -0.5416 -0.367 -0.729 0.577 222 205 176 0 0
6.9595 7.2237 -0.5479 -0.303 -0.817 0.491 221 204 178 0 0
4.0134 11.1957 -0.0020 -0.142 -0.696 0.704 196 146 122 0 0
4.1895 11.0997 -0.0167 -0.416 -0.554 0.721 182 132 110 0 0
4.2060 11.0401 -0.0248 -0.215 -0.852 0.478 188 140 119 0 0
4.2264 11.0368 -0.0255 -0.200 -0.776 0.598 187 139 119 0 0
4.2828 11.0158 -0.0289 -0.255 -0.651 0.715 196 146 123 0 0
4.6180 10.8354 -0.0565 -0.272 -0.641 0.718 180 126 106 0 0
4.6383 10.8311 -0.0572 -0.233 -0.620 0.749 181 128 108 0 0
4.9395 10.6705 -0.0818 -0.244 -0.663 0.708 184 136 119 0 0
4.9580 10.6622 -0.0831 -0.317 -0.714 0.625 180 134 115 0 0
5.1652 10.5386 -0.1018 0.049 -0.778 0.626 207 155 134 0 0
6.0983 10.0212 -0.1806 -0.217 -0.627 0.748 201 153 135 0 0
6.2247 9.9571 -0.1905 -0.214 -0.759 0.615 195 149 130 0 0
6.4294 9.9324 -0.1959 -0.115 -0.908 0.404 181 130 109 0 0
6.5319 9.9702 -0.1918 -0.274 -0.960 -0.053 185 135 115 0 0
7.1479 10.2064 -0.1663 0.518 -0.809 -0.279 252 252 248 0 0
7.2124 10.2210 -0.1649 0.258 -0.728 -0.635 252 252 250 0 0
6.5341 8.1837 -0.4318 -0.740 -0.082 0.668 227 209 184 0 0
6.5292 8.1515 -0.4361 -0.715 -0.108 0.691 225 206 180 0 0
6.5162 7.9275 -0.4661 -0.594 -0.457 0.663 230 211 183 0 0
6.5197 7.9057 -0.4690 -0.392 -0.563 0.727 222 203 173 0 0
6.8750 7.2574 -0.5596 -0.270 -0.921 0.281 221 204 175 0 0
6.8934 7.2525 -0.5605 -0.592 -0.542 0.596 221 204 176 0 0
6.9101 7.2459 -0.5615 -0.322 -0.939 -0.123 225 206 179 0 0
6.9274 7.2399 -0.5625 -0.680 -0.695 0.233 224 204 177 0 0
7.1325 7.1418 -0.5778 -0.450 -0.867 0.213 219 203 175 0 0
7.1486 7.1346 -0.5789 -0.576 -0.793 0.200 220 203 177 0 0
7.1845 7.1234 -0.5807 0.035 -0.999 0.010 217 200 172 0 0
7.2073 7.1223 -0.5811 0.092 -0.996 0.017 218 201 176 0 0
7.2234 7.1149 -0.5823 -0.168 -0.966 0.198 219 202 178 0 0
3.6263 11.3570 0.0034 -0.605 -0.518 0.605 188 141 123 0 0
4.1605 11.0882 -0.0381 -0.245 -0.622 0.743 187 137 114 0 0
4.1740 11.0697 -0.0407 -0.476 -0.542 0.693 190 138 117 0 0
4.2000 11.0309 -0.0461 -0.137 -0.849 0.510 196 146 125 0 0
4.2198 11.0262 -0.0470 -0.311 -0.712 0.630 192 143 122 0 0
4.3097 10.9829 -0.0537 -0.134 -0.640 0.757 195 143 121 0 0
4.3210 10.9601 -0.0569 -0.145 -0.673 0.725 191 139 117 0 0
4.6060 10.8151 -0.0792 -0.272 -0.641 0.718 183 127 107 0 0
4.9475 10.6462 -0.1054 -0.070 -0.687 0.724 170 132 113 0 0
5.0553 10.5513 -0.1191 -0.356 -0.656 0.666 196 142 121 0 0
5.0722 10.5405 -0.1208 -0.356 -0.656 0.666 195 144 122 0 0
5.1143 10.5335 -0.1221 -0.209 -0.662 0.720 193 141 119 0 0
5.1759 10.5199 -0.1246 0.074 -0.757 0.649 192 140 118 0 0
5.8745 10.1226 -0.1850 -0.066 -0.690 0.720 190 138 116 0 0
6.0307 10.0315 -0.1988 -0.283 -0.541 0.792 192 140 118 0 0
6.0466 10.0194 -0.2006 -0.266 -0.605 0.751 187 136 115 0 0
6.0660 10.0122 -0.2017 -0.309 -0.583 0.751 196 147 128 0 0
6.0816 9.9996 -0.2036 -0.217 -0.627 0.748 196 147 130 0 0
6.0876 9.9729 -0.2072 0.074 -0.774 0.629 188 139 122 0 0
6.1071 9.9661 -0.2083 -0.033 -0.853 0.521 198 150 131 0 0
6.1282 9.9614 -0.2091 -0.089 -0.786 0.612 202 153 136 0 0
6.5249 9.9977 -0.2086 -0.239 -0.903 -0.357 166 118 95 0 0
6.5300 9.9703 -0.2123 -0.397 -0.912 0.103 190 143 122 0 0
6.5458 9.9575 -0.2142 -0.725 -0.636 0.263 186 140 117 0 0
7.2485 10.2702 -0.1802 0.374 -0.770 -0.517 252 252 250 0 0
6.4944 8.1405 -0.4552 -0.797 -0.105 0.595 230 209 185 0 0
6.4952 8.1149 -0.4586 -0.797 -0.105 0.595 227 207 182 0 0
6.5004 7.9119 -0.4857 -0.586 -0.553 0.592 227 207 180 0 0
6.5096 7.8964 -0.4878 -0.581 -0.445 0.682 224 205 174 0 0
6.6097 7.5557 -0.5342 -0.436 -0.609 0.663 227 210 186 0 0
6.8674 7.2518 -0.5774 -0.104 -0.980 0.170 216 199 171 0 0
6.9103 7.2478 -0.5784 -0.189 -0.966 -0.175 222 202 175 0 0
7.0648 7.1470 -0.5935 -0.372 -0.889 0.267 218 202 176 0 0
7.1288 7.1400 -0.5951 -0.504 -0.859 0.093 222 206 180 0 0
7.1318 7.1206 -0.5977 -0.394 -0.899 0.191 220 204 178 0 0
3.6603 11.2871 -0.0263 -0.415 -0.636 0.651 194 145 125 0 0
4.1930 11.0196 -0.0677 -0.041 -0.896 0.442 201 150 128 0 0
4.2115 11.0120 -0.0689 -0.295 -0.826 0.481 198 147 125 0 0
4.2421 10.9835 -0.0730 -0.465 -0.642 0.609 186 135 114 0 0
4.7646 10.6899 -0.1177 -0.191 -0.701 0.687 194 146 126 0 0
4.9790 10.5819 -0.1344 -0.200 -0.679 0.706 185 134 114 0 0
5.0148 10.5640 -0.1371 -0.459 -0.578 0.675 158 106 87 0 0
5.0277 10.5460 -0.1396 -0.539 -0.488 0.687 182 132 112 0 0
5.0621 10.5255 -0.1427 -0.267 -0.670 0.693 179 128 111 0 0
5.0807 10.5177 -0.1440 -0.182 -0.721 0.668 190 139 119 0 0
5.1011 10.5132 -0.1448 -0.037 -0.765 0.643 188 136 115 0 0
5.1449 10.5093 -0.1458 -0.090 -0.776 0.624 195 141 118 0 0
5.1690 10.5110 -0.1459 0.056 -0.792 0.608 189 136 114 0 0
5.8583 10.1008 -0.2079 -0.184 -0.669 0.720 192 137 116 0 0
6.0303 9.9981 -0.2234 -0.349 -0.585 0.732 204 156 136 0 0
6.0485 9.9893 -0.2247 -0.305 -0.631 0.714 200 152 132 0 0
6.0721 9.9531 -0.2298 0.074 -0.774 0.629 183 134 117 0 0
6.0890 9.9425 -0.2314 -0.379 -0.859 0.344 192 142 125 0 0
6.2910 9.9171 -0.2370 -0.148 -0.981 0.124 176 125 105 0 0
6.3208 9.9244 -0.2364 -0.518 -0.842 0.149 166 115 96 0 0
7.2506 10.2755 -0.2010 0.280 -0.764 -0.581 253 253 251 0 0
6.4893 7.9015 -0.5046 -0.592 -0.545 0.594 220 199 172 0 0
6.8571 7.2433 -0.5955 -0.390 -0.771 0.504 221 204 176 0 0
6.8917 7.2087 -0.6004 -0.538 -0.760 0.363 218 198 171 0 0
6.9054 7.1993 -0.6018 -0.583 -0.691 0.428 218 198 171 0 0
7.0399 7.1476 -0.6102 -0.568 -0.788 0.238 215 199 170 0 0
7.1318 7.1222 -0.6146 -0.629 -0.651 0.426 217 201 175 0 0
8.4112 7.5141 -0.5778 0.420 -0.714 0.560 253 253 253 0 0
3.2729 11.6619 0.0073 0.115 -0.985 -0.126 190 158 150 0 0
4.2491 10.9552 -0.0968 -0.313 -0.638 0.703 186 135 114 0 0
4.2617 10.9353 -0.0996 -0.362 -0.557 0.748 198 147 126 0 0
4.6429 10.7188 -0.1325 -0.314 -0.584 0.749 188 137 117 0 0
4.7511 10.6676 -0.1405 -0.138 -0.648 0.749 199 151 131 0 0
4.8958 10.5997 -0.1511 -0.199 -0.630 0.751 178 128 109 0 0
5.3977 10.3104 -0.1950 -0.099 -0.619 0.779 189 136 115 0 0
5.8247 10.0888 -0.2292 -0.202 -0.623 0.755 183 128 106 0 0
5.8401 10.0758 -0.2310 -0.267 -0.621 0.737 168 113 90 0 0
5.8585 10.0676 -0.2323 -0.222 -0.620 0.753 166 112 90 0 0
6.6007 9.9007 -0.2632 -0.152 -0.815 0.559 167 119 100 0 0
6.6288 9.9046 -0.2631 -0.010 -0.926 0.378 142 95 75 0 0
7.2655 10.2972 -0.2198 0.410 -0.817 -0.406 252 252 250 0 0
6.4698 7.8817 -0.5246 -0.584 -0.539 0.607 228 207 178 0 0
6.4984 7.7360 -0.5440 -0.807 -0.439 0.395 227 207 180 0 0
6.7314 7.3281 -0.6000 -0.399 -0.809 0.432 223 206 180 0 0
3.2738 11.6689 -0.0121 -0.209 -0.978 0.001 152 108 96 0 0
3.8139 11.1506 -0.0860 -0.392 -0.580 0.715 204 154 132 0 0
4.0083 11.0041 -0.1074 -0.471 -0.728 0.498 190 139 117 0 0
4.0481 10.9964 -0.1090 -0.212 -0.683 0.699 192 141 120 0 0
4.3908 10.8406 -0.1335 -0.344 -0.603 0.720 188 137 117 0 0
4.4455 10.8167 -0.1373 -0.346 -0.718 0.603 188 139 118 0 0
5.1911 10.3557 -0.2065 -0.145 -0.671 0.727 200 147 126 0 0
5.2110 10.3504 -0.2075 -0.145 -0.671 0.727 186 131 110 0 0
5.4072 10.2522 -0.2227 -0.284 -0.614 0.737 186 134 112 0 0
5.5022 10.2167 -0.2286 -0.288 -0.699 0.654 181 130 109 0 0
6.3690 9.8934 -0.2816 -0.598 -0.691 0.405 174 124 103 0 0
6.3864 9.8832 -0.2831 -0.434 -0.729 0.530 178 127 107 0 0
6.5732 9.9000 -0.2834 -0.139 -0.839 0.525 172 131 114 0 0
7.2023 10.2527 -0.2462 0.472 -0.782 -0.407 251 251 249 0 0
7.2769 10.3145 -0.2392 0.470 -0.826 -0.312 252 252 250 0 0
6.8980 9.0701 -0.3947 -0.603 0.177 0.778 252 252 250 0 0
6.4824 8.2401 -0.4962 -0.614 -0.000 0.789 229 209 183 0 0
6.4850 7.7232 -0.5629 -0.772 -0.599 0.212 227 207 180 0 0
6.4926 7.6817 -0.5683 -0.875 -0.470 0.118 224 205 175 0 0
6.5021 7.6424 -0.5735 -0.417 -0.779 0.468 224 207 179 0 0
6.6658 7.3804 -0.6094 -0.428 -0.822 0.377 223 205 177 0 0
7.2366 7.0454 -0.6601 -0.379 -0.776 0.504 221 205 180 0 0
7.3175 7.0312 -0.6630 -0.507 -0.754 0.418 218 202 176 0 0
7.3378 7.0277 -0.6637 -0.457 -0.865 0.205 216 200 174 0 0
3.7295 11.1571 -0.1040 -0.046 -0.701 0.711 192 145 125 0 0
3.9827 10.9989 -0.1277 -0.486 -0.667 0.565 217 169 148 0 0
3.9985 10.9860 -0.1296 -0.271 -0.704 0.657 202 153 132 0 0
4.3761 10.8139 -0.1568 -0.405 -0.571 0.714 186 136 117 0 0
5.1769 10.3344 -0.2291 -0.145 -0.671 0.727 191 139 118 0 0
5.2149 10.3206 -0.2313 -0.178 -0.652 0.737 193 137 118 0 0
5.2341 10.3142 -0.2324 -0.178 -0.652 0.737 193 142 124 0 0
5.5276 10.1474 -0.2578 -0.423 -0.619 0.662 179 125 104 0 0
5.5445 10.1370 -0.2593 -0.335 -0.634 0.697 182 130 109 0 0
5.6054 10.0849 -0.2668 -0.241 -0.679 0.693 207 158 140 0 0
5.8622 9.9706 -0.2850 -0.454 -0.504 0.734 188 137 116 0 0
5.8784 9.9591 -0.2867 -0.379 -0.628 0.680 189 138 117 0 0
7.2839 10.3263 -0.2594 0.379 -0.836 -0.397 252 252 250 0 0
6.8791 9.0797 -0.4128 -0.659 0.213 0.721 252 252 250 0 0
6.8491 9.0138 -0.4207 -0.659 0.213 0.721 252 252 250 0 0
6.4157 7.9541 -0.5499 -0.758 -0.438 0.484 222 201 171 0 0
6.4836 7.6491 -0.5897 -0.552 -0.688 0.471 226 207 179 0 0
6.6009 7.4576 -0.6158 -0.432 -0.506 0.746 229 211 181 0 0
6.6475 7.3636 -0.6284 -0.479 -0.716 0.508 222 202 175 0 0
7.3107 7.0268 -0.6806 -0.489 -0.809 0.327 218 203 175 0 0
3.2527 11.4492 -0.0800 -0.402 -0.320 0.858 204 157 137 0 0
3.3050 11.3110 -0.0982 -0.390 -0.528 0.754 195 152 135 0 0
3.3172 11.2885 -0.1013 -0.402 -0.595 0.695 193 150 133 0 0
3.7186 11.1349 -0.1265 -0.046 -0.701 0.711 195 147 127 0 0
3.7388 11.1324 -0.1272 -0.131 -0.652 0.747 196 147 126 0 0
3.7582 11.1278 -0.1280 -0.276 -0.593 0.756 202 153 131 0 0
3.9890 10.9684 -0.1515 -0.353 -0.716 0.603 200 149 128 0 0
4.0083 10.9634 -0.1524 -0.158 -0.656 0.738 207 158 137 0 0
4.0455 10.9501 -0.1547 -0.239 -0.599 0.765 195 149 126 0 0
4.3647 10.7941 -0.1790 -0.405 -0.571 0.714 203 156 137 0 0
4.3559 10.7313 -0.1868 -0.194 -0.871 0.451 205 159 138 0 0
4.4093 10.7060 -0.1908 -0.637 -0.644 0.424 201 154 134 0 0
4.5774 10.6448 -0.2010 -0.234 -0.593 0.771 194 145 126 0 0
4.6078 10.6175 -0.2049 -0.143 -0.627 0.766 181 129 111 0 0
4.6700 10.6085 -0.2069 -0.071 -0.695 0.715 171 122 104 0 0
4.8248 10.5201 -0.2204 -0.272 -0.645 0.714 196 145 126 0 0
4.8418 10.5100 -0.2219 -0.231 -0.665 0.711 189 138 118 0 0
5.1619 10.3115 -0.2517 -0.208 -0.637 0.742 157 105 85 0 0
5.2143 10.2835 -0.2560 -0.143 -0.624 0.768 201 150 133 0 0
5.5703 10.0693 -0.2882 -0.252 -0.630 0.735 191 142 123 0 0
5.5902 10.0639 -0.2892 -0.129 -0.681 0.721 196 148 129 0 0
5.8252 9.9534 -0.3066 -0.487 -0.507 0.711 188 138 117 0 0
5.8476 9.9515 -0.3072 -0.506 -0.558 0.657 194 146 124 0 0
5.8566 9.9292 -0.3101 -0.598 -0.566 0.568 197 149 127 0 0
5.9481 9.8881 -0.3166 -0.184 -0.723 0.666 197 147 130 0 0
5.9679 9.8821 -0.3177 -0.184 -0.723 0.666 205 157 138 0 0
6.0522 9.8648 -0.3211 -0.307 -0.933 0.188 169 118 95 0 0
6.0729 9.8599 -0.3220 -0.548 -0.836 0.029 182 132 109 0 0
6.2693 9.8625 -0.3246 -0.226 -0.896 0.383 182 134 113 0 0
6.3679 9.8628 -0.3260 -0.248 -0.880 0.404 166 118 98 0 0
7.2913 10.3384 -0.2795 0.381 -0.855 -0.351 251 251 249 0 0
6.7530 8.9303 -0.4493 -0.510 -0.045 0.859 252 253 251 0 0
6.8078 8.9666 -0.4456 -0.687 0.231 0.689 252 253 250 0 0
6.4196 7.8573 -0.5798 -0.856 -0.256 0.449 221 200 173 0 0
6.4458 7.7846 -0.5894 -0.730 -0.332 0.597 223 206 178 0 0
6.4513 7.7403 -0.5951 -0.747 -0.500 0.437 225 208 180 0 0
6.4851 7.6526 -0.6066 -0.785 -0.530 0.321 226 206 179 0 0
6.4925 7.6113 -0.6120 -0.768 -0.630 0.112 223 205 177 0 0
6.5002 7.5950 -0.6141 -0.631 -0.775 0.026 228 208 181 0 0
6.6801 7.3049 -0.6534 -0.423 -0.843 0.332 218 199 169 0 0
6.7674 7.2535 -0.6611 -0.594 -0.804 -0.034 215 194 164 0 0
6.7925 7.2325 -0.6642 -0.567 -0.772 0.287 208 187 156 0 0
6.8432 7.1684 -0.6730 -0.608 -0.708 0.360 216 196 163 0 0
3.2782 11.2992 -0.1191 -0.570 -0.487 0.661 158 112 96 0 0
3.8385 11.0201 -0.1626 -0.094 -0.642 0.761 193 144 122 0 0
3.8736 11.0027 -0.1653 -0.148 -0.590 0.794 205 159 138 0 0
4.3560 10.7348 -0.2062 -0.330 -0.815 0.476 205 158 138 0 0
4.4039 10.6985 -0.2115 -0.702 -0.652 0.288 207 162 143 0 0
4.5279 10.6381 -0.2210 -0.258 -0.625 0.737 188 142 125 0 0
4.7310 10.5158 -0.2394 -0.806 -0.284 0.519 181 129 108 0 0
4.8111 10.4979 -0.2429 -0.200 -0.694 0.691 176 125 106 0 0
4.9583 10.4372 -0.2527 -0.358 -0.504 0.786 184 131 109 0 0
5.1456 10.2865 -0.2744 -0.273 -0.619 0.737 178 126 107 0 0
5.1665 10.2832 -0.2752 -0.215 -0.606 0.766 170 119 101 0 0
5.1817 10.2700 -0.2770 -0.205 -0.587 0.783 165 113 97 0 0
5.4203 10.1304 -0.2982 -0.472 -0.518 0.713 191 142 122 0 0
5.8386 9.9407 -0.3283 -0.315 -0.617 0.721 196 149 128 0 0
5.8850 9.9032 -0.3337 -0.494 -0.633 0.596 193 142 121 0 0
5.9035 9.8954 -0.3350 -0.654 -0.406 0.638 189 139 118 0 0
5.9188 9.8827 -0.3368 -0.411 -0.721 0.558 208 159 140 0 0
5.9329 9.8685 -0.3388 -0.215 -0.910 0.355 183 134 117 0 0
5.9533 9.8633 -0.3398 -0.215 -0.910 0.355 205 159 140 0 0
6.0144 9.8475 -0.3427 -0.057 -0.896 0.440 156 107 84 0 0
6.0679 9.8552 -0.3425 -0.559 -0.817 -0.142 169 118 96 0 0
6.4597 8.6086 -0.5042 0.519 -0.854 -0.001 252 252 250 0 0
6.7230 8.8966 -0.4723 -0.509 -0.007 0.861 252 252 251 0 0
6.7559 8.9065 -0.4716 -0.636 0.192 0.747 252 252 251 0 0
6.7275 8.8433 -0.4791 -0.641 0.202 0.741 252 253 248 0 0
6.4269 8.2359 -0.5502 -0.855 -0.216 0.471 224 204 177 0 0
6.4098 7.8996 -0.5920 -0.863 -0.328 0.385 224 204 174 0 0
6.4156 7.8804 -0.5945 -0.924 -0.381 0.026 228 208 180 0 0
6.4406 7.7304 -0.6136 -0.833 -0.419 0.361 227 210 183 0 0
6.4556 7.7218 -0.6149 -0.775 -0.596 0.211 223 203 176 0 0
6.4813 7.6256 -0.6273 -0.302 -0.741 0.600 223 203 176 0 0
6.5294 7.4823 -0.6459 -0.594 -0.498 0.631 223 204 177 0 0
6.6649 7.3146 -0.6689 -0.666 -0.685 0.295 219 200 170 0 0
6.7081 7.3116 -0.6700 -0.622 -0.719 0.312 215 196 166 0 0
6.7468 7.2579 -0.6773 -0.333 -0.912 0.238 214 197 168 0 0
6.8058 7.2017 -0.6852 -0.630 -0.737 0.246 213 194 164 0 0
6.8161 7.1890 -0.6870 -0.430 -0.866 0.256 215 196 166 0 0
7.2761 6.9988 -0.7178 -0.342 -0.810 0.476 214 198 171 0 0
3.6167 11.1015 -0.1688 -0.341 -0.532 0.775 190 140 116 0 0
4.0983 10.8369 -0.2093 -0.199 -0.659 0.726 195 146 124 0 0
4.1167 10.8301 -0.2104 -0.199 -0.659 0.726 192 144 122 0 0
4.3936 10.6809 -0.2333 -0.328 -0.669 0.667 210 166 148 0 0
4.4757 10.6256 -0.2415 -0.209 -0.692 0.691 196 153 137 0 0
4.4931 10.6163 -0.2429 -0.349 -0.633 0.691 210 164 148 0 0
4.5096 10.6055 -0.2446 -0.349 -0.633 0.691 210 164 148 0 0
5.2346 10.2073 -0.3055 -0.148 -0.730 0.667 194 139 119 0 0
5.2546 10.2024 -0.3064 -0.148 -0.730 0.667 192 141 120 0 0
5.6196 10.0054 -0.3367 -0.298 -0.624 0.722 191 150 131 0 0
5.8507 9.8903 -0.3547 -0.381 -0.690 0.615 184 134 114 0 0
6.4531 8.5744 -0.5270 0.576 -0.815 -0.060 252 251 250 0 0
6.6920 8.8031 -0.5026 -0.685 0.241 0.687 251 252 247 0 0
6.6313 8.6730 -0.5177 -0.687 0.247 0.684 229 217 202 0 0
6.6007 8.6082 -0.5252 -0.664 0.240 0.708 229 210 190 0 0
6.4129 8.2217 -0.5698 -0.778 -0.191 0.598 227 207 180 0 0
6.6183 7.3624 -0.6793 -0.529 -0.622 0.577 221 202 170 0 0
6.6264 7.3472 -0.6813 -0.582 -0.643 0.499 220 201 170 0 0
6.7379 7.2508 -0.6950 -0.460 -0.833 0.309 218 200 171 0 0
2.9040 11.5862 -0.1172 0.264 -0.963 -0.055 244 245 240 0 0
3.2767 11.2488 -0.1648 -0.411 -0.645 0.644 196 149 132 0 0
3.2904 11.2306 -0.1672 -0.408 -0.599 0.689 206 159 143 0 0
3.6041 11.0749 -0.1916 -0.335 -0.514 0.790 183 133 110 0 0
3.6207 11.0641 -0.1932 -0.156 -0.603 0.782 186 136 113 0 0
4.0692 10.8242 -0.2301 -0.292 -0.602 0.743 198 150 129 0 0
4.0878 10.8179 -0.2312 -0.238 -0.674 0.700 197 150 129 0 0
4.1042 10.8067 -0.2329 -0.230 -0.733 0.640 183 135 114 0 0
4.1154 10.7845 -0.2358 -0.411 -0.577 0.706 184 133 112 0 0
4.3676 10.6761 -0.2533 -0.323 -0.672 0.666 197 149 130 0 0
4.3828 10.6627 -0.2552 -0.433 -0.600 0.673 200 153 136 0 0
4.9874 10.3339 -0.3056 -0.311 -0.549 0.776 194 137 115 0 0
5.0034 10.3221 -0.3074 -0.220 -0.603 0.767 185 130 107 0 0
5.2412 10.1829 -0.3284 -0.148 -0.710 0.689 194 143 122 0 0
5.2599 10.1758 -0.3296 -0.049 -0.791 0.610 170 119 98 0 0
5.3861 10.0806 -0.3434 -0.368 -0.518 0.772 195 144 123 0 0
5.5060 10.0129 -0.3537 0.086 -0.824 0.560 194 148 129 0 0
5.5961 9.9716 -0.3603 -0.270 -0.664 0.697 192 149 131 0 0
6.3366 9.8271 -0.3905 -0.125 -0.840 0.527 188 144 127 0 0
6.7028 9.9853 -0.3774 0.283 -0.954 -0.097 146 103 86 0 0
7.3261 10.4613 -0.3299 0.658 -0.688 -0.305 250 250 248 0 0
6.5634 8.6515 -0.5380 0.418 -0.894 0.163 251 249 244 0 0
6.6042 8.6717 -0.5362 0.296 -0.896 0.330 234 226 213 0 0
6.6347 8.6793 -0.5358 0.039 -0.767 0.641 226 210 188 0 0
6.4047 8.2143 -0.5887 -0.992 0.058 0.108 225 205 178 0 0
6.3764 8.1277 -0.5988 -0.952 0.072 0.298 225 205 178 0 0
6.3739 8.0982 -0.6023 -0.962 0.109 0.252 220 200 172 0 0
6.5838 7.3758 -0.6941 -0.606 -0.581 0.544 201 180 149 0 0
6.6547 7.3078 -0.7036 -0.565 -0.732 0.382 220 202 172 0 0
6.7400 7.2087 -0.7172 -0.634 -0.648 0.423 206 187 156 0 0
6.7593 7.2050 -0.7180 -0.747 -0.630 0.210 206 187 155 0 0
2.9271 11.6592 -0.1287 -0.032 -0.777 0.629 245 244 240 0 0
3.0881 11.4128 -0.1613 -0.363 -0.278 0.889 197 149 129 0 0
4.0744 10.7925 -0.2538 -0.292 -0.602 0.743 183 136 116 0 0
4.0915 10.7830 -0.2552 -0.165 -0.699 0.696 159 111 90 0 0
4.1051 10.7660 -0.2575 -0.425 -0.517 0.743 188 137 115 0 0
4.3313 10.6502 -0.2755 -0.353 -0.505 0.788 194 144 123 0 0
4.4129 10.5947 -0.2837 -0.197 -0.664 0.721 197 149 130 0 0
4.8749 10.3371 -0.3230 -0.317 -0.663 0.678 194 143 122 0 0
4.9737 10.3128 -0.3277 -0.281 -0.621 0.732 175 121 100 0 0
5.3192 10.1246 -0.3566 -0.322 -0.638 0.699 199 147 126 0 0
5.4541 10.0068 -0.3733 -0.095 -0.639 0.763 196 144 122 0 0
5.4733 10.0007 -0.3743 -0.245 -0.588 0.771 187 137 115 0 0
5.4906 9.9914 -0.3758 -0.174 -0.614 0.770 194 146 125 0 0
6.3317 9.8229 -0.4111 0.150 -0.905 0.399 156 113 96 0 0
6.3668 9.8374 -0.4100 0.246 -0.953 0.179 146 102 85 0 0
6.6616 9.9665 -0.3996 0.227 -0.972 0.064 157 114 97 0 0
6.7009 9.9853 -0.3981 0.299 -0.946 0.122 144 102 85 0 0
6.6986 8.9032 -0.5287 -0.906 0.376 0.192 251 251 249 0 0
6.5251 8.6365 -0.5578 0.501 -0.854 -0.137 251 253 247 0 0
6.5690 8.6604 -0.5557 0.462 -0.885 -0.052 246 242 235 0 0
6.3597 8.0046 -0.6312 -0.859 -0.148 0.491 223 200 172 0 0
6.4070 7.7244 -0.6659 -0.657 -0.540 0.526 219 199 172 0 0
6.5498 7.4610 -0.7002 -0.587 -0.697 0.412 219 199 169 0 0
6.7391 7.2095 -0.7340 -0.582 -0.786 0.209 216 197 168 0 0
6.7559 7.2033 -0.7350 -0.747 -0.630 0.210 215 196 166 0 0
6.9207 7.0925 -0.7514 -0.439 -0.841 0.316 208 191 161 0 0
7.2138 6.9908 -0.7689 -0.616 -0.714 0.334 211 194 168 0 0
7.2693 6.9758 -0.7717 -0.222 -0.933 0.282 213 197 167 0 0
7.3366 6.9497 -0.7760 -0.650 -0.709 0.273 204 187 157 0 0
7.3782 6.9436 -0.7775 -0.231 -0.917 -0.324 208 192 164 0 0
2.8037 11.6003 -0.1534 -0.503 -0.811 0.299 246 243 243 0 0
2.9975 11.5687 -0.1608 -0.428 -0.643 0.636 192 159 149 0 0
3.0952 11.2664 -0.1987 0.223 -0.897 0.382 190 143 124 0 0
3.1360 11.2662 -0.1995 0.086 -0.818 0.569 182 134 114 0 0
4.2222 10.6525 -0.2930 -0.271 -0.539 0.798 188 137 115 0 0
4.3644 10.5884 -0.3032 -0.176 -0.651 0.738 191 142 121 0 0
4.3793 10.5744 -0.3052 -0.158 -0.665 0.730 203 152 131 0 0
4.3980 10.5682 -0.3063 -0.178 -0.634 0.753 194 142 124 0 0
4.4136 10.5558 -0.3081 -0.313 -0.544 0.779 168 119 101 0 0
5.4568 9.9771 -0.3966 -0.188 -0.649 0.737 209 159 137 0 0
6.2138 9.7975 -0.4321 -0.087 -0.929 0.359 183 135 113 0 0
6.2376 9.7968 -0.4326 -0.153 -0.986 0.074 193 145 125 0 0
6.3996 7.7181 -0.6839 -0.662 -0.558 0.501 217 198 169 0 0
6.4055 7.6996 -0.6862 -0.664 -0.651 0.369 219 199 171 0 0
7.0819 7.0245 -0.7794 -0.521 -0.846 0.110 203 187 157 0 0
7.3565 6.9474 -0.7937 -0.599 -0.783 -0.169 211 194 164 0 0
8.3348 7.3292 -0.7663 0.463 -0.798 0.386 253 253 253 0 0
2.9631 11.5333 -0.1842 -0.046 -0.829 0.557 149 118 108 0 0
3.0053 11.5365 -0.1846 -0.451 -0.707 0.545 191 145 129 0 0
3.0211 11.5230 -0.1865 -0.549 -0.664 0.507 205 157 138 0 0
3.0627 11.2936 -0.2144 -0.511 -0.545 0.664 183 134 117 0 0
3.0772 11.2772 -0.2166 -0.599 -0.576 0.556 183 136 118 0 0
3.0958 11.2724 -0.2176 -0.498 -0.853 -0.154 187 139 121 0 0
3.1131 11.2639 -0.2189 -0.228 -0.947 -0.227 197 148 131 0 0
3.1249 11.2402 -0.2219 -0.865 -0.471 0.175 190 141 123 0 0
3.2566 11.1541 -0.2346 -0.642 -0.377 0.668 203 155 135 0 0
3.8794 10.7933 -0.2893 -0.102 -0.707 0.700 193 145 123 0 0
3.9182 10.7852 -0.2910 -0.273 -0.627 0.729 194 144 121 0 0
6.3019 9.8208 -0.4511 0.321 -0.930 -0.179 131 86 68 0 0
6.6792 8.8842 -0.5690 -0.854 0.325 0.406 250 251 248 0 0
6.3418 8.0143 -0.6651 -0.737 -0.225 0.637 219 196 165 0 0
6.3801 7.7236 -0.7002 -0.636 -0.593 0.494 219 200 170 0 0
6.4589 7.5863 -0.7179 -0.704 -0.663 0.255 220 201 171 0 0
7.1030 6.9800 -0.8020 -0.430 -0.903 0.011 208 193 164 0 0
7.2529 6.9643 -0.8068 -0.267 -0.951 0.156 208 191 161 0 0
7.3875 6.9334 -0.8130 -0.205 -0.979 0.002 212 196 169 0 0
8.1926 7.2340 -0.7931 0.442 -0.804 0.398 249 246 240 0 0
8.2868 7.2907 -0.7883 0.463 -0.798 0.386 254 253 253 0 0
2.7490 11.6285 -0.1886 -0.673 -0.700 0.240 245 244 240 0 0
2.8107 11.5694 -0.1967 -0.404 -0.820 0.407 246 244 241 0 0
2.8492 11.5631 -0.1983 -0.117 -0.853 0.509 219 210 203 0 0
2.9376 11.5230 -0.2047 -0.114 -0.612 0.783 164 126 112 0 0
2.9564 11.5182 -0.2056 -0.114 -0.612 0.783 178 135 119 0 0
2.9792 11.5251 -0.2053 -0.283 -0.583 0.762 196 150 133 0 0
2.9962 11.5149 -0.2068 -0.283 -0.583 0.762 202 155 136 0 0
3.0133 11.5052 -0.2083 -0.438 -0.573 0.693 200 152 131 0 0
3.0986 11.2283 -0.2424 -0.569 -0.621 0.539 199 150 133 0 0
3.1397 11.1738 -0.2495 -0.564 -0.552 0.614 201 153 133 0 0
3.2482 11.1361 -0.2561 -0.483 -0.593 0.644 199 151 131 0 0
3.2631 11.1214 -0.2581 -0.415 -0.676 0.609 198 151 131 0 0
3.8183 10.8021 -0.3066 -0.243 -0.587 0.772 185 134 113 0 0
3.8675 10.7702 -0.3113 -0.076 -0.693 0.717 188 138 116 0 0
4.5314 10.4502 -0.3621 -0.384 -0.592 0.708 184 133 112 0 0
4.5764 10.3686 -0.3725 -0.118 -0.911 0.394 172 123 106 0 0
4.5974 10.3666 -0.3731 -0.051 -0.942 0.332 185 136 119 0 0
4.6152 10.3588 -0.3744 -0.316 -0.685 0.656 179 131 113 0 0
4.6335 10.3518 -0.3756 -0.493 -0.553 0.672 191 143 125 0 0
4.6486 10.3389 -0.3774 -0.484 -0.554 0.677 196 148 128 0 0
5.0043 10.1778 -0.4034 -0.090 -0.640 0.763 197 145 123 0 0
5.0011 10.1333 -0.4085 -0.315 -0.567 0.761 199 146 125 0 0
5.1505 10.0804 -0.4177 -0.253 -0.733 0.632 185 133 112 0 0
5.7507 9.7546 -0.4678 -0.111 -0.904 0.413 177 126 104 0 0
5.7701 9.7486 -0.4689 -0.037 -0.903 0.428 170 118 96 0 0
7.3540 10.5082 -0.4122 0.604 -0.747 -0.278 249 249 247 0 0
6.7223 8.9681 -0.5792 -0.725 0.258 0.638 251 251 251 0 0
6.3347 7.9819 -0.6865 -0.736 -0.219 0.640 219 197 165 0 0
6.3609 7.8819 -0.6987 -0.908 -0.400 -0.125 219 199 172 0 0
6.3517 7.7949 -0.7086 -0.638 -0.611 0.469 221 202 172 0 0
6.3970 7.6196 -0.7300 -0.263 -0.838 0.478 221 201 174 0 0
6.4513 7.5799 -0.7357 -0.779 -0.513 0.360 220 202 172 0 0
6.5957 7.3715 -0.7630 -0.790 -0.613 0.010 219 200 170 0 0
6.9332 7.0650 -0.8056 -0.342 -0.940 0.019 212 195 165 0 0
8.2491 7.2609 -0.8092 0.468 -0.791 0.395 255 252 249 0 0
2.7105 11.6396 -0.2063 -0.430 -0.658 0.618 245 244 242 0 0
2.8421 11.5464 -0.2198 -0.063 -0.648 0.759 167 141 128 0 0
3.1171 11.1721 -0.2688 -0.607 -0.499 0.618 179 131 111 0 0
3.1310 11.1547 -0.2711 -0.506 -0.538 0.675 183 135 115 0 0
3.1429 11.1319 -0.2739 -0.742 -0.492 0.455 189 141 121 0 0
3.4524 10.9780 -0.2982 0.207 -0.794 0.571 193 141 120 0 0
3.5039 10.9520 -0.3022 -0.495 -0.426 0.757 180 128 107 0 0
3.5451 10.9008 -0.3090 0.032 -0.779 0.626 195 144 123 0 0
3.5945 10.9195 -0.3079 -0.119 -0.653 0.748 194 140 120 0 0
3.8055 10.7769 -0.3288 -0.237 -0.606 0.759 181 129 108 0 0
3.9873 10.7106 -0.3402 -0.343 -0.644 0.684 185 133 112 0 0
4.0957 10.6230 -0.3526 -0.179 -0.642 0.746 185 130 109 0 0
4.5927 10.3610 -0.3932 0.031 -0.999 0.033 194 143 124 0 0
4.6105 10.3531 -0.3945 -0.392 -0.826 0.404 193 143 125 0 0
4.6292 10.3469 -0.3956 -0.744 -0.584 0.324 195 146 128 0 0
4.6419 10.3294 -0.3979 -0.744 -0.584 0.324 184 135 117 0 0
5.2354 9.9980 -0.4486 -0.460 -0.558 0.691 186 130 109 0 0
5.7220 9.7492 -0.4874 -0.111 -0.904 0.413 171 121 99 0 0
6.3201 9.8512 -0.4882 0.088 -0.932 -0.351 149 102 86 0 0
6.3507 9.8596 -0.4879 0.223 -0.933 -0.281 148 101 85 0 0
7.3639 10.5238 -0.4325 0.604 -0.747 -0.278 249 249 246 0 0
6.7062 8.9806 -0.5967 -0.808 0.304 0.505 250 251 248 0 0
6.7355 8.9864 -0.5967 -0.767 0.363 0.530 251 251 250 0 0
6.4470 7.5528 -0.7560 -0.702 -0.630 0.331 222 205 177 0 0
6.5227 7.4161 -0.7733 -0.619 -0.751 0.228 218 199 168 0 0
6.5328 7.3792 -0.7778 -0.440 -0.897 0.025 212 193 162 0 0
6.7478 7.1341 -0.8106 -0.640 -0.702 0.313 220 201 171 0 0
6.9293 7.0628 -0.8226 -0.339 -0.922 0.185 208 189 157 0 0
7.0972 6.9778 -0.8359 -0.613 -0.790 0.017 203 188 158 0 0
2.8155 11.5323 -0.2406 -0.264 -0.596 0.759 218 202 190 0 0
2.9603 11.1901 -0.2828 -0.127 -0.632 0.765 192 141 123 0 0
3.1437 11.1380 -0.2927 -0.825 -0.374 0.424 180 133 113 0 0
3.1545 11.1124 -0.2958 -0.776 -0.453 0.438 196 149 127 0 0
3.1629 11.0806 -0.2996 -0.430 -0.637 0.640 199 153 131 0 0
3.4912 10.9248 -0.3245 -0.473 -0.564 0.677 186 134 112 0 0
3.5049 10.9076 -0.3268 -0.525 -0.538 0.660 179 128 107 0 0
3.5189 10.8912 -0.3290 -0.623 -0.509 0.595 191 140 119 0 0
3.5854 10.9016 -0.3292 -0.250 -0.565 0.786 201 145 125 0 0
3.6563 10.8228 -0.3398 -0.223 -0.628 0.746 188 137 116 0 0
3.9762 10.6900 -0.3618 -0.497 -0.580 0.645 181 128 106 0 0
4.5384 10.3442 -0.4135 0.142 -0.977 0.162 188 137 118 0 0
4.5594 10.3425 -0.4141 0.065 -0.952 0.301 188 137 118 0 0
4.5858 10.3512 -0.4137 0.099 -0.973 0.209 192 141 121 0 0
4.6039 10.3437 -0.4149 -0.356 -0.804 0.476 187 136 116 0 0
5.4254 9.8293 -0.4914 -0.273 -0.608 0.746 189 137 115 0 0
5.4645 9.8186 -0.4935 -0.285 -0.693 0.662 186 134 113 0 0
5.9236 9.7366 -0.5128 -0.386 -0.836 0.390 165 113 91 0 0
6.0637 9.7322 -0.5164 0.090 -0.947 0.309 182 134 112 0 0
6.7943 10.0891 -0.4916 0.453 -0.888 0.078 152 109 92 0 0
7.3738 10.5394 -0.4528 0.604 -0.747 -0.278 249 250 245 0 0
6.7006 8.9463 -0.6198 -0.767 0.363 0.530 251 250 248 0 0
6.4460 7.5534 -0.7731 -0.579 -0.675 0.457 221 204 176 0 0
6.4601 7.5199 -0.7772 -0.683 -0.700 0.209 219 200 170 0 0
6.5189 7.3902 -0.7933 -0.433 -0.882 0.184 211 192 162 0 0
6.5329 7.3810 -0.7946 -0.544 -0.825 -0.150 217 198 168 0 0
6.5653 7.3910 -0.7942 -0.362 -0.930 0.070 216 197 167 0 0
6.5821 7.3143 -0.8033 -0.576 -0.799 -0.171 217 196 166 0 0
6.6018 7.3111 -0.8041 -0.575 -0.756 -0.311 219 198 167 0 0
6.6017 7.2877 -0.8067 -0.723 -0.686 -0.083 213 192 161 0 0
6.8940 7.0754 -0.8373 -0.521 -0.835 0.174 204 185 152 0 0
8.2614 7.2522 -0.8468 0.498 -0.793 0.351 254 252 246 0 0
2.6503 11.6499 -0.2434 -0.947 -0.137 0.292 245 244 241 0 0
2.9382 11.1885 -0.3018 -0.296 -0.664 0.687 178 126 104 0 0
3.1546 11.0625 -0.3209 -0.314 -0.671 0.672 192 144 122 0 0
3.3135 10.9986 -0.3316 -0.519 -0.471 0.713 188 138 118 0 0
3.3725 10.9405 -0.3395 -0.348 -0.580 0.737 209 160 138 0 0
3.4643 10.9132 -0.3447 -0.493 -0.591 0.639 181 128 105 0 0
3.6275 10.8077 -0.3602 -0.177 -0.622 0.763 176 123 101 0 0
3.7618 10.7324 -0.3717 -0.345 -0.556 0.756 183 129 109 0 0
3.7816 10.7298 -0.3725 -0.285 -0.605 0.743 191 137 117 0 0
3.8653 10.6821 -0.3797 -0.038 -0.973 0.226 184 132 111 0 0
3.8859 10.6810 -0.3803 0.034 -0.925 0.379 186 132 111 0 0
4.4259 10.3822 -0.4261 -0.311 -0.579 0.753 186 136 116 0 0
4.5775 10.3386 -0.4344 -0.113 -0.766 0.633 180 128 109 0 0
4.6402 10.2915 -0.4412 -0.620 -0.494 0.609 187 136 118 0 0
5.0938 10.0315 -0.4807 -0.003 -0.801 0.599 184 130 108 0 0
5.1893 9.9650 -0.4903 -0.297 -0.568 0.768 175 120 97 0 0
5.2066 9.9562 -0.4917 -0.378 -0.571 0.729 179 122 99 0 0
5.2217 9.9439 -0.4934 -0.378 -0.571 0.729 190 132 108 0 0
5.9139 9.7252 -0.5336 -0.488 -0.843 0.227 171 120 97 0 0
5.9358 9.7225 -0.5344 -0.133 -0.877 0.463 176 126 103 0 0
5.9882 9.7294 -0.5348 -0.264 -0.842 0.470 181 133 111 0 0
6.4065 7.6107 -0.7829 -0.738 -0.610 0.289 216 199 171 0 0
6.4193 7.5755 -0.7871 -0.507 -0.862 0.005 221 204 176 0 0
6.4297 7.5622 -0.7889 -0.503 -0.819 0.277 216 199 170 0 0
6.6069 7.2715 -0.8256 -0.442 -0.857 0.263 214 194 163 0 0
6.7266 7.1392 -0.8432 -0.704 -0.670 -0.235 215 198 170 0 0
6.9712 7.0174 -0.8624 -0.392 -0.905 0.164 198 178 144 0 0
2.6273 11.7101 -0.2559 -0.455 -0.287 0.843 244 244 242 0 0
2.6098 11.5900 -0.2688 -0.113 -0.570 0.814 245 244 241 0 0
2.8050 11.3297 -0.3024 -0.482 -0.219 0.848 189 140 118 0 0
2.8454 11.2720 -0.3097 -0.499 -0.307 0.810 195 143 122 0 0
2.9269 11.1609 -0.3240 -0.320 -0.624 0.713 160 108 87 0 0
3.3783 10.9076 -0.3627 -0.348 -0.580 0.737 162 112 89 0 0
3.4355 10.8968 -0.3652 -0.289 -0.685 0.669 170 117 95 0 0
3.5277 10.8203 -0.3759 -0.448 -0.555 0.701 162 104 82 0 0
3.7201 10.7362 -0.3897 -0.089 -0.700 0.708 195 149 126 0 0
3.8760 10.6627 -0.4015 -0.080 -0.734 0.675 156 96 76 0 0
4.5664 10.2384 -0.4648 -0.171 -0.681 0.712 182 133 112 0 0
4.8254 10.1498 -0.4807 -0.213 -0.764 0.610 190 136 119 0 0
4.9454 10.0486 -0.4948 -0.310 -0.626 0.715 192 139 120 0 0
4.9624 10.0395 -0.4962 -0.340 -0.735 0.587 190 137 117 0 0
4.9791 10.0298 -0.4976 -0.536 -0.586 0.607 190 138 117 0 0
5.0314 10.0047 -0.5017 -0.042 -0.792 0.609 179 127 105 0 0
5.1746 9.9436 -0.5118 -0.297 -0.568 0.768 183 129 105 0 0
5.1902 9.9321 -0.5134 -0.384 -0.569 0.727 191 135 112 0 0
5.2060 9.9209 -0.5150 -0.408 -0.590 0.697 180 123 100 0 0
5.2202 9.9070 -0.5169 -0.567 -0.497 0.656 188 132 110 0 0
5.2421 9.9058 -0.5176 -0.707 -0.502 0.499 195 138 117 0 0
5.6198 9.6734 -0.5522 -0.387 -0.655 0.649 173 122 101 0 0
6.6830 8.9592 -0.6565 -0.787 0.363 0.500 251 251 246 0 0
6.2958 8.0239 -0.7515 -0.934 -0.162 0.317 217 192 161 0 0
6.4241 7.5580 -0.8064 -0.428 -0.851 0.304 215 198 168 0 0
6.5041 7.4258 -0.8229 -0.835 -0.547 0.058 216 199 171 0 0
6.5408 7.3691 -0.8301 -0.513 -0.858 0.030 210 191 161 0 0
6.7088 7.1688 -0.8563 -0.376 -0.912 0.167 210 192 162 0 0
6.7059 7.1432 -0.8591 -0.553 -0.797 0.243 210 193 164 0 0
6.7174 7.1319 -0.8606 -0.530 -0.818 0.225 217 200 172 0 0
7.0570 6.9893 -0.8844 -0.487 -0.864 0.131 198 179 147 0 0
7.3291 6.9112 -0.8994 -0.283 -0.933 0.224 209 193 164 0 0
2.6612 11.8888 -0.2569 -0.849 -0.018 0.527 244 245 240 0 0
2.8593 11.2007 -0.3373 -0.473 -0.480 0.739 195 147 128 0 0
2.9183 11.1409 -0.3453 -0.320 -0.624 0.713 182 132 110 0 0
3.3342 10.9032 -0.3814 -0.260 -0.621 0.739 184 134 111 0 0
3.3690 10.8883 -0.3839 -0.347 -0.611 0.712 186 136 113 0 0
3.3866 10.8811 -0.3851 -0.252 -0.696 0.672 187 132 111 0 0
3.4910 10.8351 -0.3927 -0.526 -0.586 0.616 160 105 84 0 0
3.5061 10.8218 -0.3945 -0.449 -0.650 0.613 169 113 93 0 0
3.9313 10.5570 -0.4338 -0.286 -0.633 0.720 206 151 131 0 0
4.4367 10.3254 -0.4715 -0.028 -0.727 0.686 186 135 114 0 0
4.4535 10.3160 -0.4729 -0.331 -0.667 0.667 186 135 114 0 0
4.6482 10.1906 -0.4914 -0.317 -0.528 0.787 186 137 122 0 0
4.9136 10.0349 -0.5149 -0.185 -0.629 0.755 192 139 117 0 0
4.9410 10.0053 -0.5188 -0.425 -0.483 0.766 170 115 95 0 0
5.3367 9.8053 -0.5503 -0.493 -0.481 0.725 188 133 112 0 0
5.3378 9.7709 -0.5541 -0.176 -0.804 0.569 192 139 117 0 0
5.5837 9.6913 -0.5688 -0.143 -0.881 0.450 176 126 106 0 0
5.6878 9.7085 -0.5694 0.012 -0.940 0.340 176 124 103 0 0
5.8048 9.7088 -0.5722 -0.243 -0.889 0.388 132 76 55 0 0
6.2945 9.8602 -0.5673 0.355 -0.868 -0.348 142 96 80 0 0
6.2986 7.8985 -0.7831 -0.609 -0.777 0.159 217 198 166 0 0
6.3065 7.8047 -0.7936 -0.703 -0.692 0.166 217 198 168 0 0
6.7613 7.1090 -0.8810 -0.298 -0.943 0.145 194 175 143 0 0
8.4442 7.3425 -0.8958 0.501 -0.814 0.294 252 254 253 0 0
3.3242 10.8820 -0.4027 -0.260 -0.621 0.739 166 116 93 0 0
3.4743 10.7982 -0.4156 -0.310 -0.577 0.756 193 142 121 0 0
3.4904 10.7875 -0.4171 -0.310 -0.577 0.756 187 134 112 0 0
4.2530 10.3478 -0.4838 -0.348 -0.567 0.746 195 141 120 0 0
4.4222 10.3005 -0.4932 -0.017 -0.728 0.685 185 134 113 0 0
4.6338 10.1672 -0.5129 -0.317 -0.528 0.787 187 140 123 0 0
4.7601 10.0784 -0.5257 -0.012 -0.709 0.705 181 130 110 0 0
5.0196 9.9148 -0.5499 -0.686 -0.643 0.340 182 127 107 0 0
5.0347 9.9026 -0.5516 -0.406 -0.790 0.459 178 123 103 0 0
5.0520 9.8944 -0.5529 -0.241 -0.791 0.562 193 140 119 0 0
5.0655 9.8796 -0.5548 0.062 -0.875 0.480 190 138 116 0 0
5.0910 9.8849 -0.5549 -0.191 -0.726 0.661 191 139 116 0 0
5.2783 9.8235 -0.5662 -0.232 -0.677 0.699 189 135 111 0 0
5.3296 9.7606 -0.5743 -0.089 -0.773 0.628 183 131 110 0 0
5.4885 9.7240 -0.5823 -0.401 -0.769 0.497 190 138 116 0 0
5.8111 9.6861 -0.5944 -0.144 -0.912 0.384 175 119 98 0 0
5.8320 9.6824 -0.5953 -0.144 -0.912 0.384 173 117 96 0 0
6.2997 7.9017 -0.8003 -0.686 -0.697 0.209 217 198 168 0 0
6.6896 7.1532 -0.8912 -0.626 -0.706 0.332 213 192 161 0 0
7.1221 6.9436 -0.9247 -0.159 -0.983 0.089 199 182 152 0 0
2.5133 11.6800 -0.3156 -0.180 -0.357 0.917 245 244 242 0 0
2.8306 11.1263 -0.3831 -0.333 -0.530 0.780 192 149 132 0 0
3.9275 10.5101 -0.4773 -0.170 -0.680 0.713 170 116 97 0 0
3.9458 10.5044 -0.4784 -0.170 -0.680 0.713 190 139 121 0 0
3.9616 10.4932 -0.4800 -0.273 -0.659 0.701 186 135 118 0 0
3.9962 10.4772 -0.4826 -0.100 -0.826 0.554 194 145 124 0 0
4.2412 10.3273 -0.5050 -0.348 -0.567 0.746 191 136 115 0 0
4.4131 10.2444 -0.5183 -0.524 -0.621 0.584 188 137 116 0 0
4.4268 10.2292 -0.5202 -0.578 -0.578 0.576 172 120 98 0 0
4.4424 10.2178 -0.5219 -0.562 -0.516 0.646 178 125 103 0 0
4.4552 10.2012 -0.5240 -0.562 -0.516 0.646 179 126 106 0 0
4.7253 10.0582 -0.5462 -0.264 -0.636 0.725 189 138 118 0 0
4.7395 10.0444 -0.5481 -0.106 -0.698 0.708 180 128 107 0 0
4.7592 10.0405 -0.5490 -0.106 -0.698 0.708 185 133 112 0 0
4.9013 9.9809 -0.5590 -0.249 -0.630 0.736 168 114 90 0 0
5.0034 9.8902 -0.5714 -0.245 -0.622 0.744 187 133 112 0 0
5.0209 9.8822 -0.5727 -0.121 -0.672 0.731 188 134 113 0 0
5.0434 9.8828 -0.5732 -0.255 -0.734 0.630 189 136 115 0 0
5.0617 9.8761 -0.5744 -0.233 -0.735 0.636 180 127 105 0 0
5.0794 9.8684 -0.5757 -0.295 -0.688 0.662 186 133 110 0 0
5.2744 9.7475 -0.5936 -0.099 -0.764 0.638 191 139 117 0 0
5.3588 9.7022 -0.6006 0.144 -0.907 0.396 197 147 125 0 0
5.5122 9.6927 -0.6056 -0.480 -0.781 0.399 199 147 124 0 0
5.7831 9.6821 -0.6137 -0.294 -0.927 0.233 148 97 76 0 0
5.8023 9.6757 -0.6148 -0.294 -0.927 0.233 174 124 103 0 0
5.8253 9.6750 -0.6155 -0.212 -0.936 0.280 179 130 108 0 0
5.8497 9.6764 -0.6160 0.000 -0.936 0.351 176 128 108 0 0
6.2963 9.9023 -0.6032 0.336 -0.937 -0.093 145 98 82 0 0
6.2963 7.8998 -0.8179 -0.686 -0.697 0.209 219 200 170 0 0
6.3986 7.5360 -0.8595 -0.646 -0.677 0.352 211 193 161 0 0
6.5253 7.2881 -0.8894 -0.370 -0.929 0.013 216 197 167 0 0
6.6469 7.1807 -0.9040 -0.719 -0.695 0.012 215 196 165 0 0
6.6824 7.1477 -0.9084 -0.557 -0.758 0.339 214 193 162 0 0
6.9128 7.0130 -0.9288 -0.540 -0.806 -0.245 201 182 150 0 0
8.4285 7.3106 -0.9357 0.484 -0.835 0.261 252 253 252 0 0
3.1170 10.9291 -0.4308 -0.674 -0.486 0.556 171 119 96 0 0
3.1294 10.9089 -0.4332 -0.674 -0.486 0.556 177 126 103 0 0
3.2493 10.8541 -0.4422 -0.236 -0.728 0.644 192 142 119 0 0
3.5468 10.6843 -0.4680 -0.408 -0.513 0.755 186 138 116 0 0
3.9170 10.4908 -0.4983 -0.170 -0.680 0.713 187 135 115 0 0
3.9998 10.4436 -0.5055 -0.200 -0.632 0.749 194 143 123 0 0
4.2305 10.3090 -0.5258 -0.429 -0.617 0.660 179 125 102 0 0
4.2593 10.2817 -0.5295 -0.107 -0.734 0.671 180 125 105 0 0
4.2784 10.2772 -0.5305 -0.275 -0.633 0.724 184 128 110 0 0
4.4202 10.2196 -0.5403 -0.566 -0.550 0.614 178 126 105 0 0
5.2629 9.7318 -0.6142 -0.099 -0.764 0.638 171 119 97 0 0
6.2952 9.9034 -0.6233 0.324 -0.946 -0.018 145 98 82 0 0
6.2941 7.8992 -0.8354 -0.811 -0.582 0.055 216 197 167 0 0
6.6305 7.1889 -0.9195 -0.581 -0.811 -0.065 211 190 159 0 0
6.6459 7.1814 -0.9207 -0.719 -0.695 0.012 209 188 157 0 0
6.6575 7.1701 -0.9222 -0.673 -0.740 -0.022 207 186 155 0 0
6.6952 7.1394 -0.9265 -0.545 -0.801 0.248 219 199 170 0 0
6.9108 7.0127 -0.9456 -0.322 -0.922 -0.216 199 180 148 0 0
6.9235 7.0027 -0.9470 -0.417 -0.888 0.192 202 184 154 0 0
2.4431 11.7218 -0.3487 -0.593 -0.129 0.795 245 244 242 0 0
3.1227 10.8950 -0.4536 -0.674 -0.486 0.556 175 123 103 0 0
3.8550 10.4957 -0.5153 -0.480 -0.487 0.730 181 127 106 0 0
4.0432 10.3614 -0.5344 -0.327 -0.704 0.631 196 148 128 0 0
4.0607 10.3541 -0.5357 -0.219 -0.708 0.671 185 136 116 0 0
4.0797 10.3499 -0.5366 -0.104 -0.734 0.672 167 120 99 0 0
4.1216 10.3494 -0.5378 0.027 -0.743 0.669 183 135 114 0 0
5.2262 9.7117 -0.6345 -0.242 -0.616 0.749 198 146 125 0 0
5.2434 9.7033 -0.6358 -0.242 -0.616 0.749 179 127 106 0 0
5.3443 9.6848 -0.6405 -0.101 -0.867 0.488 194 139 115 0 0
5.5616 9.6334 -0.6518 -0.514 -0.842 0.166 169 117 94 0 0
5.5778 9.6232 -0.6533 -0.514 -0.842 0.166 176 124 101 0 0
5.7668 9.6631 -0.6543 -0.130 -0.942 0.309 188 142 121 0 0
5.8298 9.6525 -0.6571 -0.052 -0.894 0.446 160 113 95 0 0
6.2156 9.8629 -0.6456 0.329 -0.891 -0.313 135 89 74 0 0
6.2555 9.8847 -0.6444 0.330 -0.798 -0.504 139 93 78 0 0
6.2900 9.8986 -0.6439 0.330 -0.798 -0.504 147 101 85 0 0
6.2610 7.9412 -0.8477 -0.919 -0.265 0.293 206 184 152 0 0
6.2691 7.9246 -0.8496 -0.846 -0.471 0.249 214 193 162 0 0
6.2852 7.8910 -0.8536 -0.781 -0.603 0.163 220 200 170 0 0
6.4545 7.3591 -0.9138 -0.472 -0.829 0.300 214 198 169 0 0
6.5465 7.2901 -0.9235 -0.429 -0.899 0.088 212 193 161 0 0
6.5620 7.2827 -0.9247 -0.402 -0.915 -0.025 217 198 166 0 0
6.5975 7.2262 -0.9315 -0.624 -0.780 0.059 210 191 159 0 0
6.6302 7.1903 -0.9362 -0.576 -0.808 -0.128 210 190 159 0 0
6.6888 7.1348 -0.9436 -0.538 -0.790 0.293 216 199 169 0 0
6.9004 7.0266 -0.9606 -0.422 -0.857 -0.296 200 181 148 0 0
6.9120 7.0155 -0.9621 -0.341 -0.937 0.076 203 184 152 0 0
6.9569 6.9918 -0.9658 -0.340 -0.924 0.177 202 187 157 0 0
2.4291 11.6797 -0.3724 -0.642 -0.128 0.756 245 244 242 0 0
2.7658 11.0658 -0.4451 -0.136 -0.670 0.730 176 126 106 0 0
3.2301 10.8127 -0.4842 -0.415 -0.600 0.684 173 122 100 0 0
3.9844 10.3734 -0.5506 -0.360 -0.582 0.729 185 138 120 0 0
3.9999 10.3619 -0.5522 -0.365 -0.560 0.744 180 131 114 0 0
4.1890 10.2748 -0.5665 -0.260 -0.722 0.641 184 131 110 0 0
4.2061 10.2666 -0.5679 -0.210 -0.774 0.597 179 127 106 0 0
4.2231 10.2581 -0.5692 -0.127 -0.762 0.635 187 135 115 0 0
5.0926 9.7511 -0.6458 -0.203 -0.773 0.601 192 146 125 0 0
5.4017 9.6357 -0.6664 -0.105 -0.873 -0.477 165 113 91 0 0
6.1872 9.8597 -0.6652 0.312 -0.883 -0.352 139 93 78 0 0
6.2519 7.9067 -0.8685 -0.960 -0.139 0.243 215 192 160 0 0
6.2636 7.7914 -0.8807 -0.429 -0.899 -0.092 220 200 171 0 0
6.2770 7.7811 -0.8822 -0.780 -0.625 0.046 219 198 169 0 0
6.2768 7.7555 -0.8848 -0.799 -0.599 0.045 217 198 168 0 0
6.3673 7.5322 -0.9104 -0.611 -0.766 0.201 212 192 162 0 0
6.3749 7.5160 -0.9123 -0.370 -0.899 0.232 211 192 162 0 0
6.4092 7.5044 -0.9144 -0.513 -0.843 0.162 215 196 165 0 0
6.4938 7.3546 -0.9322 -0.384 -0.819 0.425 214 197 167 0 0
6.5441 7.2662 -0.9428 -0.536 -0.829 0.159 206 186 154 0 0
6.5923 7.2226 -0.9486 -0.287 -0.944 0.161 207 187 154 0 0
6.6081 7.2156 -0.9498 -0.581 -0.810 0.078 209 190 157 0 0
6.6300 7.1917 -0.9528 -0.431 -0.873 -0.226 203 183 151 0 0
7.0394 6.9610 -0.9881 -0.459 -0.876 0.151 199 180 148 0 0
2.9661 10.9107 -0.4857 -0.273 -0.560 0.782 176 125 104 0 0
2.9718 10.8719 -0.4898 -0.232 -0.682 0.694 179 128 107 0 0
3.4120 10.6653 -0.5235 0.019 -0.775 0.632 180 125 104 0 0
3.9737 10.3541 -0.5713 -0.360 -0.582 0.729 183 135 118 0 0
3.9886 10.3416 -0.5731 -0.365 -0.560 0.744 191 142 125 0 0
4.1940 10.2454 -0.5887 -0.071 -0.706 0.705 198 147 127 0 0
4.4663 10.0716 -0.6143 -0.063 -0.704 0.708 202 150 132 0 0
4.5099 10.0729 -0.6154 -0.230 -0.589 0.775 187 134 116 0 0
4.5264 10.0637 -0.6168 -0.326 -0.601 0.730 190 137 119 0 0
4.6277 10.0118 -0.6250 -0.678 -0.475 0.561 189 137 117 0 0
5.1451 9.6942 -0.6722 -0.501 -0.806 0.314 192 142 122 0 0
6.2478 7.9040 -0.8862 -0.960 -0.139 0.243 211 187 155 0 0
6.2635 7.7932 -0.8979 -0.429 -0.899 -0.092 217 196 165 0 0
6.2757 7.7815 -0.8994 -0.780 -0.625 0.046 217 196 165 0 0
6.2863 7.7681 -0.9011 -0.780 -0.625 0.046 212 191 160 0 0
6.3630 7.5293 -0.9276 -0.609 -0.748 0.264 212 192 163 0 0
6.3756 7.5186 -0.9291 -0.609 -0.748 0.264 213 193 166 0 0
6.4034 7.4758 -0.9342 -0.646 -0.760 0.071 209 192 162 0 0
6.4988 7.3380 -0.9510 -0.494 -0.797 0.346 215 198 168 0 0
6.5888 7.2208 -0.9655 -0.287 -0.944 0.161 210 190 157 0 0
6.8459 7.0444 -0.9909 -0.425 -0.867 0.259 204 183 152 0 0
