ply
format ascii 1.0
element vertex 823
property float x
property float y
property float z
property float nx
property float ny
property float nz
property uchar diffuse_red
property uchar diffuse_green
property uchar diffuse_blue
property uchar class
property uchar detection
end_header
4.1858 5.7863 -2.9433 -0.187 -0.617 0.764 224 200 172 0 0
4.2321 5.7906 -2.9307 -0.334 -0.602 0.725 217 197 166 0 0
4.3141 5.7702 -2.9003 -0.598 -0.740 0.308 225 204 175 0 0
4.5112 5.7887 -2.8469 -0.069 -0.658 0.750 221 199 166 0 0
4.9819 5.8824 -2.7340 0.238 -0.919 -0.315 191 172 141 0 0
5.6881 7.6339 -3.0393 0.866 -0.496 -0.058 185 165 137 0 0
5.7066 7.6675 -3.0437 0.868 -0.491 -0.070 186 167 143 0 0
5.8824 8.4638 -3.2259 -0.697 -0.460 -0.550 216 213 206 0 0
5.9487 8.3745 -3.1797 -0.826 -0.532 0.186 217 214 207 0 0
6.8698 8.3089 -2.8856 0.595 -0.421 0.685 204 203 202 0 0
6.9401 8.2783 -2.8556 -0.438 -0.614 0.657 196 196 194 0 0
6.9566 8.2825 -2.8519 -0.277 -0.654 0.704 195 195 193 0 0
7.0991 8.1736 -2.7773 -0.787 -0.588 -0.189 182 181 179 0 0
7.1402 8.2745 -2.7947 -0.100 -0.719 0.688 181 180 178 0 0
7.1564 8.2772 -2.7907 -0.070 -0.629 0.774 177 177 175 0 0
7.1598 8.2307 -2.7760 -0.584 -0.631 0.510 176 176 176 0 0
7.2528 8.2907 -2.7659 -0.030 -0.667 0.745 169 168 168 0 0
7.3241 8.2683 -2.7380 -0.562 -0.508 0.653 162 162 162 0 0
7.4993 8.1802 -2.6598 0.062 -0.313 -0.948 145 145 147 0 0
7.4985 7.7773 -2.5413 0.175 -0.412 -0.894 141 140 138 0 0
7.5574 7.6839 -2.4962 0.616 -0.580 -0.532 166 158 145 0 0
7.5713 7.6361 -2.4780 0.296 -0.440 -0.848 172 165 151 0 0
7.5840 7.6302 -2.4725 0.404 -0.445 -0.799 174 167 151 0 0
7.6676 7.6643 -2.4575 0.425 -0.421 -0.802 180 166 150 0 0
7.6894 7.6861 -2.4575 0.425 -0.421 -0.802 180 166 149 0 0
8.0830 7.6853 -2.3398 -0.583 -0.812 -0.030 201 200 199 0 0
8.4603 8.3663 -2.4278 0.483 -0.876 0.007 209 208 206 0 0
8.4786 8.3734 -2.4244 0.577 -0.816 -0.046 210 210 208 0 0
8.4793 8.3344 -2.4128 0.809 -0.490 0.325 211 211 209 0 0
8.5440 8.3406 -2.3952 0.529 -0.697 0.484 215 214 212 0 0
8.5670 8.3594 -2.3939 -0.587 -0.799 0.133 215 214 212 0 0
8.5767 8.3442 -2.3866 -0.674 -0.710 0.204 215 214 212 0 0
8.7746 8.2946 -2.3129 -0.028 -0.999 0.032 225 225 223 0 0
8.8468 8.2817 -2.2876 -0.196 -0.553 0.810 228 228 226 0 0
2.8633 6.9612 -3.6990 -0.530 -0.634 -0.563 231 225 216 0 0
3.4697 5.7839 -3.1692 -0.387 -0.653 0.652 210 185 149 0 0
3.6793 5.7764 -3.1044 -0.236 -0.824 0.515 221 198 166 0 0
3.9806 5.7800 -3.0155 -0.219 -0.618 0.755 226 206 179 0 0
4.0620 5.7774 -2.9905 0.068 -0.731 0.679 221 200 169 0 0
4.2822 5.7845 -2.9269 -0.016 -0.871 0.491 223 202 171 0 0
4.9614 5.8733 -2.7505 0.407 -0.834 -0.372 190 169 139 0 0
5.6921 7.6307 -3.0532 0.904 -0.427 -0.040 187 167 139 0 0
5.7130 7.6835 -3.0626 0.859 -0.503 -0.098 185 168 144 0 0
5.8600 8.1376 -3.1533 0.280 -0.623 0.730 216 213 206 0 0
5.8770 8.1509 -3.1521 -0.791 -0.350 0.502 217 214 207 0 0
6.0188 8.2870 -3.1502 -0.841 -0.488 0.232 217 215 210 0 0
6.0372 8.3074 -3.1507 -0.659 -0.477 0.582 218 215 210 0 0
6.1652 8.2362 -3.0914 -0.524 -0.812 0.257 219 217 214 0 0
6.1888 8.2865 -3.0993 0.205 -0.976 -0.074 219 218 213 0 0
6.5418 8.1948 -2.9668 -0.240 -0.937 0.254 215 215 215 0 0
6.5566 8.1924 -2.9616 -0.240 -0.937 0.254 214 214 214 0 0
6.5785 8.2250 -2.9647 -0.372 -0.809 0.454 214 214 214 0 0
6.8670 8.2755 -2.8936 0.623 -0.245 0.743 204 204 202 0 0
6.8968 8.3376 -2.9031 0.688 -0.263 0.676 204 203 201 0 0
6.9008 8.2879 -2.8872 0.391 -0.349 0.852 202 201 199 0 0
6.9417 8.2644 -2.8681 -0.741 -0.499 0.449 197 196 194 0 0
6.9492 8.2311 -2.8559 -0.100 -0.487 0.867 196 196 194 0 0
7.0986 8.2742 -2.8241 -0.684 -0.696 -0.219 185 184 182 0 0
7.1383 8.2481 -2.8045 0.411 -0.614 0.674 182 181 179 0 0
7.1765 8.1585 -2.7666 -0.563 -0.776 0.284 176 174 175 0 0
7.3255 8.3118 -2.7676 -0.654 -0.587 -0.477 166 166 166 0 0
7.5557 8.2505 -2.6807 -0.133 -0.282 -0.950 147 147 147 0 0
7.5743 7.7226 -2.5187 0.626 -0.597 -0.502 147 144 143 0 0
7.6035 7.7225 -2.5100 0.392 -0.489 -0.779 150 148 143 0 0
7.6072 7.6883 -2.4987 0.506 -0.517 -0.690 153 151 144 0 0
7.6141 7.6195 -2.4763 -0.145 -0.433 -0.890 159 155 146 0 0
7.6414 7.6588 -2.4798 0.401 -0.541 -0.739 163 157 147 0 0
7.6516 7.6454 -2.4728 0.761 -0.500 -0.413 166 157 148 0 0
7.6842 7.7005 -2.4794 0.761 -0.500 -0.413 169 159 148 0 0
8.5483 8.3384 -2.4106 0.645 -0.664 0.378 215 214 212 0 0
8.5735 8.3629 -2.4103 0.606 -0.753 0.258 216 215 213 0 0
8.7598 8.2843 -2.3314 -0.019 -0.880 0.474 225 225 225 0 0
8.8444 8.2641 -2.3002 -0.196 -0.553 0.810 228 228 226 0 0
3.3525 5.8132 -3.2257 -0.299 -0.954 0.012 197 177 151 0 0
3.8806 5.7683 -3.0547 -0.196 -0.620 0.760 223 204 172 0 0
4.0891 5.7690 -2.9927 -0.100 -0.569 0.817 221 198 165 0 0
4.2515 5.7662 -2.9434 -0.157 -0.674 0.722 218 195 163 0 0
4.3449 5.7428 -2.9086 -0.255 -0.776 0.577 221 200 169 0 0
4.3680 5.7417 -2.9013 -0.265 -0.768 0.583 223 201 171 0 0
4.9533 5.8740 -2.7662 0.611 -0.791 0.030 189 168 136 0 0
5.6982 7.6442 -3.0714 0.908 -0.413 -0.069 186 166 140 0 0
5.8654 8.1431 -3.1701 -0.190 -0.710 0.678 217 212 206 0 0
5.8918 8.1124 -3.1531 -0.839 -0.306 0.450 217 212 207 0 0
6.5605 8.1875 -2.9760 -0.240 -0.937 0.254 215 215 215 0 0
6.8637 8.2399 -2.9011 0.442 -0.243 0.863 204 204 204 0 0
6.8994 8.2610 -2.8967 0.540 -0.393 0.745 201 201 201 0 0
6.9449 8.2575 -2.8821 -0.164 -0.672 0.723 199 197 198 0 0
6.9584 8.2493 -2.8756 0.022 -0.764 0.644 197 197 196 0 0
6.9735 8.2482 -2.8708 0.079 -0.854 0.514 196 196 194 0 0
7.1063 8.4095 -2.8792 -0.783 -0.505 -0.362 189 188 186 0 0
7.1009 8.3256 -2.8558 -0.713 -0.700 -0.046 188 187 185 0 0
7.1776 8.2616 -2.8139 -0.106 -0.887 0.450 179 178 176 0 0
7.2701 8.3187 -2.8033 -0.336 -0.748 0.573 172 172 172 0 0
7.2860 8.3200 -2.7989 -0.146 -0.856 0.496 171 171 171 0 0
7.2979 8.3064 -2.7914 -0.081 -0.937 0.341 170 170 170 0 0
7.3037 8.2710 -2.7790 -0.383 -0.923 -0.036 168 168 168 0 0
7.3393 8.2878 -2.7734 -0.645 -0.559 -0.521 165 165 164 0 0
7.5600 8.1969 -2.6805 -0.152 -0.506 -0.849 148 148 150 0 0
7.5962 7.7771 -2.5446 0.412 -0.540 -0.734 146 146 148 0 0
7.6093 7.7719 -2.5392 0.376 -0.525 -0.764 147 147 149 0 0
7.7078 7.7582 -2.5057 0.761 -0.500 -0.413 154 153 151 0 0
7.7366 7.8009 -2.5098 0.685 -0.500 -0.529 156 155 153 0 0
8.0331 7.8041 -2.4223 0.080 -0.973 0.216 190 189 186 0 0
8.5859 8.1867 -2.3713 -0.178 -0.715 0.676 219 218 216 0 0
8.6814 8.1946 -2.3452 0.521 -0.703 0.484 223 223 221 0 0
8.7789 8.2808 -2.3418 0.236 -0.837 0.494 226 226 224 0 0
8.7876 8.2645 -2.3343 0.158 -0.573 0.804 227 227 225 0 0
8.8105 8.2820 -2.3327 0.166 -0.613 0.772 227 227 226 0 0
3.3689 5.8043 -3.2311 -0.270 -0.920 0.284 197 178 146 0 0
3.7111 5.7599 -3.1156 0.036 -0.818 0.574 221 199 168 0 0
3.9438 5.7441 -3.0415 -0.427 -0.633 0.646 222 203 173 0 0
4.3601 5.7337 -2.9141 -0.255 -0.776 0.577 219 197 166 0 0
4.5795 5.7295 -2.8474 0.093 -0.713 0.695 224 201 169 0 0
4.6143 5.7438 -2.8413 0.225 -0.744 0.629 220 198 166 0 0
4.7302 5.7537 -2.8097 0.197 -0.905 0.377 202 178 144 0 0
5.0066 5.9182 -2.7765 0.578 -0.732 -0.360 193 175 147 0 0
5.7075 7.3388 -2.9931 -0.406 -0.670 -0.621 217 211 203 0 0
5.9380 8.6553 -3.3188 -0.653 -0.185 0.735 217 212 206 0 0
5.8918 8.0784 -3.1597 -0.580 -0.322 0.748 217 212 208 0 0
6.0480 8.3153 -3.1841 -0.849 -0.498 0.176 217 214 209 0 0
6.8987 8.2371 -2.9069 0.594 -0.336 0.731 203 203 203 0 0
7.1638 8.2492 -2.8314 0.307 -0.799 0.517 183 182 180 0 0
7.1804 8.2537 -2.8278 -0.239 -0.907 0.346 180 179 177 0 0
7.2866 8.3040 -2.8111 -0.212 -0.727 0.653 173 173 173 0 0
7.2933 8.2715 -2.7994 -0.236 -0.888 0.395 171 171 171 0 0
7.3186 8.3076 -2.8027 -0.236 -0.954 -0.185 169 169 169 0 0
7.3214 8.2610 -2.7879 -0.484 -0.746 0.457 168 168 168 0 0
7.3214 8.2050 -2.7711 -0.608 -0.732 0.307 167 167 167 0 0
7.3332 8.1922 -2.7637 -0.754 -0.610 0.243 166 166 166 0 0
7.6012 8.2662 -2.7060 -0.671 -0.677 -0.302 150 150 153 0 0
7.6613 7.9207 -2.5845 0.765 -0.532 -0.362 151 151 153 0 0
7.6976 7.9873 -2.5936 0.730 -0.505 -0.460 151 151 153 0 0
7.7691 8.0685 -2.5966 0.740 -0.553 -0.383 152 152 152 0 0
7.8150 8.1626 -2.6111 0.654 -0.541 -0.529 153 153 153 0 0
7.7634 7.8676 -2.5381 0.685 -0.500 -0.529 157 157 157 0 0
7.8260 7.6607 -2.4574 0.562 -0.643 -0.520 172 171 167 0 0
7.8465 7.6780 -2.4565 0.575 -0.641 -0.509 175 173 171 0 0
7.8487 7.6425 -2.4452 0.334 -0.940 0.076 178 175 172 0 0
7.8628 7.6412 -2.4406 0.143 -0.968 -0.205 179 177 174 0 0
7.8823 7.6554 -2.4390 -0.142 -0.850 -0.508 178 177 173 0 0
7.8956 7.6517 -2.4340 0.173 -0.860 -0.480 183 181 177 0 0
7.9040 7.6344 -2.4263 -0.073 -0.991 -0.108 184 182 178 0 0
7.9252 7.6534 -2.4256 0.525 -0.846 -0.098 185 184 182 0 0
8.4903 8.4049 -2.4822 0.829 -0.342 0.443 211 210 208 0 0
8.6645 8.1785 -2.3624 0.560 -0.803 0.202 223 223 221 0 0
8.6880 8.1985 -2.3614 0.578 -0.716 0.391 222 222 220 0 0
8.7010 8.1926 -2.3557 -0.553 -0.744 0.376 223 223 221 0 0
2.9719 6.7227 -3.6392 0.963 -0.185 0.196 214 197 176 0 0
3.7152 5.7537 -3.1254 -0.177 -0.806 0.564 221 200 169 0 0
3.7620 5.7482 -3.1098 -0.252 -0.795 0.552 224 203 174 0 0
3.8082 5.7478 -3.0958 -0.416 -0.743 0.525 220 200 169 0 0
3.8212 5.7325 -3.0873 -0.452 -0.779 0.435 219 198 167 0 0
3.8319 5.7424 -3.0871 -0.230 -0.757 0.612 218 197 166 0 0
3.9012 5.7419 -3.0663 -0.105 -0.580 0.808 223 202 171 0 0
3.9243 5.7415 -3.0593 -0.219 -0.627 0.748 224 201 170 0 0
3.9481 5.7329 -3.0496 -0.427 -0.633 0.646 221 200 169 0 0
3.9597 5.7317 -3.0458 -0.440 -0.692 0.572 223 201 170 0 0
4.1551 5.7465 -2.9919 -0.410 -0.660 0.630 221 198 167 0 0
4.3406 5.7280 -2.9310 -0.292 -0.712 0.639 224 202 171 0 0
4.3523 5.7234 -2.9262 -0.388 -0.703 0.596 222 200 169 0 0
4.7102 5.7374 -2.8236 0.057 -0.934 0.352 202 179 142 0 0
4.9000 5.8405 -2.7980 0.278 -0.943 -0.182 191 168 137 0 0
4.9117 5.8416 -2.7948 0.203 -0.961 -0.186 189 167 136 0 0
5.7134 7.3515 -3.0107 -0.406 -0.670 -0.621 216 209 200 0 0
6.8508 8.2087 -2.9296 -0.325 -0.313 0.893 205 205 205 0 0
6.8755 8.1171 -2.8946 0.528 -0.229 0.818 202 202 202 0 0
6.9146 8.2186 -2.9136 0.406 -0.355 0.842 202 202 202 0 0
7.1524 8.2459 -2.8508 -0.332 -0.770 0.545 185 184 182 0 0
7.1696 8.2528 -2.8478 -0.311 -0.886 0.344 182 182 178 0 0
7.1827 8.2437 -2.8411 -0.246 -0.822 0.514 181 180 178 0 0
8.1340 8.5405 -2.6467 0.515 -0.836 0.189 173 172 172 0 0
8.1550 8.5552 -2.6449 0.565 -0.813 0.143 175 174 172 0 0
7.9631 7.9577 -2.5221 0.650 -0.751 0.117 177 176 174 0 0
8.0283 7.9723 -2.5070 0.675 -0.727 0.125 186 185 183 0 0
8.0563 7.9665 -2.4969 0.429 -0.894 -0.133 189 188 186 0 0
8.2506 8.2933 -2.5374 0.860 -0.490 0.142 195 194 192 0 0
8.3311 8.3852 -2.5411 0.767 -0.626 0.140 199 198 196 0 0
8.5267 8.4863 -2.5132 0.862 -0.304 0.405 210 209 207 0 0
8.6657 8.1693 -2.3762 0.493 -0.684 0.537 223 223 221 0 0
8.6838 8.1760 -2.3728 0.248 -0.882 0.400 223 223 221 0 0
8.7046 8.1891 -2.3706 -0.435 -0.698 0.569 224 224 222 0 0
8.7200 8.1892 -2.3660 0.132 -0.671 0.730 225 225 221 0 0
2.9753 6.7246 -3.6532 0.964 -0.206 0.168 213 197 177 0 0
3.8132 5.7311 -3.1021 -0.375 -0.833 0.406 223 202 173 0 0
3.8253 5.7249 -3.0966 -0.452 -0.779 0.435 223 202 172 0 0
3.8370 5.7232 -3.0926 -0.384 -0.828 0.408 222 202 171 0 0
3.8488 5.7202 -3.0882 -0.370 -0.781 0.503 225 204 173 0 0
3.9172 5.7293 -3.0705 0.157 -0.600 0.785 222 199 168 0 0
3.9285 5.7317 -3.0679 -0.234 -0.672 0.703 221 198 167 0 0
3.9399 5.7335 -3.0650 -0.352 -0.619 0.703 221 199 168 0 0
4.1826 5.7266 -2.9905 -0.320 -0.557 0.767 224 203 173 0 0
4.4597 5.7065 -2.9018 -0.169 -0.660 0.732 222 200 166 0 0
4.5748 5.7132 -2.8694 -0.178 -0.896 0.407 217 194 161 0 0
4.6556 5.7223 -2.8481 -0.121 -0.736 0.666 203 179 143 0 0
4.7486 5.7475 -2.8280 0.298 -0.950 0.090 189 166 132 0 0
4.7722 5.7613 -2.8251 0.018 -1.000 -0.004 178 157 124 0 0
4.9037 5.8441 -2.8110 0.278 -0.943 -0.182 187 166 136 0 0
4.9155 5.8461 -2.8081 0.171 -0.955 -0.242 187 166 135 0 0
4.9645 5.8831 -2.8047 0.654 -0.753 0.069 191 171 143 0 0
5.6957 7.4000 -3.0462 -0.529 -0.604 -0.596 179 161 141 0 0
5.7074 7.3812 -3.0370 -0.543 -0.596 -0.592 200 189 175 0 0
5.7190 7.3613 -3.0275 -0.543 -0.596 -0.592 217 209 200 0 0
5.9838 8.3421 -3.2457 -0.729 -0.171 0.663 216 211 205 0 0
6.5823 8.2246 -3.0315 0.080 -0.437 0.896 215 215 215 0 0
6.5979 8.2259 -3.0272 -0.414 -0.336 0.846 215 215 215 0 0
6.6347 8.1805 -3.0025 -0.052 -0.521 0.852 213 213 212 0 0
6.6845 8.1273 -2.9715 -0.967 -0.255 -0.000 210 210 210 0 0
6.6289 7.5979 -2.8277 -0.638 -0.228 -0.735 209 209 209 0 0
7.1564 8.2424 -2.8656 -0.399 -0.894 0.205 186 185 182 0 0
7.1704 8.2370 -2.8598 -0.328 -0.856 0.399 184 184 180 0 0
7.1850 8.2339 -2.8545 -0.405 -0.882 0.240 182 181 179 0 0
7.2644 8.2426 -2.8335 -0.786 -0.371 0.494 177 176 176 0 0
7.6736 8.2184 -2.7040 -0.492 -0.642 0.588 151 153 152 0 0
7.7491 8.1656 -2.6655 -0.140 -0.945 -0.295 155 154 154 0 0
7.9281 8.3356 -2.6636 0.078 -0.732 -0.677 160 160 160 0 0
7.8736 8.1252 -2.6161 -0.139 -0.443 0.886 163 163 163 0 0
7.9821 8.1748 -2.5988 0.087 -0.719 0.690 172 172 171 0 0
8.4377 8.6164 -2.5967 0.912 -0.409 0.015 201 199 199 0 0
8.3982 8.1791 -2.4759 -0.120 -0.774 0.622 209 208 206 0 0
8.4136 8.1791 -2.4714 -0.098 -0.821 0.563 210 209 207 0 0
8.4799 8.2710 -2.4794 -0.814 -0.327 0.481 211 210 208 0 0
8.6958 8.1929 -2.3913 0.587 -0.762 0.272 224 224 222 0 0
8.7054 8.1790 -2.3843 -0.464 -0.798 0.384 223 223 221 0 0
8.7341 8.2111 -2.3854 -0.463 -0.553 0.693 224 224 222 0 0
3.8175 5.7216 -3.1107 -0.355 -0.837 0.417 222 201 172 0 0
3.8760 5.7120 -3.0903 -0.147 -0.669 0.728 220 198 167 0 0
4.0490 5.7055 -3.0367 -0.538 -0.618 0.573 219 195 161 0 0
4.0725 5.6974 -3.0272 -0.013 -0.789 0.615 223 200 168 0 0
4.1635 5.7150 -3.0054 -0.133 -0.594 0.794 223 200 168 0 0
4.7522 5.7495 -2.8404 0.295 -0.956 0.004 181 158 125 0 0
4.8338 5.7637 -2.8203 0.150 -0.928 0.340 187 168 138 0 0
4.8454 5.7631 -2.8167 0.192 -0.852 0.487 188 169 139 0 0
4.9193 5.8509 -2.8214 0.170 -0.946 -0.277 189 168 137 0 0
4.9435 5.8643 -2.8182 0.661 -0.740 -0.120 193 173 143 0 0
5.7017 7.4134 -3.0641 -0.543 -0.596 -0.592 178 161 141 0 0
5.7133 7.3933 -3.0545 -0.543 -0.596 -0.592 203 192 178 0 0
5.7253 7.3770 -3.0459 -0.406 -0.670 -0.621 216 209 200 0 0
6.1245 8.2167 -3.1827 -0.701 -0.642 0.310 216 213 208 0 0
6.5064 8.1271 -3.0415 -0.812 -0.438 0.387 217 217 216 0 0
6.5337 8.1112 -3.0285 -0.181 -0.946 0.268 217 217 217 0 0
6.5504 8.1183 -3.0257 -0.409 -0.808 0.425 216 216 216 0 0
6.6404 8.1851 -3.0192 0.048 -0.405 0.913 213 213 212 0 0
6.6500 8.1579 -3.0080 -0.300 -0.550 0.779 213 213 211 0 0
6.6642 8.1525 -3.0021 -0.533 -0.611 0.585 212 212 210 0 0
6.9749 8.0485 -2.8777 -0.222 -0.322 0.920 196 196 195 0 0
7.0068 8.1165 -2.8889 -0.109 -0.266 0.958 195 195 193 0 0
7.3210 8.1509 -2.8057 -0.597 -0.526 0.605 173 173 172 0 0
7.3361 8.1502 -2.8010 0.107 -0.850 0.516 172 172 170 0 0
7.7901 8.2303 -2.6899 -0.146 -0.989 0.009 157 157 157 0 0
8.0277 8.2034 -2.6109 0.075 -0.686 0.724 178 178 179 0 0
8.0444 8.2072 -2.6070 0.142 -0.700 0.700 179 179 179 0 0
8.3119 8.3481 -2.5701 0.908 -0.418 -0.023 199 198 196 0 0
8.6266 8.9769 -2.6679 0.907 -0.361 0.216 205 204 202 0 0
8.3990 8.1682 -2.4893 -0.120 -0.774 0.622 209 208 206 0 0
8.4258 8.1981 -2.4904 -0.150 -0.611 0.777 211 210 208 0 0
8.7206 8.1667 -2.3929 0.289 -0.709 0.644 224 224 222 0 0
8.7378 8.1711 -2.3891 0.455 -0.709 0.538 225 225 223 0 0
8.7855 8.2114 -2.3872 0.226 -0.812 0.539 226 226 224 0 0
8.8011 8.2119 -2.3827 -0.036 -0.898 0.439 227 227 225 0 0
3.5797 5.7165 -3.1928 -0.190 -0.982 0.003 198 176 143 0 0
3.7664 5.6917 -3.1296 -0.351 -0.723 0.595 213 188 153 0 0
3.7878 5.7068 -3.1278 -0.359 -0.853 0.378 218 196 163 0 0
3.7997 5.7031 -3.1231 -0.177 -0.923 0.341 218 197 166 0 0
3.8114 5.7004 -3.1188 -0.255 -0.910 0.327 219 197 166 0 0
3.8219 5.7115 -3.1191 -0.451 -0.776 0.440 220 197 168 0 0
3.8576 5.6982 -3.1043 -0.495 -0.697 0.518 223 203 171 0 0
4.0414 5.6974 -3.0493 -0.587 -0.698 0.410 218 195 163 0 0
4.0534 5.6894 -3.0432 -0.530 -0.783 0.325 218 194 162 0 0
4.0653 5.6827 -3.0376 -0.519 -0.791 0.323 219 194 162 0 0
4.0765 5.6881 -3.0360 -0.083 -0.646 0.759 221 198 166 0 0
4.7206 5.7361 -2.8585 0.278 -0.961 0.006 172 149 116 0 0
4.7795 5.7705 -2.8514 0.283 -0.958 -0.056 182 160 129 0 0
4.7911 5.7708 -2.8481 0.230 -0.949 -0.215 181 161 130 0 0
5.0238 5.9658 -2.8384 0.571 -0.761 -0.307 186 166 137 0 0
5.1011 6.0476 -2.8404 0.630 -0.753 -0.190 195 175 145 0 0
5.1265 6.0642 -2.8379 0.646 -0.762 -0.046 191 171 142 0 0
5.7078 7.4275 -3.0822 -0.608 -0.525 -0.596 179 162 142 0 0
5.7188 7.4024 -3.0712 -0.608 -0.525 -0.596 203 193 179 0 0
5.7302 7.3811 -3.0613 -0.524 -0.610 -0.595 214 208 198 0 0
5.9474 8.3467 -3.2924 -0.850 -0.133 0.509 214 211 204 0 0
6.0811 8.2036 -3.2086 -0.657 -0.754 0.001 216 213 206 0 0
6.0942 8.1887 -3.2002 0.252 -0.873 0.418 216 213 206 0 0
6.1357 8.1608 -3.1792 -0.520 -0.833 0.188 217 214 210 0 0
6.1600 8.1222 -3.1602 -0.303 -0.893 0.332 216 215 211 0 0
6.6301 8.1863 -3.0395 -0.734 -0.574 0.363 214 214 214 0 0
6.6366 8.1441 -3.0247 -0.052 -0.521 0.852 213 213 213 0 0
6.6495 8.1326 -3.0173 -0.648 -0.492 0.581 213 213 212 0 0
6.6577 8.0996 -3.0047 -0.882 -0.469 0.045 212 212 211 0 0
6.9630 8.2317 -2.9541 -0.130 -0.304 0.944 201 202 201 0 0
7.5613 8.1707 -2.7570 0.072 -0.997 -0.032 160 160 160 0 0
7.7634 8.2277 -2.7141 -0.038 -0.915 -0.402 159 158 159 0 0
7.7786 8.2269 -2.7094 -0.243 -0.938 -0.248 160 160 160 0 0
7.7882 8.2089 -2.7010 -0.362 -0.909 -0.206 160 160 160 0 0
8.1182 8.0987 -2.5688 -0.266 -0.483 0.834 192 190 188 0 0
8.4078 8.1783 -2.5067 -0.499 -0.849 0.174 209 209 207 0 0
8.4326 8.2026 -2.5068 -0.556 -0.695 0.455 210 210 208 0 0
8.5618 8.1791 -2.4611 -0.216 -0.529 0.821 217 216 215 0 0
8.6018 8.1640 -2.4445 0.105 -0.826 0.554 219 218 216 0 0
8.6195 8.1698 -2.4410 0.089 -0.737 0.670 219 220 216 0 0
2.9918 6.7678 -3.7049 0.951 -0.228 0.210 212 197 174 0 0
3.3271 5.9574 -3.3552 -0.318 -0.881 -0.350 196 179 153 0 0
3.4445 5.8003 -3.2718 -0.436 -0.806 -0.401 200 181 154 0 0
3.6426 5.6994 -3.1816 -0.167 -0.877 0.451 207 184 151 0 0
3.6536 5.7042 -3.1798 -0.021 -0.862 0.506 206 183 149 0 0
3.6654 5.7012 -3.1753 -0.242 -0.942 0.234 206 183 149 0 0
3.7001 5.6988 -3.1642 -0.120 -0.840 0.529 207 183 150 0 0
3.7807 5.6968 -3.1396 -0.208 -0.900 0.384 207 183 146 0 0
3.7919 5.6994 -3.1370 -0.290 -0.861 0.418 213 190 154 0 0
3.8035 5.6986 -3.1333 -0.177 -0.923 0.341 213 190 157 0 0
3.8153 5.6957 -3.1289 -0.255 -0.910 0.327 212 189 157 0 0
3.8269 5.6939 -3.1249 -0.255 -0.910 0.327 214 190 159 0 0
4.0216 5.7008 -3.0689 -0.576 -0.675 0.461 223 200 167 0 0
4.0572 5.6829 -3.0528 -0.530 -0.783 0.325 218 195 163 0 0
4.0692 5.6754 -3.0469 -0.528 -0.762 0.375 218 195 163 0 0
4.0923 5.6724 -3.0391 -0.152 -0.647 0.747 220 197 165 0 0
4.3443 5.6723 -2.9639 -0.211 -0.844 0.494 221 197 162 0 0
4.3557 5.6730 -2.9607 -0.236 -0.736 0.634 221 196 160 0 0
4.3784 5.6837 -2.9572 -0.193 -0.715 0.672 213 188 152 0 0
4.6429 5.7148 -2.8879 0.050 -0.899 0.434 186 162 127 0 0
4.7712 5.7642 -2.8649 0.453 -0.892 -0.014 183 163 131 0 0
4.7831 5.7756 -2.8648 0.062 -0.946 -0.318 183 163 131 0 0
5.0030 5.9558 -2.8547 0.431 -0.888 -0.160 189 168 139 0 0
5.0285 5.9824 -2.8553 0.644 -0.749 -0.155 185 166 137 0 0
5.7123 7.4291 -3.0970 -0.516 -0.633 -0.578 179 162 141 0 0
5.9702 8.2538 -3.2742 -0.819 -0.125 0.560 214 209 203 0 0
6.0684 8.1899 -3.2252 -0.293 -0.804 0.518 216 212 205 0 0
6.0847 8.1957 -3.2221 -0.588 -0.758 0.280 216 213 206 0 0
6.1015 8.2056 -3.2201 0.212 -0.972 0.103 215 212 205 0 0
6.1395 8.1552 -3.1933 -0.520 -0.833 0.188 217 213 210 0 0
6.1536 8.1478 -3.1868 -0.520 -0.833 0.188 216 214 210 0 0
6.1659 8.1291 -3.1774 -0.397 -0.914 -0.087 216 215 211 0 0
6.6301 8.1632 -3.0494 -0.606 -0.770 0.197 214 214 214 0 0
6.6777 8.0996 -3.0156 -0.596 -0.550 0.585 212 212 212 0 0
6.8953 8.1198 -2.9569 -0.110 -0.277 0.954 204 204 202 0 0
6.9956 8.2190 -2.9575 -0.131 -0.339 0.932 200 200 198 0 0
7.1333 8.1563 -2.8971 -0.518 -0.838 0.171 190 189 185 0 0
7.1665 8.2252 -2.9085 -0.580 -0.803 0.140 190 189 187 0 0
7.5457 8.1536 -2.7733 -0.407 -0.856 -0.320 163 163 163 0 0
7.5664 8.1716 -2.7726 0.072 -0.997 -0.032 163 163 163 0 0
7.5815 8.1709 -2.7679 -0.332 -0.773 -0.540 162 162 162 0 0
7.6764 8.3810 -2.8044 -0.332 -0.359 -0.872 160 160 160 0 0
7.7698 8.2322 -2.7307 -0.266 -0.909 -0.321 161 160 160 0 0
7.7846 8.2303 -2.7256 -0.349 -0.797 -0.493 162 162 162 0 0
7.9603 8.1126 -2.6370 0.296 -0.702 0.648 175 175 174 0 0
8.0448 8.1799 -2.6325 0.693 -0.720 0.034 182 181 181 0 0
8.0680 8.2024 -2.6325 0.569 -0.815 -0.107 185 183 184 0 0
8.0866 8.2117 -2.6298 0.565 -0.825 -0.002 186 183 184 0 0
9.1682 10.1883 -2.9161 0.917 -0.385 0.107 209 208 206 0 0
8.4102 8.1716 -2.5209 -0.785 -0.587 0.198 209 209 208 0 0
8.4115 8.1352 -2.5093 0.435 -0.875 -0.213 211 211 209 0 0
8.5032 8.1737 -2.4939 -0.361 -0.762 0.538 214 212 213 0 0
8.5119 8.1570 -2.4861 -0.380 -0.910 -0.164 215 214 215 0 0
8.6506 8.0842 -2.4223 -0.700 -0.580 0.416 223 223 223 0 0
2.9953 6.7694 -3.7189 0.951 -0.228 0.210 212 196 173 0 0
3.8083 5.6837 -3.1400 -0.283 -0.924 0.257 210 185 150 0 0
4.0730 5.6682 -3.0562 -0.528 -0.762 0.375 220 197 165 0 0
4.1876 5.6665 -3.0216 -0.408 -0.699 0.587 221 197 164 0 0
4.1992 5.6635 -3.0171 -0.408 -0.699 0.587 222 198 166 0 0
4.3706 5.6737 -2.9692 -0.256 -0.786 0.562 207 179 142 0 0
4.3820 5.6744 -2.9660 -0.193 -0.715 0.672 208 179 143 0 0
4.4624 5.6667 -2.9396 0.125 -0.963 0.238 202 176 141 0 0
4.6462 5.7078 -2.8975 0.151 -0.976 0.156 177 154 121 0 0
4.6578 5.7100 -2.8948 0.151 -0.976 0.156 176 154 121 0 0
4.7748 5.7683 -2.8779 0.402 -0.875 -0.269 185 167 136 0 0
4.7870 5.7878 -2.8803 -0.022 -0.903 -0.429 187 168 137 0 0
5.0706 6.0222 -2.8683 0.692 -0.694 -0.197 187 165 136 0 0
5.2328 6.2347 -2.8857 0.724 -0.680 -0.113 192 169 140 0 0
5.2470 6.2557 -2.8880 0.656 -0.739 -0.151 194 172 142 0 0
5.7863 7.8630 -3.2251 0.934 -0.357 -0.002 202 193 179 0 0
5.8319 7.9849 -3.2492 0.934 -0.357 -0.022 213 208 202 0 0
6.1026 8.1818 -3.2294 -0.125 -0.982 0.142 216 213 206 0 0
6.1283 8.1505 -3.2121 -0.431 -0.898 -0.092 216 213 208 0 0
6.1423 8.1431 -3.2056 -0.431 -0.898 -0.092 217 213 210 0 0
6.1575 8.1424 -3.2009 -0.419 -0.873 0.251 215 213 209 0 0
6.1790 8.1805 -3.2063 0.242 -0.556 0.795 216 215 211 0 0
6.1947 8.0907 -3.1737 -0.051 -0.600 0.798 217 216 212 0 0
6.6641 8.0849 -3.0319 -0.882 -0.469 0.045 213 213 213 0 0
6.6810 8.0926 -3.0293 -0.569 -0.606 0.555 212 212 212 0 0
6.9774 8.0006 -2.9124 -0.145 -0.345 0.927 199 199 197 0 0
7.1719 8.2271 -2.9245 -0.333 -0.784 0.524 190 189 187 0 0
7.1866 8.2243 -2.9192 -0.333 -0.784 0.524 190 189 187 0 0
7.2528 8.1276 -2.8695 -0.005 -0.838 0.546 183 182 180 0 0
7.2054 7.8976 -2.8124 -0.130 -0.938 -0.322 183 182 180 0 0
7.2193 7.8939 -2.8071 -0.130 -0.938 -0.322 181 180 178 0 0
7.4293 8.0523 -2.7936 -0.597 -0.706 0.381 170 170 170 0 0
7.5692 8.1647 -2.7866 -0.133 -0.924 0.359 165 165 165 0 0
7.5837 8.1618 -2.7814 -0.398 -0.908 -0.128 165 165 165 0 0
7.7896 8.2306 -2.7413 -0.035 -0.999 -0.035 163 163 163 0 0
7.8013 8.2190 -2.7342 -0.545 -0.828 -0.136 164 164 164 0 0
8.0256 8.1548 -2.6474 0.474 -0.650 0.594 181 181 181 0 0
8.0507 8.1827 -2.6486 0.544 -0.830 0.126 183 182 182 0 0
8.4242 8.1553 -2.5287 -0.287 -0.546 0.787 210 209 208 0 0
8.4320 8.1358 -2.5203 -0.066 -0.873 0.483 212 211 209 0 0
8.5140 8.1497 -2.5001 -0.458 -0.744 0.486 214 214 214 0 0
8.5188 8.1233 -2.4905 -0.277 -0.884 0.378 215 215 213 0 0
8.5314 8.1165 -2.4847 0.035 -0.876 0.481 215 215 213 0 0
8.5774 8.1169 -2.4711 0.029 -0.584 0.811 219 219 217 0 0
8.6375 8.1520 -2.4640 -0.006 -0.725 0.689 221 221 218 0 0
3.4863 5.7993 -3.2848 -0.372 -0.730 -0.573 191 174 148 0 0
3.5131 5.7728 -3.2685 -0.372 -0.730 -0.573 195 177 153 0 0
3.6857 5.6829 -3.1891 -0.254 -0.966 -0.055 189 167 135 0 0
4.1002 5.6523 -3.0559 -0.136 -0.661 0.738 215 193 158 0 0
4.1913 5.6588 -3.0307 -0.068 -0.797 0.601 215 191 155 0 0
4.3628 5.6651 -2.9815 -0.077 -0.964 0.256 201 174 135 0 0
4.4544 5.6631 -2.9536 0.001 -0.989 0.147 200 176 140 0 0
4.7666 5.7647 -2.8921 0.451 -0.825 -0.340 188 170 142 0 0
5.1684 6.1508 -2.8925 0.644 -0.741 -0.192 193 171 142 0 0
5.1819 6.1671 -2.8936 0.640 -0.735 -0.224 190 169 140 0 0
5.3711 6.4708 -2.9317 0.758 -0.633 -0.156 192 171 141 0 0
5.8174 7.9531 -3.2603 0.947 -0.318 0.040 211 206 198 0 0
5.7747 7.4063 -3.1027 -0.414 -0.791 -0.449 213 209 203 0 0
6.1045 8.1635 -3.2401 -0.300 -0.909 0.289 215 212 205 0 0
6.1374 8.1781 -3.2349 -0.084 -0.693 0.716 217 214 209 0 0
6.1538 8.1848 -3.2321 0.005 -0.780 0.626 218 214 211 0 0
6.1798 8.1564 -3.2155 -0.275 -0.760 0.589 215 214 210 0 0
6.2119 8.1661 -3.2089 0.103 -0.717 0.689 217 216 213 0 0
6.6719 8.0989 -3.0508 -0.824 -0.555 0.110 213 213 213 0 0
6.6844 8.0867 -3.0432 -0.753 -0.598 0.274 213 213 213 0 0
6.6958 8.0688 -3.0343 -0.788 -0.463 0.405 212 212 212 0 0
6.7083 8.0567 -3.0267 -0.530 -0.761 0.373 211 211 211 0 0
6.9730 8.1494 -2.9766 -0.126 -0.489 0.863 203 203 202 0 0
6.9923 8.1657 -2.9760 -0.127 -0.405 0.905 202 202 200 0 0
7.0273 8.1218 -2.9519 -0.640 -0.470 0.608 199 199 197 0 0
7.0098 7.9907 -2.9163 -0.668 -0.564 0.484 197 197 195 0 0
7.0312 8.0161 -2.9178 0.399 -0.310 0.863 197 197 195 0 0
7.0766 8.1358 -2.9415 0.426 -0.331 0.842 197 196 194 0 0
7.0798 8.0885 -2.9258 0.155 -0.383 0.911 196 195 194 0 0
7.1023 8.1170 -2.9280 0.061 -0.804 0.592 194 194 192 0 0
7.1720 8.2087 -2.9358 -0.280 -0.606 0.744 191 190 188 0 0
7.1859 8.2030 -2.9299 -0.167 -0.584 0.794 190 188 187 0 0
7.2579 8.1286 -2.8852 0.174 -0.894 0.412 185 184 182 0 0
7.2745 8.1334 -2.8817 0.174 -0.894 0.412 183 183 181 0 0
7.2285 7.9103 -2.8260 -0.288 -0.954 -0.081 182 182 180 0 0
7.4113 8.0782 -2.8238 -0.788 -0.590 0.177 174 173 171 0 0
7.4357 8.0578 -2.8101 -0.556 -0.800 0.226 172 172 172 0 0
8.0258 8.1413 -2.6601 0.362 -0.621 0.695 182 182 182 0 0
8.0617 8.2001 -2.6677 0.713 -0.700 0.045 185 183 184 0 0
8.0776 8.2015 -2.6634 0.624 -0.774 0.106 188 186 187 0 0
8.2035 8.2516 -2.6414 0.863 -0.472 -0.179 194 194 192 0 0
8.4518 8.1347 -2.5309 -0.659 -0.717 0.225 212 211 209 0 0
8.4653 8.1301 -2.5255 0.102 -0.676 0.730 212 211 211 0 0
8.5112 8.1300 -2.5118 -0.533 -0.630 0.565 215 215 214 0 0
8.5181 8.1090 -2.5032 -0.608 -0.584 0.538 215 215 213 0 0
8.5553 8.1640 -2.5092 -0.667 -0.656 0.354 216 216 214 0 0
8.5844 8.1601 -2.4993 -0.571 -0.740 0.355 218 218 216 0 0
8.6082 8.1431 -2.4869 -0.233 -0.694 0.682 219 219 217 0 0
8.6257 8.1483 -2.4833 -0.293 -0.719 0.630 220 220 218 0 0
8.6291 8.1191 -2.4732 -0.336 -0.698 0.633 221 221 219 0 0
8.6889 8.0428 -2.4316 0.446 -0.732 0.515 225 225 226 0 0
8.6959 8.0236 -2.4235 0.563 -0.821 0.093 225 225 225 0 0
3.5132 5.7975 -3.2891 -0.203 -0.761 -0.616 194 176 151 0 0
4.0699 5.6433 -3.0748 -0.116 -0.853 0.510 209 185 150 0 0
4.0813 5.6437 -3.0715 -0.116 -0.853 0.510 206 183 147 0 0
4.1505 5.6292 -3.0463 -0.351 -0.929 0.118 199 175 136 0 0
4.6300 5.7015 -2.9259 0.332 -0.937 -0.110 183 163 131 0 0
4.9789 5.9684 -2.9054 0.479 -0.824 -0.302 186 167 138 0 0
5.3759 6.4804 -2.9473 0.758 -0.633 -0.156 194 173 144 0 0
5.7536 7.6511 -3.2012 0.980 -0.156 0.123 177 162 143 0 0
5.7509 7.4069 -3.1256 -0.717 -0.494 -0.491 211 206 198 0 0
6.1983 8.1472 -3.2240 -0.219 -0.469 0.856 217 216 212 0 0
6.2113 8.1341 -3.2160 -0.421 -0.561 0.713 217 216 213 0 0
6.6726 8.0800 -3.0614 -0.860 -0.491 0.137 213 213 213 0 0
6.6868 8.0756 -3.0558 -0.632 -0.681 0.369 213 213 213 0 0
6.6936 8.0371 -3.0417 -0.644 -0.724 0.247 212 212 212 0 0
6.7132 8.0576 -3.0423 -0.455 -0.754 0.475 211 211 211 0 0
6.6686 7.6541 -2.9293 -0.378 -0.309 -0.873 210 210 208 0 0
7.0165 7.9985 -2.9333 -0.822 -0.495 0.282 198 198 196 0 0
7.4366 8.0444 -2.8224 -0.409 -0.829 0.381 175 175 175 0 0
7.7908 8.2514 -2.7816 -0.485 -0.687 -0.542 169 169 169 0 0
7.8032 8.2422 -2.7750 -0.385 -0.824 -0.414 168 168 168 0 0
7.8157 8.2330 -2.7684 -0.385 -0.824 -0.414 168 168 168 0 0
8.1024 8.1707 -2.6634 -0.308 -0.766 0.564 190 189 187 0 0
8.2878 8.4273 -2.6884 0.848 -0.471 -0.243 196 195 194 0 0
8.4397 8.1697 -2.5624 0.901 -0.430 0.057 212 210 211 0 0
8.4936 8.1117 -2.5282 -0.186 -0.613 0.768 215 215 215 0 0
8.5862 8.1520 -2.5132 -0.571 -0.740 0.355 218 218 218 0 0
8.5745 8.0853 -2.4958 -0.442 -0.702 0.558 218 218 216 0 0
8.6131 8.0679 -2.4788 -0.740 -0.590 0.324 220 220 218 0 0
8.6729 8.0291 -2.4488 -0.256 -0.486 0.836 224 224 224 0 0
8.6764 8.0011 -2.4390 -0.154 -0.882 0.446 224 224 224 0 0
3.0124 6.8110 -3.7704 0.924 -0.188 0.332 211 195 173 0 0
3.7639 5.6562 -3.1828 0.134 -0.986 0.099 178 156 122 0 0
3.7752 5.6581 -3.1800 0.075 -0.995 0.069 182 159 125 0 0
3.9707 5.6420 -3.1166 -0.106 -0.933 0.343 207 182 146 0 0
4.0848 5.6414 -3.0824 -0.010 -0.909 0.418 201 178 140 0 0
4.1310 5.6312 -3.0654 -0.177 -0.968 0.176 206 180 143 0 0
4.6336 5.7112 -2.9407 0.332 -0.920 -0.210 187 169 138 0 0
4.7508 5.7808 -2.9276 0.340 -0.851 -0.401 188 170 144 0 0
4.7625 5.7844 -2.9252 0.340 -0.851 -0.401 188 168 140 0 0
4.9827 5.9732 -2.9190 0.174 -0.977 -0.125 188 169 140 0 0
4.9950 5.9779 -2.9168 0.204 -0.963 -0.176 190 170 140 0 0
5.3819 6.5009 -2.9661 0.631 -0.662 -0.404 191 170 140 0 0
6.1166 8.0833 -3.2451 -0.020 -0.413 0.910 216 213 206 0 0
6.9955 8.0773 -2.9811 -0.822 -0.264 0.504 202 202 199 0 0
7.0150 7.9736 -2.9426 -0.689 -0.462 0.558 199 199 197 0 0
7.4234 8.0344 -2.8399 -0.002 -0.939 0.345 178 177 175 0 0
7.4438 8.0525 -2.8395 -0.217 -0.911 0.350 176 176 175 0 0
7.4583 8.0502 -2.8345 -0.272 -0.875 0.401 176 176 176 0 0
7.8152 8.2641 -2.7954 -0.171 -0.892 0.418 170 170 170 0 0
7.8257 8.2486 -2.7874 -0.278 -0.960 0.024 172 172 172 0 0
8.0340 8.1364 -2.6899 0.593 -0.722 0.356 185 184 185 0 0
8.5495 8.0488 -2.5086 -0.449 -0.759 0.471 218 218 217 0 0
8.5751 8.0744 -2.5090 -0.442 -0.702 0.558 218 218 217 0 0
8.6033 8.0691 -2.4989 -0.710 -0.660 0.245 219 219 218 0 0
8.6264 8.0884 -2.4981 -0.580 -0.640 0.504 221 221 219 0 0
8.6220 8.0406 -2.4844 -0.740 -0.508 0.440 222 222 222 0 0
3.5942 5.7622 -3.2796 -0.240 -0.810 -0.534 193 176 150 0 0
3.8714 5.6417 -3.1588 -0.200 -0.956 0.217 181 158 123 0 0
3.8939 5.6457 -3.1533 0.009 -0.937 0.348 190 169 136 0 0
4.0999 5.6366 -3.0890 0.042 -0.979 0.199 197 173 135 0 0
4.1112 5.6377 -3.0860 0.042 -0.979 0.199 199 175 138 0 0
4.1345 5.6286 -3.0762 -0.177 -0.968 0.176 199 176 139 0 0
4.1461 5.6257 -3.0718 -0.233 -0.962 0.140 198 175 138 0 0
4.2142 5.6314 -3.0533 -0.174 -0.918 0.356 194 169 132 0 0
4.2603 5.6163 -3.0347 0.029 -0.988 0.149 194 170 134 0 0
4.4647 5.6578 -2.9869 -0.061 -0.989 0.134 166 146 113 0 0
4.4763 5.6455 -2.9796 0.021 -0.990 0.136 167 146 114 0 0
4.4877 5.6462 -2.9764 0.021 -0.990 0.136 171 150 118 0 0
4.4991 5.6491 -2.9739 -0.004 -0.984 0.179 176 155 124 0 0
5.1686 6.1672 -2.9382 0.521 -0.833 -0.184 192 173 144 0 0
5.1815 6.1761 -2.9371 0.480 -0.847 -0.229 189 170 140 0 0
5.1942 6.1806 -2.9348 0.484 -0.875 -0.002 190 171 141 0 0
5.3873 6.5163 -2.9834 0.654 -0.648 -0.389 191 171 139 0 0
5.9099 8.2022 -3.3612 0.879 -0.346 0.329 213 208 202 0 0
6.0750 8.0782 -3.2727 0.080 -0.466 0.881 216 211 205 0 0
6.6855 8.0256 -3.0740 0.103 -0.728 0.678 213 213 213 0 0
6.7144 7.8178 -2.9996 -0.365 -0.302 -0.881 211 211 211 0 0
6.9167 7.9824 -2.9913 0.318 -0.222 0.922 206 206 208 0 0
6.9617 8.0439 -2.9973 0.128 -0.227 0.965 205 205 204 0 0
6.9919 8.0435 -2.9882 -0.821 -0.223 0.525 203 204 200 0 0
7.0304 8.0162 -2.9681 0.087 -0.250 0.964 201 201 200 0 0
7.4451 8.0406 -2.8521 -0.322 -0.719 0.616 178 178 176 0 0
7.8212 8.2671 -2.8117 0.000 -0.766 -0.642 173 173 173 0 0
7.8348 8.2612 -2.8058 -0.098 -0.832 -0.546 175 175 175 0 0
7.8658 8.1678 -2.7669 -0.162 -0.584 0.796 176 175 176 0 0
8.8577 9.5323 -2.9030 0.915 -0.404 0.011 206 205 203 0 0
8.5996 8.1605 -2.5458 0.016 -0.937 -0.349 218 218 216 0 0
8.5954 8.0376 -2.5081 -0.645 -0.764 0.013 220 220 220 0 0
8.6204 8.0617 -2.5083 -0.761 -0.526 0.379 221 221 221 0 0
3.7950 5.6406 -3.1938 -0.052 -0.934 0.354 183 163 133 0 0
3.8514 5.6476 -3.1793 -0.189 -0.979 0.070 177 157 125 0 0
3.8630 5.6457 -3.1752 -0.189 -0.979 0.070 178 158 125 0 0
3.8750 5.6386 -3.1693 -0.200 -0.956 0.217 174 153 121 0 0
3.8863 5.6404 -3.1666 -0.060 -0.995 0.077 169 148 116 0 0
3.8978 5.6395 -3.1628 -0.054 -0.984 0.171 173 153 121 0 0
3.9324 5.6348 -3.1511 -0.102 -0.981 0.164 177 157 125 0 0
4.1496 5.6234 -3.0826 -0.183 -0.937 0.297 185 163 128 0 0
4.2176 5.6306 -3.0646 0.180 -0.965 0.193 180 158 121 0 0
4.4681 5.6561 -2.9980 -0.061 -0.989 0.134 172 153 121 0 0
4.7702 5.8072 -2.9560 0.411 -0.807 -0.425 188 168 139 0 0
5.1994 6.1986 -2.9526 0.647 -0.728 -0.226 192 173 143 0 0
5.5718 6.8563 -3.0507 0.891 -0.454 0.035 187 166 138 0 0
5.5893 6.8912 -3.0566 0.888 -0.459 -0.014 184 162 134 0 0
6.0762 8.0559 -3.2820 -0.175 -0.400 0.900 214 211 204 0 0
6.0918 8.0589 -3.2783 -0.080 -0.448 0.890 214 211 204 0 0
6.1016 8.0249 -3.2646 0.149 -0.271 0.951 214 211 204 0 0
6.7337 8.0173 -3.0737 0.300 -0.928 -0.223 213 213 213 0 0
7.8500 8.2927 -2.8284 0.250 -0.600 -0.760 175 175 175 0 0
7.8602 8.2765 -2.8202 -0.627 -0.592 -0.507 176 176 176 0 0
7.8655 8.1521 -2.7790 -0.129 -0.611 0.781 177 177 177 0 0
7.9156 7.9850 -2.7109 -0.182 -0.915 0.360 182 182 180 0 0
8.1591 8.2883 -2.7347 0.610 -0.779 0.145 191 191 191 0 0
8.1807 8.3054 -2.7337 0.610 -0.779 0.145 193 192 192 0 0
8.7692 9.3291 -2.8840 0.910 -0.415 -0.007 205 204 202 0 0
8.4229 7.9339 -2.5433 -0.761 -0.504 0.408 214 214 213 0 0
8.5953 8.3303 -2.6180 -0.378 -0.569 0.730 215 215 213 0 0
8.5254 8.0398 -2.5464 -0.237 -0.357 0.904 217 217 217 0 0
8.5756 8.0143 -2.5233 -0.337 -0.876 -0.345 220 220 218 0 0
8.6211 8.0512 -2.5215 -0.761 -0.526 0.379 221 221 219 0 0
3.9128 5.6366 -3.1701 -0.143 -0.968 -0.204 171 153 123 0 0
3.9244 5.6333 -3.1656 -0.175 -0.980 0.096 173 155 126 0 0
3.9359 5.6326 -3.1619 -0.102 -0.981 0.164 176 158 127 0 0
3.9812 5.6367 -3.1497 -0.157 -0.962 0.223 174 154 122 0 0
4.1417 5.6214 -3.0970 -0.071 -0.971 0.228 172 153 120 0 0
4.1983 5.6265 -3.0817 -0.212 -0.973 0.094 174 153 120 0 0
4.2896 5.6233 -3.0535 0.258 -0.966 -0.027 170 146 114 0 0
4.3235 5.6317 -3.0460 -0.151 -0.988 -0.037 170 149 116 0 0
4.4030 5.6501 -3.0282 -0.149 -0.989 -0.014 176 157 129 0 0
4.4145 5.6504 -3.0249 -0.030 -0.999 -0.034 177 160 131 0 0
4.6675 5.7359 -2.9768 0.572 -0.813 -0.110 176 155 126 0 0
4.6794 5.7543 -2.9791 0.136 -0.990 -0.042 179 158 127 0 0
4.6910 5.7563 -2.9763 0.235 -0.941 -0.242 183 162 133 0 0
4.7741 5.8170 -2.9709 0.411 -0.807 -0.425 185 165 136 0 0
4.9705 5.9868 -2.9667 0.448 -0.809 -0.379 190 171 142 0 0
5.1097 6.0943 -2.9595 0.528 -0.782 -0.331 191 170 141 0 0
5.1907 6.1970 -2.9682 0.677 -0.705 -0.211 191 172 142 0 0
5.2038 6.2066 -2.9674 0.620 -0.734 -0.276 191 172 142 0 0
6.0773 8.0327 -3.2910 0.127 -0.570 0.812 214 211 204 0 0
6.6180 8.0913 -3.1485 -0.645 -0.275 -0.713 216 216 216 0 0
6.7099 8.0251 -3.0999 -0.726 -0.630 0.274 214 214 214 0 0
6.7234 8.0176 -3.0935 0.087 -0.996 -0.014 214 214 214 0 0
6.7377 8.0140 -3.0881 0.178 -0.981 -0.078 213 213 213 0 0
6.8397 7.8083 -2.9919 -0.509 -0.419 -0.752 208 208 208 0 0
7.1144 8.0705 -2.9938 -0.009 -0.315 0.949 199 199 196 0 0
7.9354 8.8932 -3.0121 0.779 -0.492 -0.389 178 178 178 0 0
7.8827 8.4262 -2.8785 -0.545 -0.068 0.836 178 178 178 0 0
7.9183 7.9790 -2.7248 -0.182 -0.915 0.360 185 185 183 0 0
7.9984 7.9926 -2.7053 -0.319 -0.896 0.310 191 190 188 0 0
8.0123 7.9892 -2.7000 -0.583 -0.738 0.340 192 191 189 0 0
8.0475 8.0033 -2.6941 0.381 -0.706 0.596 193 193 192 0 0
8.1671 8.2967 -2.7522 0.470 -0.798 0.376 193 193 193 0 0
8.5863 8.0282 -2.5413 -0.560 -0.800 0.216 219 219 218 0 0
8.5991 8.0227 -2.5357 -0.477 -0.870 0.124 219 219 217 0 0
8.6061 8.0028 -2.5273 -0.236 -0.863 0.447 220 220 218 0 0
8.6331 7.9951 -2.5168 -0.714 -0.493 0.497 222 222 222 0 0
3.5344 5.8544 -3.3656 -0.297 -0.822 -0.486 194 177 151 0 0
3.5990 5.8051 -3.3305 -0.217 -0.857 -0.468 191 174 148 0 0
3.6995 5.7400 -3.2796 0.047 -0.883 -0.467 185 168 141 0 0
3.7113 5.7375 -3.2753 0.089 -0.915 -0.393 186 169 142 0 0
3.7235 5.7313 -3.2696 0.218 -0.923 -0.317 185 168 141 0 0
3.7360 5.7222 -3.2630 0.125 -0.943 -0.310 184 167 139 0 0
4.0078 5.6310 -3.1526 0.173 -0.955 -0.241 176 157 125 0 0
4.0992 5.6271 -3.1241 -0.038 -0.993 -0.108 170 153 121 0 0
4.2931 5.6211 -3.0643 0.142 -0.979 -0.145 171 152 120 0 0
4.3836 5.6506 -3.0469 -0.066 -0.993 -0.103 179 160 130 0 0
4.4065 5.6489 -3.0395 0.053 -0.962 -0.268 181 164 136 0 0
4.4179 5.6487 -3.0360 0.093 -0.964 -0.249 181 164 136 0 0
4.4977 5.6841 -3.0236 0.359 -0.857 -0.370 181 164 136 0 0
4.5322 5.7013 -3.0188 0.437 -0.810 -0.390 176 155 124 0 0
4.5668 5.7159 -3.0132 -0.037 -0.957 -0.288 179 160 131 0 0
4.6711 5.7447 -2.9914 0.470 -0.860 -0.198 179 158 129 0 0
4.6946 5.7606 -2.9895 0.235 -0.941 -0.242 186 166 136 0 0
4.7064 5.7723 -2.9897 0.563 -0.794 -0.227 185 166 136 0 0
4.7183 5.7800 -2.9887 0.589 -0.761 -0.271 184 167 139 0 0
4.7777 5.8203 -2.9839 0.550 -0.828 -0.107 184 165 134 0 0
4.8872 5.9138 -2.9813 0.124 -0.980 0.158 189 166 137 0 0
5.0118 6.0167 -2.9772 0.136 -0.912 -0.387 189 168 137 0 0
5.1140 6.1036 -2.9747 0.528 -0.782 -0.331 194 170 142 0 0
5.1265 6.1082 -2.9724 0.627 -0.772 -0.108 191 169 141 0 0
5.3248 6.4068 -3.0093 0.572 -0.729 0.376 192 171 143 0 0
5.3385 6.4175 -3.0087 0.691 -0.702 0.169 192 168 140 0 0
5.8607 8.0713 -3.3848 0.954 -0.207 0.217 210 206 197 0 0
6.0796 8.0174 -3.3021 0.127 -0.570 0.812 214 210 205 0 0
6.6384 8.0213 -3.1367 -0.704 -0.237 -0.669 215 215 215 0 0
6.7283 8.0183 -3.1090 0.087 -0.996 -0.014 214 214 214 0 0
6.8677 7.7826 -2.9916 -0.191 -0.382 -0.904 208 208 208 0 0
6.8918 7.6412 -2.9390 0.188 -0.184 0.965 206 206 206 0 0
6.9766 7.9244 -3.0047 -0.444 -0.349 0.825 205 205 205 0 0
7.9680 8.9796 -3.0484 0.738 -0.491 -0.463 181 181 181 0 0
7.9294 7.9971 -2.7440 -0.192 -0.678 0.709 186 186 184 0 0
7.9873 7.9900 -2.7244 -0.319 -0.896 0.310 191 191 190 0 0
8.0019 7.9887 -2.7196 -0.009 -0.764 0.646 192 191 190 0 0
8.0492 7.9945 -2.7074 0.635 -0.641 0.431 194 193 192 0 0
8.0723 8.0171 -2.7078 0.635 -0.641 0.431 193 193 193 0 0
8.0965 8.0424 -2.7087 0.678 -0.667 0.308 195 194 195 0 0
8.1967 8.2786 -2.7548 0.005 -0.987 -0.159 197 195 196 0 0
8.2212 8.3034 -2.7554 -0.134 -0.818 -0.559 196 196 194 0 0
8.5948 8.0370 -2.5584 -0.209 -0.725 0.656 220 220 219 0 0
8.6026 8.0191 -2.5503 -0.560 -0.826 0.062 220 220 218 0 0
8.5996 7.9751 -2.5370 0.017 -0.524 0.852 221 221 219 0 0
8.6237 7.9969 -2.5368 -0.801 -0.436 0.411 221 221 219 0 0
8.6366 7.9915 -2.5313 -0.872 -0.415 0.259 223 223 221 0 0
8.6640 8.0212 -2.5326 -0.108 -0.637 0.764 223 223 221 0 0
8.6644 7.9859 -2.5212 -0.302 -0.623 0.722 224 224 222 0 0
8.7013 7.9661 -2.5038 -0.707 -0.449 0.546 225 225 223 0 0
3.7266 5.7340 -3.2824 0.204 -0.899 -0.388 185 168 140 0 0
3.7378 5.7370 -3.2800 0.318 -0.847 -0.426 184 167 139 0 0
3.7497 5.7345 -3.2757 0.198 -0.919 -0.342 184 167 139 0 0
4.1026 5.6267 -3.1356 -0.174 -0.984 -0.028 174 157 128 0 0
4.1481 5.6266 -3.1220 -0.118 -0.987 -0.114 174 157 129 0 0
4.2612 5.6504 -3.0960 -0.034 -0.987 -0.159 178 159 129 0 0
4.5702 5.7199 -3.0263 0.083 -0.959 -0.270 177 159 129 0 0
4.6868 5.7761 -3.0097 0.224 -0.824 -0.521 183 162 133 0 0
4.6983 5.7713 -3.0047 0.504 -0.814 -0.288 185 166 136 0 0
4.7101 5.7789 -3.0036 0.563 -0.794 -0.227 183 165 135 0 0
4.8059 5.8590 -3.0009 0.329 -0.887 -0.324 183 165 135 0 0
5.1054 6.1015 -2.9900 0.624 -0.746 -0.232 190 170 140 0 0
5.1182 6.1103 -2.9890 0.521 -0.763 -0.383 194 169 141 0 0
5.2289 6.2701 -3.0077 0.548 -0.836 -0.032 191 172 142 0 0
5.3298 6.4183 -3.0255 0.606 -0.792 0.076 193 172 144 0 0
5.3434 6.4292 -3.0250 0.622 -0.783 -0.024 196 172 146 0 0
5.3571 6.4400 -3.0244 0.699 -0.714 0.035 196 172 144 0 0
5.9243 8.2823 -3.4507 0.954 -0.168 0.247 210 206 198 0 0
6.0719 8.0347 -3.3267 -0.636 -0.399 0.661 214 210 204 0 0
6.0821 8.0033 -3.3135 -0.466 -0.640 0.611 214 210 205 0 0
6.0964 7.9985 -3.3077 -0.466 -0.640 0.611 216 211 207 0 0
6.1203 7.9604 -3.2882 0.251 -0.945 -0.210 215 212 208 0 0
6.1370 7.9710 -3.2867 0.103 -0.945 0.311 214 213 209 0 0
6.1522 7.9722 -3.2825 -0.129 -0.901 0.414 214 213 209 0 0
6.1675 7.9735 -3.2784 -0.225 -0.777 0.588 216 215 211 0 0
6.1762 7.9360 -3.2637 0.064 -0.764 0.642 216 216 213 0 0
6.8551 7.8962 -3.0484 -0.264 -0.377 -0.888 210 210 210 0 0
6.8722 7.9057 -3.0463 -0.186 -0.438 -0.880 209 209 209 0 0
6.9012 7.9642 -3.0566 -0.544 -0.497 -0.676 209 209 209 0 0
7.1147 8.3972 -3.1329 -0.863 -0.222 -0.454 205 205 206 0 0
7.1183 8.3493 -3.1164 -0.863 -0.222 -0.454 206 206 206 0 0
7.7654 8.6791 -3.0300 0.821 -0.538 -0.188 183 183 183 0 0
8.0325 8.0190 -2.7370 0.080 -0.894 -0.441 194 192 193 0 0
8.2482 7.8312 -2.6119 0.761 -0.638 0.116 208 208 208 0 0
8.2715 7.8533 -2.6121 0.717 -0.636 0.285 208 208 208 0 0
8.3668 8.0228 -2.6385 0.877 -0.465 -0.124 211 211 209 0 0
8.5955 8.0266 -2.5716 -0.328 -0.774 0.541 220 220 219 0 0
8.6308 8.0756 -2.5769 -0.290 -0.482 0.827 221 221 219 0 0
8.6463 8.0765 -2.5725 -0.085 -0.537 0.840 221 221 219 0 0
8.6613 8.0758 -2.5678 -0.158 -0.550 0.820 222 223 219 0 0
8.6523 8.0175 -2.5517 -0.244 -0.476 0.845 222 223 219 0 0
8.6618 8.0040 -2.5445 0.057 -0.573 0.818 223 224 220 0 0
8.6631 7.9710 -2.5334 -0.687 -0.525 0.503 224 224 220 0 0
8.6980 7.9467 -2.5151 -0.682 -0.352 0.641 225 225 223 0 0
3.0389 6.8658 -3.8680 0.975 -0.116 0.188 210 195 170 0 0
3.7302 5.7322 -3.2936 -0.153 -0.840 -0.520 187 167 141 0 0
4.5738 5.7368 -3.0435 0.010 -0.932 -0.363 180 163 136 0 0
4.6085 5.7352 -3.0326 0.410 -0.830 -0.380 186 166 138 0 0
4.6784 5.7644 -3.0213 0.519 -0.834 -0.189 185 165 136 0 0
4.6904 5.7852 -3.0245 0.309 -0.820 -0.482 184 164 136 0 0
4.7019 5.7785 -3.0188 0.486 -0.825 -0.289 182 164 136 0 0
4.8097 5.8661 -3.0152 0.328 -0.884 -0.334 183 163 131 0 0
4.9582 6.0010 -3.0147 0.445 -0.843 -0.303 185 164 140 0 0
5.1227 6.1212 -3.0047 0.521 -0.763 -0.383 193 170 139 0 0
5.3472 6.4281 -3.0375 0.716 -0.698 -0.022 193 172 143 0 0
5.9300 8.2884 -3.4682 0.954 -0.168 0.247 209 205 198 0 0
6.0555 7.9963 -3.3358 -0.875 -0.261 0.408 211 210 203 0 0
6.0721 8.0061 -3.3341 -0.516 -0.407 0.754 211 210 204 0 0
6.0922 7.9428 -3.3075 -0.026 -0.997 0.078 214 212 207 0 0
6.1068 7.9401 -3.3023 -0.203 -0.976 0.077 215 212 209 0 0
6.1222 7.9429 -3.2986 -0.019 -0.982 -0.188 215 211 209 0 0
6.1393 7.9565 -3.2979 0.067 -0.991 -0.115 215 213 211 0 0
6.1663 7.9380 -3.2839 -0.014 -0.900 0.435 216 215 213 0 0
6.1809 7.9361 -3.2789 -0.291 -0.789 0.541 216 216 214 0 0
6.7615 7.8575 -3.0802 -0.982 -0.177 0.066 213 213 213 0 0
6.8797 7.9173 -3.0644 -0.287 -0.437 -0.853 210 210 210 0 0
6.9071 7.9693 -3.0731 -0.541 -0.403 -0.738 210 210 210 0 0
6.9174 7.9498 -3.0637 -0.497 -0.488 -0.717 209 209 209 0 0
6.9486 7.7741 -2.9973 -0.760 -0.412 -0.502 208 208 208 0 0
7.2925 7.9502 -2.9520 -0.633 -0.737 0.238 194 193 191 0 0
7.3067 7.9475 -2.9469 -0.405 -0.807 0.430 192 192 190 0 0
7.5470 7.8512 -2.8439 -0.090 -0.815 -0.573 185 185 183 0 0
7.5610 7.8484 -2.8389 0.211 -0.810 -0.548 185 185 183 0 0
7.8296 8.5595 -2.9898 -0.103 -0.549 -0.830 183 183 181 0 0
8.0419 8.0317 -2.7550 0.022 -0.840 -0.542 194 194 194 0 0
8.0501 8.0123 -2.7463 0.364 -0.927 -0.090 194 194 193 0 0
8.0697 8.0249 -2.7445 0.528 -0.811 -0.253 195 195 194 0 0
8.2880 7.8836 -2.6335 0.693 -0.719 -0.052 209 209 207 0 0
8.6619 8.0653 -2.5811 0.182 -0.561 0.807 222 222 220 0 0
8.6751 8.0605 -2.5756 -0.204 -0.599 0.775 222 222 220 0 0
8.6963 8.0748 -2.5739 -0.407 -0.668 0.623 223 223 221 0 0
8.6793 7.9263 -2.5307 -0.538 -0.550 0.639 225 225 225 0 0
3.0511 6.8948 -3.8886 0.961 -0.141 0.236 210 194 168 0 0
3.4275 6.0197 -3.4905 -0.266 -0.866 -0.423 196 179 152 0 0
3.7075 5.7592 -3.3220 -0.230 -0.773 -0.592 189 170 143 0 0
3.9928 5.6618 -3.2051 0.257 -0.965 -0.054 181 165 139 0 0
4.7293 5.8012 -3.0310 0.531 -0.840 -0.110 181 162 132 0 0
4.8135 5.8728 -3.0293 0.328 -0.884 -0.334 183 162 131 0 0
4.8869 5.9339 -3.0273 0.529 -0.817 -0.229 185 163 132 0 0
4.9488 5.9812 -3.0244 0.321 -0.850 -0.418 189 168 141 0 0
5.0371 6.0554 -3.0223 0.435 -0.822 -0.368 187 167 137 0 0
5.3097 6.3908 -3.0505 0.640 -0.745 -0.188 192 171 142 0 0
5.3656 6.4471 -3.0522 0.665 -0.745 -0.053 191 170 141 0 0
5.8184 7.8730 -3.3829 0.958 -0.129 0.257 180 165 146 0 0
6.0627 8.0125 -3.3557 -0.489 -0.368 0.791 211 210 203 0 0
6.0816 7.9411 -3.3267 0.628 -0.762 -0.157 211 210 205 0 0
6.7784 7.8463 -3.0880 -0.941 -0.322 0.100 212 212 212 0 0
6.8627 8.0808 -3.1394 -0.180 -0.339 -0.924 211 211 211 0 0
6.9210 7.8226 -3.0377 -0.720 -0.614 -0.323 209 209 209 0 0
6.9519 7.8280 -3.0303 -0.789 -0.541 -0.292 208 208 208 0 0
6.9807 7.8248 -3.0206 0.093 -0.693 -0.715 208 208 208 0 0
7.3129 7.9523 -2.9632 -0.495 -0.721 0.484 194 193 191 0 0
7.5749 7.8777 -2.8607 0.029 -0.917 -0.397 186 186 184 0 0
7.5585 7.7775 -2.8329 0.207 -0.891 -0.404 186 186 184 0 0
7.5973 7.8543 -2.8464 -0.413 -0.835 -0.364 187 186 184 0 0
7.8855 8.2780 -2.8988 -0.805 -0.259 -0.534 186 186 186 0 0
7.8969 8.2654 -2.8913 -0.667 -0.280 -0.690 186 186 186 0 0
8.0312 7.9454 -2.7468 -0.531 -0.334 0.779 197 197 195 0 0
8.4557 8.2270 -2.7122 0.842 -0.454 -0.290 212 212 211 0 0
8.4997 8.3004 -2.7230 0.816 -0.468 -0.341 212 212 211 0 0
8.5823 8.4721 -2.7545 0.823 -0.490 -0.287 214 214 212 0 0
9.2800 9.9803 -3.0390 -0.820 -0.346 0.457 217 217 217 0 0
9.2752 9.9232 -3.0218 -0.913 -0.359 0.194 217 217 217 0 0
9.2852 9.7704 -2.9689 -0.469 -0.813 -0.346 220 220 220 0 0
8.6410 8.0395 -2.5957 -0.044 -0.803 0.595 221 221 219 0 0
8.6694 8.0714 -2.5976 -0.323 -0.688 0.650 223 223 221 0 0
8.6752 8.0489 -2.5886 0.148 -0.897 0.417 223 223 221 0 0
8.6946 8.0588 -2.5860 -0.593 -0.435 0.678 223 223 221 0 0
3.0550 6.8943 -3.9020 0.957 -0.171 0.234 211 195 169 0 0
3.7555 5.7766 -3.3262 -0.127 -0.824 -0.553 190 170 143 0 0
4.0077 5.6601 -3.2128 0.085 -0.904 -0.419 178 161 135 0 0
4.0192 5.6596 -3.2092 0.085 -0.904 -0.419 178 161 135 0 0
4.2366 5.6612 -3.1449 0.090 -0.871 -0.483 177 160 131 0 0
4.6158 5.7736 -3.0687 0.497 -0.819 -0.287 182 163 133 0 0
4.8658 5.9113 -3.0394 0.508 -0.837 -0.203 185 166 134 0 0
5.0412 6.0628 -3.0368 0.514 -0.791 -0.331 186 165 136 0 0
5.0540 6.0737 -3.0366 0.499 -0.776 -0.387 186 166 137 0 0
5.8238 7.8795 -3.3999 0.958 -0.129 0.257 179 166 147 0 0
5.9489 8.3571 -3.5194 0.954 -0.154 0.256 210 206 199 0 0
6.1715 7.9136 -3.3074 -0.489 -0.659 0.571 216 215 213 0 0
6.1869 7.9168 -3.3039 -0.291 -0.789 0.541 215 215 213 0 0
6.7539 7.9141 -3.1340 -0.887 -0.375 -0.269 214 213 213 0 0
6.9369 7.9292 -3.0844 -0.894 -0.272 -0.357 210 210 210 0 0
6.9275 7.8304 -3.0547 -0.700 -0.676 -0.230 209 209 209 0 0
6.9387 7.8158 -3.0466 -0.723 -0.562 -0.403 209 209 209 0 0
6.9548 7.8207 -3.0434 -0.867 -0.448 -0.216 209 209 209 0 0
6.9678 7.8136 -3.0372 -0.624 -0.672 -0.400 209 209 209 0 0
7.0992 8.2154 -3.1299 -0.832 -0.487 -0.265 208 208 208 0 0
7.2121 7.9507 -3.0093 -0.445 -0.212 0.870 201 201 201 0 0
7.3318 7.9494 -2.9732 -0.467 -0.875 -0.128 195 195 192 0 0
7.3849 7.9256 -2.9496 -0.280 -0.520 0.807 193 192 190 0 0
7.5802 7.8793 -2.8762 0.051 -0.863 -0.502 189 189 187 0 0
7.6905 8.1353 -2.9273 -0.642 -0.524 -0.559 189 188 186 0 0
7.9239 8.1926 -2.8765 -0.541 -0.445 -0.714 190 190 190 0 0
7.9416 8.1994 -2.8735 -0.761 -0.464 -0.454 190 190 190 0 0
7.9363 7.9608 -2.7967 0.461 -0.860 0.217 193 193 193 0 0
7.9681 8.0093 -2.8032 0.143 -0.977 -0.159 194 194 194 0 0
7.9787 7.9964 -2.7958 0.024 -0.996 0.087 195 195 195 0 0
8.0334 8.0230 -2.7882 -0.063 -0.963 -0.261 195 195 195 0 0
8.0168 7.9334 -2.7637 -0.497 -0.646 0.580 197 197 197 0 0
8.0275 7.9212 -2.7566 -0.767 -0.406 0.497 197 197 196 0 0
8.0159 7.8470 -2.7356 -0.816 -0.467 0.341 198 198 196 0 0
8.2242 7.8083 -2.6608 0.694 -0.619 -0.368 210 210 210 0 0
8.2584 7.8589 -2.6673 0.736 -0.550 -0.394 211 211 210 0 0
8.4196 8.1606 -2.7182 0.787 -0.464 -0.407 213 213 213 0 0
8.3855 7.9942 -2.6738 0.147 -0.905 0.400 214 214 214 0 0
8.4014 7.9962 -2.6697 -0.063 -0.960 -0.271 214 214 212 0 0
8.4116 7.9836 -2.6625 0.018 -1.000 0.016 215 215 215 0 0
9.2520 9.9862 -3.0694 -0.784 -0.290 0.550 217 217 217 0 0
9.2682 9.9813 -3.0630 -0.924 -0.290 0.247 217 217 217 0 0
9.2791 9.9632 -3.0538 -0.820 -0.346 0.457 218 218 218 0 0
9.3163 10.0108 -3.0583 -0.700 -0.709 0.087 219 219 219 0 0
9.2810 9.7459 -2.9818 -0.070 -0.732 -0.677 221 221 221 0 0
8.6408 8.0271 -2.6085 -0.001 -0.968 0.253 222 222 221 0 0
8.6511 8.0154 -2.6015 0.254 -0.921 -0.294 223 223 221 0 0
8.6776 8.0428 -2.6026 0.148 -0.897 0.417 223 223 221 0 0
8.6944 8.0467 -2.5989 -0.520 -0.505 0.689 223 223 221 0 0
8.7224 7.9696 -2.5652 -0.605 -0.348 0.716 226 226 224 0 0
