ply
format ascii 1.0
element vertex 816
property float x
property float y
property float z
property float nx
property float ny
property float nz
property uchar diffuse_red
property uchar diffuse_green
property uchar diffuse_blue
property uchar class
property uchar detection
end_header
2.9759 6.3975 -3.4134 -0.756 -0.553 -0.350 201 178 147 0 0
2.9859 6.3893 -3.4146 -0.812 -0.578 -0.083 199 176 146 0 0
2.9945 6.3790 -3.4151 -0.845 -0.467 -0.259 195 175 143 0 0
3.0010 6.3657 -3.4149 -0.858 -0.508 -0.081 193 172 140 0 0
3.0033 6.3466 -3.4130 -0.669 -0.651 -0.359 198 173 142 0 0
3.1404 6.2076 -3.4253 -0.825 -0.493 -0.276 193 174 144 0 0
3.1479 6.1748 -3.4228 -0.465 -0.721 -0.514 193 174 144 0 0
3.1592 6.1687 -3.4245 -0.465 -0.721 -0.514 194 175 145 0 0
3.8506 5.9225 -3.5432 -0.192 -0.877 -0.441 189 172 144 0 0
4.0011 5.9164 -3.5750 -0.364 -0.882 -0.299 185 168 140 0 0
1.1187 10.0820 -3.4885 -0.237 -0.695 -0.679 230 229 227 0 0
1.0730 9.8560 -3.4501 -0.588 -0.686 0.428 231 227 226 0 0
1.2291 10.0186 -3.5045 -0.984 0.088 0.154 230 226 225 0 0
1.2704 9.8831 -3.4964 -0.463 -0.534 -0.707 227 223 220 0 0
1.2837 9.8739 -3.4981 -0.463 -0.534 -0.707 227 223 220 0 0
1.3208 9.6773 -3.4813 -0.861 -0.445 -0.247 226 222 219 0 0
1.3309 9.6581 -3.4811 -0.740 -0.561 0.372 225 221 218 0 0
1.3442 9.6498 -3.4829 -0.606 -0.767 0.211 224 221 217 0 0
1.4558 9.7005 -3.5136 -0.419 -0.867 -0.269 224 219 217 0 0
1.4976 9.6796 -3.5200 -0.163 -0.850 0.501 224 217 214 0 0
1.5096 9.6666 -3.5210 -0.084 -0.976 -0.201 223 217 214 0 0
1.8119 9.3153 -3.5422 -0.408 -0.911 -0.061 135 100 88 0 0
1.8232 9.3014 -3.5429 -0.554 -0.800 -0.231 134 98 85 0 0
1.8364 9.2928 -3.5447 -0.554 -0.800 -0.231 154 118 104 0 0
1.8296 9.2301 -3.5353 -0.727 -0.684 -0.067 171 134 120 0 0
1.8651 9.1942 -3.5385 -0.712 -0.635 -0.298 183 143 126 0 0
2.1001 8.9570 -3.5596 -0.302 -0.914 -0.272 138 99 88 0 0
2.2250 9.0583 -3.5995 0.344 -0.876 -0.338 138 101 89 0 0
2.2472 9.0712 -3.6059 0.250 -0.885 -0.393 140 103 92 0 0
2.2675 9.0794 -3.6114 0.250 -0.885 -0.393 141 105 94 0 0
2.2881 9.0880 -3.6169 0.233 -0.906 -0.354 125 91 80 0 0
2.3085 9.0962 -3.6224 0.080 -0.869 -0.488 128 90 82 0 0
2.3607 9.1387 -3.6391 0.438 -0.815 -0.380 147 123 118 0 0
2.5764 9.3547 -3.7132 0.225 -0.628 -0.745 207 201 197 0 0
2.5677 9.2550 -3.6987 0.141 -0.605 -0.784 208 202 195 0 0
2.5622 8.9712 -3.6617 -0.236 -0.971 0.048 213 208 202 0 0
2.5877 8.9891 -3.6695 -0.175 -0.982 -0.066 213 209 203 0 0
2.6044 8.9874 -3.6729 -0.057 -0.977 -0.203 213 210 205 0 0
2.6834 9.0446 -3.6972 -0.850 -0.501 0.164 216 211 205 0 0
2.6838 9.0077 -3.6927 -0.724 -0.689 0.026 217 212 206 0 0
3.0505 8.7418 -3.7387 -0.736 0.003 0.678 216 213 208 0 0
2.8377 6.6869 -3.4331 -0.848 -0.440 -0.295 206 183 152 0 0
2.8530 6.6138 -3.4272 -0.751 -0.530 -0.394 209 186 155 0 0
2.8574 6.5966 -3.4259 -0.701 -0.516 -0.492 208 185 153 0 0
2.9728 6.4184 -3.4285 -0.814 -0.493 -0.308 200 177 144 0 0
2.9871 6.3936 -3.4285 -0.815 -0.528 -0.240 202 180 150 0 0
2.9942 6.3812 -3.4284 -0.872 -0.471 -0.133 198 177 146 0 0
3.0065 6.3537 -3.4276 -0.639 -0.760 -0.119 196 171 140 0 0
3.0154 6.3439 -3.4283 -0.783 -0.613 -0.104 191 166 134 0 0
3.0858 6.2438 -3.4310 -0.659 -0.685 -0.311 195 172 140 0 0
3.5745 5.9566 -3.5008 -0.327 -0.892 -0.312 183 166 138 0 0
1.2316 10.0911 -3.5307 -0.993 0.100 0.069 231 227 224 0 0
1.2267 10.0167 -3.5202 -0.991 0.090 0.097 229 225 224 0 0
1.1453 9.6201 -3.4518 -0.157 -0.959 -0.234 230 225 222 0 0
1.2652 9.8718 -3.5101 -0.799 -0.519 -0.306 228 225 220 0 0
1.2606 9.8013 -3.5001 -0.342 -0.746 0.571 228 225 221 0 0
1.3089 9.9116 -3.5247 0.033 -0.997 -0.062 227 223 220 0 0
1.3122 9.8683 -3.5199 -0.372 -0.882 0.291 227 223 220 0 0
1.3253 9.8583 -3.5214 -0.326 -0.945 0.019 229 225 222 0 0
1.3479 9.8801 -3.5291 -0.642 -0.765 0.055 227 223 220 0 0
1.3045 9.6819 -3.4944 -0.727 -0.686 -0.034 226 222 219 0 0
1.7207 9.5244 -3.5650 -0.981 -0.126 -0.149 217 213 209 0 0
1.7642 9.3694 -3.5547 -0.837 -0.541 0.083 182 155 146 0 0
1.8287 9.2327 -3.5513 -0.729 -0.677 -0.100 177 142 129 0 0
1.8404 9.2205 -3.5523 -0.889 -0.451 0.082 163 127 114 0 0
1.8510 9.2051 -3.5527 -0.821 -0.570 0.037 174 138 123 0 0
1.8611 9.1885 -3.5528 -0.714 -0.684 -0.150 179 142 126 0 0
2.0812 8.9557 -3.5710 -0.112 -0.909 -0.401 151 111 101 0 0
2.1007 8.9631 -3.5762 -0.084 -0.907 -0.412 141 99 90 0 0
2.2493 9.0807 -3.6236 0.191 -0.805 -0.562 149 111 101 0 0
2.2698 9.0895 -3.6292 0.191 -0.805 -0.562 153 114 106 0 0
2.2905 9.0983 -3.6348 0.191 -0.805 -0.562 133 95 87 0 0
2.3127 9.1108 -3.6413 0.250 -0.774 -0.582 136 104 97 0 0
2.5478 9.4158 -3.7314 0.493 -0.550 -0.674 207 200 194 0 0
2.5336 9.3022 -3.7138 0.330 -0.775 -0.540 208 201 196 0 0
2.5351 9.2655 -3.7095 0.147 -0.783 -0.605 208 203 198 0 0
2.5428 8.9332 -3.6688 -0.957 -0.268 0.111 216 211 205 0 0
2.5908 8.9622 -3.6829 -0.199 -0.761 0.618 216 213 208 0 0
2.6052 8.9559 -3.6853 -0.232 -0.853 0.467 217 213 207 0 0
2.6731 8.9146 -3.6948 0.260 -0.952 0.163 218 213 208 0 0
2.9595 8.7429 -3.7353 -0.983 -0.117 -0.139 220 215 211 0 0
2.8071 6.7897 -3.4529 -0.653 -0.576 -0.492 212 191 162 0 0
2.8616 6.6058 -3.4413 -0.528 -0.709 -0.467 206 184 152 0 0
2.9125 6.5171 -3.4411 -0.656 -0.643 -0.396 200 177 145 0 0
2.9934 6.3826 -3.4416 -0.858 -0.508 -0.081 198 177 145 0 0
3.0016 6.3717 -3.4419 -0.811 -0.572 0.123 202 179 147 0 0
3.0070 6.3570 -3.4412 -0.808 -0.588 -0.040 201 177 144 0 0
3.0189 6.3515 -3.4431 -0.519 -0.777 -0.356 196 172 138 0 0
3.1157 6.2658 -3.4533 -0.582 -0.712 -0.393 197 174 142 0 0
3.1341 6.2256 -3.4522 -0.604 -0.681 -0.414 195 176 145 0 0
3.2813 6.1235 -3.4712 -0.557 -0.787 -0.264 191 171 140 0 0
4.0256 5.9675 -3.6135 0.085 -0.869 -0.487 189 172 145 0 0
4.0483 5.9732 -3.6192 -0.019 -0.804 -0.595 191 174 146 0 0
4.3328 6.0482 -3.6908 -0.025 -0.929 -0.370 189 171 147 0 0
5.2236 6.6310 -3.9593 0.579 -0.767 -0.277 194 181 165 0 0
5.5300 6.8985 -4.0602 0.579 -0.767 -0.277 219 219 213 0 0
1.1376 9.8196 -3.4917 -0.127 -0.832 0.540 231 227 224 0 0
1.1975 9.6993 -3.4893 -0.614 -0.664 -0.427 229 226 221 0 0
1.2163 9.7099 -3.4947 -0.546 -0.822 -0.163 229 226 220 0 0
1.3525 9.9017 -3.5493 -0.445 -0.790 -0.422 228 224 221 0 0
1.3073 9.6448 -3.5063 -0.840 -0.540 -0.050 227 223 220 0 0
1.3324 9.6232 -3.5090 -0.465 -0.584 0.666 226 223 219 0 0
1.4046 9.6511 -3.5284 -0.239 -0.734 0.636 226 222 221 0 0
1.4573 9.7171 -3.5484 -0.547 -0.784 -0.294 224 220 217 0 0
1.4719 9.6612 -3.5444 -0.468 -0.792 0.392 223 219 216 0 0
1.6464 9.5515 -3.5684 -0.502 -0.794 0.343 221 216 212 0 0
1.6692 9.5705 -3.5759 -0.275 -0.955 0.114 221 216 212 0 0
1.8553 9.2217 -3.5716 -0.678 -0.576 -0.456 184 148 134 0 0
1.8911 9.1865 -3.5749 -0.660 -0.708 -0.251 183 142 126 0 0
2.0363 8.9711 -3.5789 -0.375 -0.767 -0.520 160 118 107 0 0
2.0665 8.9646 -3.5847 -0.083 -0.904 -0.421 158 118 106 0 0
2.0823 8.9630 -3.5879 -0.112 -0.909 -0.401 161 120 108 0 0
2.1018 8.9707 -3.5932 -0.092 -0.876 -0.474 138 96 85 0 0
2.2539 9.0965 -3.6427 0.248 -0.819 -0.518 145 106 98 0 0
2.2751 9.1066 -3.6486 0.248 -0.819 -0.518 140 104 97 0 0
2.2963 9.1167 -3.6546 0.290 -0.783 -0.551 126 97 91 0 0
2.3188 9.1297 -3.6612 0.290 -0.783 -0.551 150 132 127 0 0
2.4981 9.1859 -3.7077 0.216 -0.956 -0.200 210 205 199 0 0
2.6078 9.1184 -3.7229 0.310 -0.784 -0.537 216 212 205 0 0
2.5773 8.8253 -3.6785 0.195 -0.936 -0.292 218 213 207 0 0
2.8587 8.7937 -3.7360 -0.127 -0.846 0.518 219 216 209 0 0
2.8938 6.6339 -3.4652 -0.397 -0.911 0.110 206 183 152 0 0
2.9147 6.5231 -3.4555 -0.730 -0.659 -0.183 200 175 144 0 0
3.0154 6.3716 -3.4580 -0.696 -0.537 -0.477 200 176 143 0 0
3.0238 6.3611 -3.4585 -0.696 -0.537 -0.477 197 173 139 0 0
3.1179 6.2712 -3.4675 -0.726 -0.615 -0.307 195 172 140 0 0
3.1259 6.2604 -3.4679 -0.618 -0.734 -0.282 195 173 141 0 0
3.3214 6.1151 -3.4919 -0.532 -0.678 -0.508 192 169 138 0 0
3.6815 5.9693 -3.5519 -0.052 -0.921 -0.387 185 165 134 0 0
4.3364 6.0542 -3.7062 -0.025 -0.929 -0.370 190 174 147 0 0
5.2790 6.6897 -3.9943 0.534 -0.767 -0.356 193 181 166 0 0
5.5408 6.9119 -4.0802 0.534 -0.767 -0.356 218 218 213 0 0
1.1887 9.7297 -3.5073 -0.593 -0.805 0.022 230 226 223 0 0
1.2013 9.7188 -3.5086 -0.676 -0.669 -0.308 229 227 222 0 0
1.2395 9.7421 -3.5200 -0.508 -0.765 0.397 229 226 221 0 0
1.2529 9.7336 -3.5219 -0.375 -0.898 0.232 229 225 222 0 0
1.3489 9.6314 -3.5296 -0.254 -0.751 0.609 227 224 219 0 0
1.4658 9.6478 -3.5574 -0.928 -0.299 0.222 224 220 217 0 0
1.7652 9.7120 -3.6316 -0.989 0.084 -0.121 220 216 213 0 0
1.7263 9.5042 -3.5960 -0.776 -0.469 -0.422 220 215 213 0 0
1.7367 9.4871 -3.5960 -0.776 -0.469 -0.422 220 214 212 0 0
1.8654 9.2100 -3.5882 -0.498 -0.766 -0.408 187 150 136 0 0
2.1036 8.9798 -3.6106 -0.074 -0.869 -0.490 147 105 92 0 0
2.2322 9.0895 -3.6531 0.406 -0.785 -0.468 148 111 102 0 0
2.2556 9.1052 -3.6603 0.334 -0.796 -0.505 136 101 93 0 0
2.2783 9.1191 -3.6671 0.334 -0.796 -0.505 128 104 96 0 0
2.5224 9.3666 -3.7529 0.500 -0.711 -0.494 210 203 195 0 0
2.4976 9.1893 -3.7244 0.216 -0.956 -0.200 214 208 202 0 0
2.5064 9.1698 -3.7238 -0.446 -0.700 -0.558 215 209 203 0 0
2.5204 9.1620 -3.7258 -0.190 -0.530 -0.826 216 209 203 0 0
2.5787 9.0973 -3.7302 0.503 -0.832 -0.235 215 213 206 0 0
2.6326 9.1774 -3.7525 0.341 -0.845 -0.411 216 213 206 0 0
3.1330 8.9122 -3.8279 -0.893 0.367 0.260 217 214 208 0 0
3.0978 8.8097 -3.8068 -0.899 0.376 0.227 216 213 207 0 0
2.9175 6.5299 -3.4703 -0.656 -0.643 -0.396 201 176 145 0 0
2.9847 6.4436 -3.4738 -0.740 -0.528 -0.416 198 174 140 0 0
3.1124 6.2661 -3.4787 -0.301 -0.926 -0.228 196 173 141 0 0
5.3171 6.7308 -4.0235 0.531 -0.764 -0.366 192 182 167 0 0
5.5995 6.9738 -4.1172 0.535 -0.759 -0.371 218 218 215 0 0
5.6618 6.9702 -4.1304 0.415 -0.562 0.716 220 220 216 0 0
6.0678 7.2848 -4.2606 0.658 -0.735 0.162 222 223 219 0 0
1.1189 9.8218 -3.5200 -0.278 -0.332 0.901 232 229 226 0 0
1.2045 9.7907 -3.5348 -0.717 -0.667 0.204 230 226 223 0 0
1.2027 9.7301 -3.5264 -0.714 -0.600 -0.359 231 227 224 0 0
1.2135 9.7132 -3.5266 -0.553 -0.625 -0.552 230 226 223 0 0
1.2362 9.7367 -3.5346 -0.508 -0.765 0.397 231 227 223 0 0
1.4543 9.6683 -3.5737 -0.365 -0.455 0.812 226 223 218 0 0
2.0297 9.0052 -3.6134 -0.552 -0.801 -0.230 153 112 98 0 0
2.0940 9.0014 -3.6271 0.011 -0.922 -0.387 153 112 99 0 0
2.2352 9.1014 -3.6714 0.402 -0.777 -0.485 143 109 102 0 0
2.2579 9.1154 -3.6782 0.395 -0.782 -0.482 137 114 106 0 0
2.2831 9.1352 -3.6864 0.411 -0.725 -0.553 171 160 154 0 0
2.4870 9.4532 -3.7732 0.489 -0.514 -0.705 204 199 194 0 0
2.4864 9.2081 -3.7408 0.026 -0.860 -0.510 216 209 203 0 0
2.5050 9.2109 -3.7453 0.092 -0.810 -0.580 217 210 204 0 0
2.5361 9.2020 -3.7509 0.117 -0.878 -0.464 216 211 205 0 0
2.5686 9.0795 -3.7420 0.449 -0.842 -0.300 217 214 207 0 0
2.6394 9.1969 -3.7730 0.297 -0.800 -0.522 218 213 207 0 0
2.6670 9.2186 -3.7820 0.473 -0.819 -0.326 218 213 208 0 0
3.1158 8.8832 -3.8368 -0.938 0.347 -0.022 218 215 210 0 0
2.7563 7.0759 -3.5198 -0.727 -0.465 -0.504 210 189 160 0 0
2.8221 6.8474 -3.5042 -0.701 -0.428 -0.570 211 188 157 0 0
2.8655 6.6926 -3.4934 -0.805 -0.506 -0.309 207 188 158 0 0
2.9302 6.5282 -3.4861 -0.740 -0.563 -0.368 199 176 144 0 0
2.9879 6.4508 -3.4886 -0.740 -0.528 -0.416 197 174 142 0 0
3.0429 6.3709 -3.4902 -0.535 -0.738 -0.411 200 177 145 0 0
3.0833 6.3162 -3.4919 -0.686 -0.547 -0.480 195 175 143 0 0
3.7660 5.9936 -3.6000 -0.007 -0.993 -0.120 185 165 137 0 0
3.9455 5.9824 -3.6381 -0.226 -0.810 -0.540 187 171 145 0 0
4.3286 6.0699 -3.7341 -0.246 -0.889 -0.387 185 168 142 0 0
5.3438 6.7603 -4.0488 0.535 -0.759 -0.371 192 184 169 0 0
5.6285 6.9174 -4.1323 0.605 -0.715 0.349 221 220 219 0 0
1.1709 9.9018 -3.5582 -0.920 -0.260 0.295 230 229 224 0 0
1.2020 9.7887 -3.5500 -0.717 -0.667 0.204 231 227 224 0 0
1.2364 9.7438 -3.5517 -0.235 -0.810 -0.537 228 225 221 0 0
1.3816 9.6466 -3.5709 -0.856 -0.391 -0.338 228 224 221 0 0
1.3869 9.6122 -3.5675 -0.466 -0.512 -0.722 228 224 221 0 0
1.4655 9.7611 -3.6047 0.441 -0.813 0.380 226 223 219 0 0
1.4472 9.6516 -3.5861 -0.514 -0.478 0.712 226 223 218 0 0
1.8730 9.2406 -3.6257 -0.581 -0.676 -0.454 205 188 180 0 0
1.8911 9.2452 -3.6303 -0.861 -0.485 0.153 187 164 157 0 0
1.9776 9.0437 -3.6227 -0.680 -0.733 -0.010 172 133 122 0 0
2.0480 9.0146 -3.6344 -0.332 -0.795 -0.508 161 122 109 0 0
2.0652 9.0165 -3.6385 -0.422 -0.780 -0.462 151 113 99 0 0
2.2388 9.1149 -3.6900 0.387 -0.739 -0.551 139 112 107 0 0
2.2652 9.1375 -3.6989 0.403 -0.744 -0.533 173 158 154 0 0
2.3620 9.0850 -3.7133 -0.178 -0.983 -0.047 212 207 203 0 0
2.4251 9.1915 -3.7414 0.400 -0.818 0.413 212 207 202 0 0
2.4934 9.2289 -3.7615 -0.186 -0.700 -0.690 218 211 206 0 0
2.6788 9.2490 -3.8052 0.397 -0.815 -0.422 220 215 209 0 0
2.7037 9.2646 -3.8128 0.461 -0.771 -0.439 220 215 210 0 0
2.7478 9.3217 -3.8302 0.291 -0.692 0.661 221 216 211 0 0
2.7555 9.0692 -3.7983 0.650 -0.676 0.346 221 216 210 0 0
2.8109 9.1106 -3.8161 0.654 -0.695 0.298 221 217 213 0 0
3.1227 8.9004 -3.8572 -0.938 0.347 -0.022 219 216 211 0 0
2.7628 7.0899 -3.5369 -0.741 -0.428 -0.517 210 189 160 0 0
2.7706 7.0763 -3.5368 -0.741 -0.428 -0.517 211 190 161 0 0
2.8264 6.8571 -3.5200 -0.691 -0.546 -0.473 211 188 157 0 0
2.8523 6.7237 -3.5080 -0.806 -0.541 -0.242 209 190 158 0 0
2.8788 6.6673 -3.5064 -0.686 -0.715 0.133 208 185 154 0 0
2.9436 6.5274 -3.5022 -0.670 -0.565 -0.482 199 176 144 0 0
3.0038 6.4536 -3.5057 -0.726 -0.544 -0.420 196 173 141 0 0
3.0414 6.3940 -3.5061 -0.772 -0.518 -0.369 202 179 147 0 0
3.1412 6.2889 -3.5142 -0.510 -0.744 -0.432 195 174 143 0 0
3.3595 6.1297 -3.5414 -0.730 -0.678 -0.084 191 171 144 0 0
3.3733 6.1265 -3.5440 -0.643 -0.715 -0.274 190 170 143 0 0
3.3825 6.1174 -3.5449 -0.533 -0.760 -0.373 188 169 141 0 0
3.4193 6.0812 -3.5482 -0.384 -0.811 -0.441 189 170 142 0 0
3.6092 6.0300 -3.5834 -0.389 -0.882 -0.267 185 166 136 0 0
3.7568 6.0050 -3.6128 -0.220 -0.916 -0.336 185 166 136 0 0
4.3528 6.0784 -3.7545 -0.015 -0.863 -0.506 182 166 140 0 0
5.2488 6.6873 -4.0337 0.528 -0.758 -0.383 190 178 159 0 0
6.0587 7.2581 -4.2889 0.663 -0.740 0.112 224 223 219 0 0
5.6698 6.8305 -4.1459 -0.237 -0.919 0.316 223 223 221 0 0
5.6989 6.8375 -4.1533 0.326 -0.843 0.429 223 223 221 0 0
5.7288 6.8451 -4.1609 0.326 -0.843 0.429 223 223 221 0 0
1.2609 9.7259 -3.5708 -0.635 -0.576 -0.515 230 226 223 0 0
1.3075 9.7760 -3.5878 -0.061 -0.628 -0.776 231 227 225 0 0
1.4412 9.6386 -3.5991 -0.514 -0.478 0.712 227 224 219 0 0
1.4524 9.6234 -3.5996 -0.679 -0.222 0.700 227 223 220 0 0
1.4961 9.6092 -3.6074 -0.194 -0.728 0.658 225 221 218 0 0
1.5100 9.6025 -3.6096 -0.311 -0.522 0.794 225 221 218 0 0
1.6389 9.6002 -3.6379 -0.707 -0.615 0.349 223 219 216 0 0
1.6510 9.5875 -3.6389 -0.506 -0.464 0.727 222 218 215 0 0
1.7306 9.4394 -3.6367 -0.516 -0.792 0.327 219 215 212 0 0
1.8737 9.2918 -3.6487 -0.642 -0.596 -0.482 214 209 205 0 0
1.8814 9.2684 -3.6473 -0.636 -0.636 -0.437 213 206 201 0 0
1.8926 9.2544 -3.6479 -0.887 -0.346 0.307 212 202 196 0 0
1.8969 9.2220 -3.6445 -0.880 -0.474 0.017 201 182 177 0 0
2.0085 9.0024 -3.6398 -0.621 -0.770 -0.146 168 130 118 0 0
2.0247 9.0022 -3.6434 -0.627 -0.663 -0.410 167 130 117 0 0
2.3411 9.0806 -3.7242 -0.288 -0.917 -0.274 214 209 205 0 0
2.3605 9.0860 -3.7292 -0.178 -0.983 -0.047 214 209 205 0 0
2.3616 9.0491 -3.7245 -0.687 -0.705 -0.175 215 211 207 0 0
2.4995 9.2473 -3.7818 -0.186 -0.700 -0.690 218 212 208 0 0
2.5160 9.2452 -3.7852 -0.093 -0.808 -0.582 218 213 209 0 0
2.3400 8.7304 -3.6770 -0.585 -0.615 0.528 218 215 208 0 0
2.6171 9.2350 -3.8063 0.281 -0.648 -0.708 219 216 211 0 0
2.6461 9.2208 -3.8108 0.611 -0.778 0.149 220 216 210 0 0
2.8845 9.5838 -3.9125 0.607 -0.747 -0.272 222 217 211 0 0
2.5541 8.7556 -3.7279 -0.730 -0.678 -0.088 222 217 214 0 0
2.7173 8.7725 -3.7665 -0.366 -0.592 -0.718 223 218 214 0 0
2.7437 8.7910 -3.7748 -0.333 -0.414 -0.847 223 218 214 0 0
2.8035 8.8055 -3.7900 0.224 -0.756 0.615 223 218 211 0 0
2.7692 7.1036 -3.5540 -0.684 -0.422 -0.595 210 191 160 0 0
2.8301 6.8659 -3.5356 -0.691 -0.546 -0.473 212 189 158 0 0
3.0209 6.4352 -3.5202 -0.751 -0.559 -0.350 202 181 150 0 0
3.0374 6.4134 -3.5210 -0.751 -0.559 -0.350 201 178 146 0 0
3.0521 6.3892 -3.5210 -0.716 -0.549 -0.432 201 178 146 0 0
3.1628 6.2773 -3.5306 -0.658 -0.579 -0.482 194 175 144 0 0
3.2120 6.2355 -3.5359 -0.714 -0.577 -0.396 194 172 140 0 0
3.2548 6.1853 -3.5387 -0.637 -0.583 -0.505 191 169 136 0 0
3.3749 6.1310 -3.5581 -0.613 -0.694 -0.378 188 168 141 0 0
3.6117 6.0353 -3.5978 -0.535 -0.770 -0.348 181 162 132 0 0
5.4285 6.8514 -4.1111 0.542 -0.755 -0.370 205 198 187 0 0
5.5699 6.9733 -4.1589 0.535 -0.759 -0.371 218 217 210 0 0
5.9576 7.2515 -4.2824 0.619 -0.782 0.075 221 220 218 0 0
5.7163 6.8569 -4.1758 0.112 -0.973 0.203 223 223 221 0 0
5.7215 6.8404 -4.1748 0.331 -0.944 -0.014 224 224 222 0 0
1.4140 9.5583 -3.5983 -0.453 -0.882 -0.133 227 224 219 0 0
1.4264 9.5470 -3.5995 -0.073 -0.976 -0.203 227 223 220 0 0
1.4396 9.5386 -3.6013 -0.117 -0.969 -0.220 227 223 220 0 0
1.4552 9.5375 -3.6046 -0.117 -0.969 -0.220 227 223 220 0 0
1.7020 9.4095 -3.6423 -0.521 -0.697 0.493 221 218 213 0 0
1.7235 9.4246 -3.6492 -0.526 -0.846 -0.091 221 218 213 0 0
1.7783 9.3948 -3.6574 -0.413 -0.864 0.288 218 214 210 0 0
1.8763 9.3040 -3.6669 -0.607 -0.721 -0.334 219 212 208 0 0
1.8834 9.2787 -3.6651 -0.636 -0.636 -0.437 218 210 207 0 0
1.8884 9.2481 -3.6620 -0.782 -0.406 0.473 216 208 204 0 0
1.8959 9.2244 -3.6605 -0.663 -0.532 0.526 215 206 202 0 0
1.9062 9.2083 -3.6606 -0.892 -0.422 0.161 211 200 196 0 0
1.9321 9.1472 -3.6581 -0.758 -0.651 -0.029 171 140 132 0 0
1.9925 9.0081 -3.6527 -0.426 -0.900 0.094 164 127 115 0 0
2.0273 9.0133 -3.6612 -0.652 -0.641 -0.404 155 119 107 0 0
2.3616 9.2545 -3.7685 0.536 -0.727 -0.429 212 209 204 0 0
2.3222 9.0809 -3.7362 -0.390 -0.758 -0.523 214 211 206 0 0
2.3361 9.0736 -3.7383 -0.253 -0.851 -0.460 215 211 206 0 0
2.3537 9.0748 -3.7424 -0.476 -0.759 -0.444 216 212 208 0 0
2.3657 9.0631 -3.7435 -0.570 -0.611 -0.550 216 213 208 0 0
2.3756 9.0466 -3.7434 -0.524 -0.819 -0.235 217 213 208 0 0
2.6045 9.2905 -3.8275 -0.142 -0.843 -0.518 219 216 211 0 0
2.5220 9.0666 -3.7788 0.517 -0.848 -0.118 219 216 211 0 0
2.6730 9.3242 -3.8474 0.342 -0.620 -0.706 221 216 210 0 0
2.7257 9.4009 -3.8695 0.669 -0.741 0.047 221 217 210 0 0
2.7771 9.4741 -3.8909 0.638 -0.740 -0.213 221 218 211 0 0
2.5480 8.7468 -3.7412 -0.744 -0.425 -0.516 222 217 213 0 0
2.7305 9.0247 -3.8196 0.636 -0.739 0.221 223 218 212 0 0
2.7458 8.8356 -3.7974 -0.333 -0.414 -0.847 224 219 215 0 0
2.7579 8.8243 -3.7986 -0.465 -0.503 -0.728 224 219 215 0 0
2.7774 8.7924 -3.7986 0.221 -0.933 0.284 224 219 213 0 0
2.7584 8.7179 -3.7843 -0.373 -0.873 0.315 222 219 213 0 0
2.7786 8.7234 -3.7895 -0.774 -0.344 0.531 223 220 215 0 0
2.8298 6.8684 -3.5495 -0.654 -0.607 -0.452 205 182 150 0 0
2.8914 6.7166 -3.5427 -0.370 -0.878 -0.303 207 186 157 0 0
2.9431 6.5555 -3.5324 -0.712 -0.483 -0.510 204 181 150 0 0
2.9577 6.5302 -3.5322 -0.563 -0.597 -0.571 201 178 146 0 0
2.9679 6.5219 -3.5333 -0.468 -0.725 -0.505 200 177 145 0 0
3.1979 6.2622 -3.5495 -0.652 -0.651 -0.388 191 168 137 0 0
3.4968 6.0800 -3.5915 -0.611 -0.628 -0.482 187 167 139 0 0
3.5772 6.0566 -3.6062 -0.449 -0.687 -0.571 185 165 140 0 0
5.4685 6.8946 -4.1417 0.544 -0.762 -0.351 212 205 196 0 0
5.6541 6.9945 -4.1967 -0.237 -0.954 -0.185 220 219 216 0 0
5.9151 7.2116 -4.2843 0.648 -0.762 -0.018 221 220 218 0 0
1.2597 9.6810 -3.5965 -0.672 -0.594 -0.443 232 227 224 0 0
1.4239 9.5451 -3.6146 -0.240 -0.902 -0.358 227 224 220 0 0
1.4390 9.5424 -3.6176 -0.117 -0.969 -0.220 228 224 221 0 0
1.4540 9.5395 -3.6206 -0.240 -0.902 -0.358 227 223 220 0 0
1.6945 9.3935 -3.6545 -0.345 -0.849 0.399 221 218 213 0 0
1.7103 9.3923 -3.6579 -0.521 -0.697 0.493 222 219 214 0 0
1.8666 9.2386 -3.6718 -0.806 -0.464 0.368 217 213 209 0 0
1.8833 9.2396 -3.6757 -0.789 -0.446 0.423 217 212 208 0 0
1.8913 9.2174 -3.6745 -0.791 -0.466 0.396 216 211 207 0 0
1.9030 9.2049 -3.6754 -0.799 -0.470 0.374 215 209 206 0 0
1.9133 9.1888 -3.6755 -0.928 -0.370 0.050 214 207 204 0 0
1.9878 9.0424 -3.6721 -0.866 -0.484 0.128 176 138 128 0 0
1.9952 9.0199 -3.6707 -0.491 -0.871 -0.010 169 132 120 0 0
2.0337 9.0343 -3.6813 -0.689 -0.723 0.052 146 112 101 0 0
2.2685 9.1596 -3.7510 0.335 -0.879 -0.339 211 207 202 0 0
2.3609 9.2574 -3.7851 0.388 -0.741 -0.547 215 212 207 0 0
2.3493 9.0693 -3.7567 0.365 -0.845 0.390 217 214 209 0 0
2.3729 9.0845 -3.7641 0.478 -0.831 0.284 218 215 210 0 0
2.6997 9.3878 -3.8788 0.353 -0.602 -0.716 222 217 213 0 0
2.5332 8.7558 -3.7550 -0.695 -0.266 -0.669 223 218 214 0 0
2.5401 8.7341 -3.7536 -0.695 -0.266 -0.669 224 219 215 0 0
2.6811 8.9617 -3.8163 0.621 -0.761 0.187 223 218 214 0 0
2.6438 8.6640 -3.7672 -0.663 -0.300 -0.685 224 219 213 0 0
2.7940 8.9031 -3.8336 -0.152 -0.672 -0.725 225 220 216 0 0
2.7289 8.7327 -3.7957 -0.216 -0.973 -0.083 225 220 216 0 0
2.7406 8.7210 -3.7967 -0.373 -0.873 0.315 225 220 216 0 0
2.7546 8.7142 -3.7989 -0.373 -0.873 0.315 224 220 215 0 0
2.7653 8.7005 -3.7994 -0.176 -0.921 0.348 224 221 216 0 0
2.7772 8.6892 -3.8005 -0.471 -0.693 0.546 224 221 216 0 0
2.9955 8.8065 -3.8655 -0.738 -0.456 -0.497 224 221 216 0 0
3.1117 8.8915 -3.9031 -0.946 0.325 0.013 222 217 213 0 0
2.8343 6.8784 -3.5655 -0.734 -0.579 -0.354 203 180 148 0 0
2.8433 6.8675 -3.5660 -0.749 -0.513 -0.419 205 182 150 0 0
2.8504 6.8535 -3.5657 -0.846 -0.423 -0.323 208 185 154 0 0
5.3421 6.7898 -4.1150 0.553 -0.766 -0.327 192 181 167 0 0
5.4942 6.9232 -4.1673 0.567 -0.765 -0.305 215 209 201 0 0
5.6476 7.0126 -4.2139 0.434 -0.825 -0.363 219 219 214 0 0
5.6581 7.0010 -4.2146 -0.125 -0.942 0.313 220 219 216 0 0
5.7509 6.9832 -4.2330 0.629 -0.774 0.075 222 222 218 0 0
1.3012 9.6672 -3.6199 -0.168 -0.972 0.162 230 227 224 0 0
1.4373 9.4930 -3.6264 -0.014 -0.892 0.451 228 224 221 0 0
1.4526 9.4913 -3.6296 0.065 -0.986 0.156 228 224 222 0 0
1.5260 9.5698 -3.6570 -0.549 -0.691 0.470 226 222 221 0 0
1.5389 9.5601 -3.6585 -0.447 -0.746 0.494 225 221 218 0 0
1.6559 9.3807 -3.6600 -0.580 -0.814 0.005 222 218 215 0 0
1.6805 9.3586 -3.6625 -0.671 -0.738 0.072 222 219 214 0 0
1.7060 9.3855 -3.6720 -0.521 -0.697 0.493 222 219 214 0 0
1.7277 9.4009 -3.6789 -0.445 -0.883 -0.153 222 218 215 0 0
1.8892 9.2169 -3.6898 -0.863 -0.375 0.340 218 212 209 0 0
1.9939 9.0212 -3.6863 -0.444 -0.859 -0.254 169 136 127 0 0
2.0151 9.0336 -3.6928 -0.755 -0.621 -0.213 162 131 122 0 0
2.0299 9.0295 -3.6956 -0.261 -0.938 0.227 156 126 118 0 0
2.2722 9.1732 -3.7699 0.278 -0.887 -0.368 216 211 206 0 0
2.3123 9.1875 -3.7809 0.492 -0.868 -0.066 215 212 206 0 0
2.7539 9.4723 -3.9195 0.177 -0.448 -0.876 224 219 215 0 0
2.7794 9.4885 -3.9275 0.286 -0.517 -0.807 223 220 215 0 0
2.5325 8.7955 -3.7762 -0.886 -0.410 -0.217 224 220 215 0 0
2.5410 8.7769 -3.7755 -0.886 -0.410 -0.217 224 220 215 0 0
2.5494 8.7583 -3.7749 -0.886 -0.410 -0.217 225 220 216 0 0
2.6932 8.8437 -3.8190 0.642 -0.762 0.088 223 221 216 0 0
2.7281 8.8801 -3.8319 0.582 -0.812 0.045 223 221 215 0 0
2.6328 8.6453 -3.7780 -0.837 -0.263 -0.479 225 220 215 0 0
2.7377 8.6838 -3.8069 -0.532 -0.448 0.718 225 221 217 0 0
2.7576 8.6889 -3.8121 -0.572 -0.781 0.251 225 222 217 0 0
2.7703 8.6793 -3.8136 -0.294 -0.876 0.382 225 222 217 0 0
2.8465 6.8755 -3.5815 -0.749 -0.513 -0.419 206 183 151 0 0
2.9842 6.5280 -3.5644 -0.640 -0.673 -0.371 201 178 146 0 0
3.2032 6.2743 -3.5786 -0.652 -0.651 -0.388 179 154 121 0 0
3.2852 6.2116 -3.5883 -0.315 -0.806 -0.501 189 169 139 0 0
3.6249 6.0582 -3.6435 -0.438 -0.694 -0.571 183 163 132 0 0
5.3825 6.8336 -4.1458 0.558 -0.771 -0.307 194 183 171 0 0
5.6624 7.0300 -4.2358 0.434 -0.825 -0.363 219 219 217 0 0
5.6624 7.0077 -4.2327 0.348 -0.937 0.019 219 220 216 0 0
5.7086 7.0099 -4.2434 -0.761 -0.646 -0.058 220 219 217 0 0
1.3232 9.7468 -3.6520 -0.445 -0.623 -0.643 232 228 225 0 0
1.3276 9.7087 -3.6476 -0.436 -0.876 -0.206 231 227 224 0 0
1.3416 9.7023 -3.6499 -0.436 -0.876 -0.206 231 227 224 0 0
1.3408 9.5955 -3.6348 -0.757 -0.492 0.430 231 227 224 0 0
1.3421 9.5485 -3.6286 -0.820 -0.271 0.504 231 227 224 0 0
1.5078 9.5691 -3.6688 -0.199 -0.471 0.859 227 223 222 0 0
2.0048 9.0538 -3.7091 -0.673 -0.635 -0.378 194 179 171 0 0
2.0166 9.0420 -3.7101 -0.673 -0.635 -0.378 185 172 164 0 0
2.5098 8.8621 -3.7963 -0.200 -0.510 -0.837 224 221 217 0 0
2.5152 8.8366 -3.7939 -0.568 -0.287 -0.771 224 221 216 0 0
2.5375 8.8479 -3.8006 -0.903 -0.422 0.087 223 220 215 0 0
2.5391 8.8140 -3.7962 -0.853 -0.394 -0.343 224 221 216 0 0
2.5419 8.7831 -3.7925 -0.933 -0.305 0.190 225 222 217 0 0
2.6941 8.9234 -3.8464 -0.720 -0.063 -0.691 225 222 217 0 0
2.6791 8.6387 -3.8033 -0.755 0.024 -0.655 225 221 218 0 0
2.7195 8.6860 -3.8190 -0.532 -0.448 0.718 226 222 218 0 0
2.7324 8.6770 -3.8207 -0.284 -0.669 0.687 225 221 218 0 0
2.7837 7.3033 -3.6406 -0.955 -0.237 -0.180 216 195 165 0 0
2.7949 7.1322 -3.6193 -0.784 -0.401 -0.475 211 190 160 0 0
2.8681 6.8371 -3.5946 -0.807 -0.369 -0.462 205 186 155 0 0
2.8957 6.7562 -3.5896 -0.873 -0.392 -0.290 204 183 154 0 0
2.9023 6.7419 -3.5890 -0.779 -0.480 -0.404 206 185 156 0 0
2.9660 6.5741 -3.5800 -0.804 -0.459 -0.378 204 183 152 0 0
2.9870 6.5348 -3.5793 -0.725 -0.608 -0.322 204 181 150 0 0
3.0061 6.5163 -3.5810 -0.640 -0.673 -0.371 198 177 146 0 0
3.0163 6.5081 -3.5822 -0.602 -0.705 -0.375 200 179 148 0 0
3.2893 6.2194 -3.6035 -0.315 -0.806 -0.501 193 172 143 0 0
3.3129 6.1864 -3.6042 -0.659 -0.654 -0.372 191 171 144 0 0
3.3389 6.1780 -3.6089 -0.439 -0.768 -0.467 192 176 149 0 0
3.6096 6.0623 -3.6538 -0.066 -0.903 -0.425 186 166 135 0 0
3.9011 6.0642 -3.7199 -0.175 -0.837 -0.519 184 167 139 0 0
5.1636 6.6544 -4.0871 0.551 -0.772 -0.317 189 177 155 0 0
5.4070 6.8611 -4.1709 0.604 -0.756 -0.252 197 188 176 0 0
5.5042 6.9384 -4.2036 0.513 -0.803 -0.305 214 214 205 0 0
5.6259 6.9735 -4.2359 0.282 -0.957 -0.073 219 219 215 0 0
5.7282 7.0097 -4.2641 -0.843 -0.441 -0.308 221 221 219 0 0
1.3045 9.4324 -3.6196 -0.378 -0.739 0.558 231 227 223 0 0
1.8905 9.1868 -3.7177 -0.438 -0.741 0.509 220 215 212 0 0
1.9960 9.4225 -3.7748 -0.570 -0.202 -0.796 219 215 212 0 0
1.9995 9.3876 -3.7707 -0.740 -0.155 -0.654 221 216 213 0 0
2.2611 9.3211 -3.8206 -0.126 -0.405 -0.906 219 216 212 0 0
2.3017 9.3362 -3.8319 0.019 -0.480 -0.877 220 217 212 0 0
2.1788 8.9582 -3.7508 -0.710 -0.540 0.452 221 218 213 0 0
2.2160 9.0075 -3.7662 -0.442 -0.877 -0.188 222 219 214 0 0
2.3498 9.1642 -3.8186 0.702 -0.667 0.249 223 218 212 0 0
2.4961 8.8740 -3.8108 -0.862 -0.506 -0.035 225 221 218 0 0
2.5190 8.8119 -3.8073 -0.710 -0.645 -0.283 224 221 216 0 0
2.5305 8.7997 -3.8082 -0.710 -0.645 -0.283 224 221 216 0 0
2.5426 8.7890 -3.8094 -0.542 -0.623 -0.564 225 222 217 0 0
2.6751 8.8506 -3.8481 -0.901 0.040 -0.432 223 222 218 0 0
2.8955 6.7587 -3.6034 -0.754 -0.546 -0.365 204 182 152 0 0
2.9042 6.7475 -3.6038 -0.695 -0.550 -0.464 204 182 151 0 0
2.9345 6.6484 -3.5967 -0.605 -0.585 -0.540 207 184 152 0 0
3.0119 6.5275 -3.5972 -0.638 -0.651 -0.411 201 180 150 0 0
3.0296 6.5069 -3.5983 -0.668 -0.624 -0.405 197 176 144 0 0
3.0389 6.4974 -3.5991 -0.668 -0.624 -0.405 194 174 142 0 0
3.0630 6.4632 -3.5997 -0.813 -0.512 -0.277 205 182 151 0 0
3.3179 6.1955 -3.6197 -0.408 -0.776 -0.481 194 174 147 0 0
3.3425 6.1851 -3.6238 -0.408 -0.776 -0.481 195 178 152 0 0
3.3908 6.1633 -3.6317 -0.331 -0.834 -0.442 190 173 144 0 0
3.4042 6.1594 -3.6342 -0.329 -0.812 -0.482 191 174 144 0 0
3.4532 6.1382 -3.6423 -0.734 -0.547 -0.403 192 175 147 0 0
3.6132 6.0689 -3.6688 -0.169 -0.900 -0.401 185 166 136 0 0
3.6384 6.0587 -3.6731 -0.196 -0.829 -0.524 182 164 135 0 0
3.9067 6.0730 -3.7358 -0.175 -0.837 -0.519 185 168 140 0 0
3.9230 6.0717 -3.7394 -0.175 -0.837 -0.519 183 166 140 0 0
5.4414 6.8987 -4.1998 0.551 -0.772 -0.317 202 196 184 0 0
5.6324 7.0270 -4.2611 0.453 -0.822 -0.344 217 217 215 0 0
5.6241 6.9741 -4.2518 0.282 -0.957 -0.073 219 219 215 0 0
5.7303 7.0143 -4.2815 -0.542 -0.795 -0.273 221 221 219 0 0
5.6624 6.9245 -4.2535 0.441 -0.861 0.252 221 221 219 0 0
1.2741 9.4404 -3.6295 -0.378 -0.739 0.558 232 229 225 0 0
1.2872 9.4324 -3.6313 -0.378 -0.739 0.558 232 229 224 0 0
1.3003 9.4243 -3.6332 -0.378 -0.739 0.558 232 228 225 0 0
1.3503 9.3849 -3.6390 -0.690 -0.208 0.693 230 227 222 0 0
1.4653 9.4985 -3.6812 0.164 -0.775 0.610 230 226 224 0 0
1.9508 9.2211 -3.7522 -0.493 -0.730 -0.473 221 217 214 0 0
2.0031 9.3145 -3.7774 -0.814 -0.163 -0.557 221 217 214 0 0
2.0646 9.1313 -3.7653 -0.646 -0.763 0.015 219 215 211 0 0
2.2050 8.9459 -3.7709 -0.427 -0.785 -0.449 224 221 216 0 0
2.5586 8.8278 -3.8345 -0.802 -0.574 -0.167 225 222 217 0 0
2.7098 8.8545 -3.8726 0.655 -0.746 0.122 224 223 217 0 0
2.7559 8.8411 -3.8812 -0.625 -0.024 -0.780 227 222 218 0 0
2.7441 8.7805 -3.8699 -0.625 -0.024 -0.780 226 222 219 0 0
2.8326 7.0158 -3.6392 -0.584 -0.547 -0.599 209 188 157 0 0
2.8938 6.7836 -3.6201 -0.904 -0.427 0.006 203 181 147 0 0
2.8980 6.7654 -3.6184 -0.754 -0.546 -0.365 209 186 155 0 0
2.9078 6.7560 -3.6193 -0.695 -0.550 -0.464 205 182 151 0 0
2.9802 6.6483 -3.6205 -0.437 -0.859 -0.266 201 179 148 0 0
3.0703 6.4763 -3.6165 -0.782 -0.579 -0.232 200 178 147 0 0
3.0869 6.4544 -3.6172 -0.808 -0.551 -0.210 198 179 148 0 0
3.4080 6.1667 -3.6493 -0.323 -0.841 -0.433 191 173 142 0 0
3.5429 6.1285 -3.6745 -0.216 -0.916 -0.339 190 171 141 0 0
3.6274 6.0680 -3.6851 -0.240 -0.851 -0.467 184 167 137 0 0
3.6436 6.0674 -3.6887 -0.196 -0.829 -0.524 184 167 139 0 0
3.9123 6.0817 -3.7518 -0.175 -0.837 -0.519 184 167 141 0 0
3.9279 6.0796 -3.7551 -0.192 -0.811 -0.553 182 165 139 0 0
3.9662 6.0834 -3.7643 -0.182 -0.850 -0.494 189 172 146 0 0
4.1332 6.1119 -3.8064 -0.542 -0.777 -0.322 183 166 140 0 0
4.5121 6.2246 -3.9085 -0.005 -0.939 -0.345 187 171 148 0 0
4.5366 6.2306 -3.9150 0.130 -0.934 -0.332 187 171 148 0 0
5.1241 6.6396 -4.1067 0.545 -0.777 -0.314 187 172 148 0 0
5.4680 6.9284 -4.2259 0.551 -0.772 -0.317 208 204 193 0 0
5.6187 6.8835 -4.2538 0.357 -0.796 0.489 221 221 219 0 0
1.2962 9.4679 -3.6542 -0.270 -0.960 0.071 231 228 226 0 0
1.3068 9.4513 -3.6542 0.056 -0.981 0.187 230 229 226 0 0
1.3283 9.4706 -3.6619 0.039 -0.943 0.330 230 229 226 0 0
1.3257 9.4118 -3.6529 -0.106 -0.990 0.098 230 228 225 0 0
1.4612 9.4917 -3.6953 0.134 -0.622 0.771 231 227 226 0 0
2.1351 8.9420 -3.7702 -0.640 -0.485 0.595 225 222 217 0 0
2.1491 8.9359 -3.7725 -0.628 -0.667 0.401 225 222 217 0 0
2.2046 8.9496 -3.7871 -0.511 -0.851 0.118 225 222 218 0 0
2.5276 9.0671 -3.8777 -0.201 -0.351 -0.914 226 223 219 0 0
2.5030 8.8977 -3.8478 -0.880 -0.313 0.357 226 222 219 0 0
2.5530 8.8944 -3.8587 -0.793 -0.561 -0.236 227 223 219 0 0
2.8934 6.7857 -3.6338 -0.828 -0.502 -0.251 202 180 147 0 0
2.9018 6.7741 -3.6341 -0.658 -0.605 -0.449 204 181 150 0 0
2.9114 6.7643 -3.6349 -0.658 -0.605 -0.449 199 176 145 0 0
2.9475 6.6978 -3.6336 -0.898 -0.396 -0.193 202 179 147 0 0
3.1490 6.3865 -3.6349 -0.764 -0.501 -0.406 194 173 142 0 0
3.1572 6.3756 -3.6352 -0.855 -0.399 -0.332 192 171 142 0 0
3.2218 6.3095 -3.6404 -0.492 -0.713 -0.499 189 169 138 0 0
3.2444 6.2965 -3.6437 -0.496 -0.733 -0.466 190 171 141 0 0
3.2550 6.2890 -3.6451 -0.264 -0.919 -0.291 190 171 141 0 0
3.3984 6.1778 -3.6618 -0.557 -0.711 -0.429 189 171 140 0 0
3.6650 6.0752 -3.7080 -0.198 -0.844 -0.498 186 167 140 0 0
5.3645 6.8466 -4.2065 0.551 -0.772 -0.317 191 180 166 0 0
5.6026 6.8699 -4.2642 0.357 -0.796 0.489 221 221 219 0 0
1.3015 9.3897 -3.6598 0.021 -0.996 0.091 230 229 226 0 0
1.3172 9.3903 -3.6635 -0.210 -0.822 -0.530 230 229 225 0 0
1.4588 9.4900 -3.7104 0.120 -0.684 0.720 230 227 225 0 0
1.5498 9.6721 -3.7576 -0.861 0.020 -0.508 230 227 225 0 0
1.7202 9.1345 -3.7188 -0.389 -0.915 0.108 225 221 218 0 0
2.3461 8.8549 -3.8217 0.017 -0.995 0.094 227 224 219 0 0
2.5278 8.8813 -3.8671 -0.524 -0.838 0.156 227 223 220 0 0
2.6868 8.6353 -3.8679 -0.433 -0.736 -0.520 228 225 218 0 0
2.8032 8.3866 -3.8586 0.030 -0.996 0.084 225 222 217 0 0
2.9025 6.7780 -3.6484 -0.531 -0.815 -0.230 204 182 152 0 0
2.9127 6.7691 -3.6494 -0.674 -0.732 -0.093 203 180 149 0 0
2.9189 6.7541 -3.6486 -0.892 -0.430 -0.142 205 182 151 0 0
2.9277 6.7432 -3.6491 -0.890 -0.455 0.022 203 180 149 0 0
2.9404 6.7140 -3.6478 -0.884 -0.466 -0.042 206 183 151 0 0
2.9479 6.7011 -3.6476 -0.880 -0.459 -0.125 200 177 145 0 0
3.0885 6.4619 -3.6452 -0.740 -0.508 -0.441 196 176 144 0 0
3.2920 6.2759 -3.6649 -0.433 -0.740 -0.516 195 176 146 0 0
3.4050 6.1887 -3.6781 -0.507 -0.710 -0.488 187 168 138 0 0
3.8379 6.1208 -3.7674 -0.500 -0.751 -0.432 182 165 137 0 0
4.0407 6.1126 -3.8127 -0.367 -0.783 -0.503 184 169 139 0 0
5.3906 6.8759 -4.2325 0.551 -0.772 -0.317 193 184 171 0 0
5.5838 6.9409 -4.2862 0.554 -0.828 0.089 219 219 217 0 0
1.4521 9.4749 -3.7226 0.492 -0.870 -0.034 229 228 224 0 0
1.5764 9.3216 -3.7287 -0.467 -0.882 -0.063 227 223 221 0 0
1.6201 9.3093 -3.7370 -0.680 -0.698 -0.223 227 223 220 0 0
1.7181 9.1340 -3.7339 -0.308 -0.874 0.375 225 221 220 0 0
1.8169 9.0970 -3.7512 -0.256 -0.604 0.755 223 222 218 0 0
1.9015 9.1928 -3.7847 -0.460 -0.354 0.815 225 220 216 0 0
1.8818 9.0976 -3.7662 -0.265 -0.843 0.468 224 221 215 0 0
1.8762 9.0403 -3.7566 -0.647 -0.758 -0.079 222 221 216 0 0
2.0024 9.1137 -3.7963 -0.853 -0.511 -0.110 222 219 215 0 0
2.0214 9.1201 -3.8016 -0.658 -0.695 -0.290 223 219 216 0 0
2.0326 9.0650 -3.7961 -0.306 -0.917 0.257 223 221 216 0 0
2.2533 8.9554 -3.8309 -0.505 -0.547 -0.667 227 223 220 0 0
2.7210 8.7814 -3.9130 -0.863 -0.467 -0.195 227 225 220 0 0
2.7302 8.7643 -3.9126 -0.863 -0.467 -0.195 229 226 221 0 0
2.7097 8.6510 -3.8913 -0.336 -0.665 -0.667 229 225 220 0 0
2.8309 8.6849 -3.9241 -0.964 0.105 -0.244 228 225 220 0 0
2.8220 8.3934 -3.8795 -0.213 -0.928 0.307 227 222 218 0 0
2.8400 7.0369 -3.6854 -0.645 -0.763 -0.021 207 187 155 0 0
2.9061 6.7864 -3.6640 -0.688 -0.552 -0.471 201 180 150 0 0
2.9154 6.7762 -3.6646 -0.658 -0.578 -0.484 205 183 153 0 0
2.9527 6.7112 -3.6637 -0.814 -0.495 -0.304 200 177 143 0 0
2.9556 6.6915 -3.6615 -0.692 -0.714 -0.107 200 177 143 0 0
2.9857 6.6647 -3.6645 -0.789 -0.603 0.117 205 182 151 0 0
2.9942 6.6535 -3.6648 -0.789 -0.603 0.117 203 180 148 0 0
3.0027 6.6423 -3.6651 -0.789 -0.603 0.117 203 180 148 0 0
3.0103 6.6299 -3.6651 -0.579 -0.802 0.148 201 179 147 0 0
3.0209 6.6220 -3.6663 -0.776 -0.624 -0.086 200 180 147 0 0
3.0210 6.5749 -3.6595 -0.722 -0.533 -0.441 201 181 148 0 0
3.2048 6.3575 -3.6700 -0.599 -0.582 -0.550 194 175 143 0 0
3.2144 6.3485 -3.6708 -0.599 -0.582 -0.550 196 177 146 0 0
3.2253 6.3414 -3.6723 -0.317 -0.761 -0.566 195 176 146 0 0
4.0678 6.1255 -3.8345 -0.201 -0.843 -0.499 185 170 141 0 0
5.1766 6.7010 -4.1735 0.583 -0.781 -0.224 189 171 151 0 0
5.4193 6.9078 -4.2596 0.607 -0.770 -0.198 198 192 179 0 0
5.5228 6.9036 -4.2828 0.373 -0.797 0.475 218 218 216 0 0
5.5750 6.9126 -4.2961 0.279 -0.699 0.658 219 219 217 0 0
5.5399 6.8338 -4.2765 -0.328 -0.722 0.609 220 220 218 0 0
1.6184 9.3097 -3.7524 -0.398 -0.811 -0.429 227 223 220 0 0
1.7155 9.1317 -3.7486 -0.360 -0.922 0.139 226 222 221 0 0
1.7413 9.1148 -3.7521 -0.594 -0.776 0.211 226 222 221 0 0
1.8175 9.1036 -3.7680 0.331 -0.853 0.403 223 222 218 0 0
1.8747 9.0837 -3.7783 -0.214 -0.818 0.534 225 221 217 0 0
1.8759 9.0445 -3.7728 -0.544 -0.798 -0.259 224 220 217 0 0
2.2409 9.0101 -3.8519 -0.659 -0.742 -0.123 228 227 222 0 0
2.2481 8.9873 -3.8502 -0.016 -0.781 -0.624 226 225 221 0 0
2.2567 8.9680 -3.8494 -0.298 -0.892 -0.339 228 224 221 0 0
2.2760 8.9345 -3.8489 -0.415 -0.884 0.216 228 225 220 0 0
2.3583 8.8152 -3.8503 -0.340 -0.901 -0.268 227 226 222 0 0
2.3841 8.8354 -3.8592 -0.390 -0.881 0.268 229 225 222 0 0
2.8357 8.6984 -3.9432 -0.940 -0.269 -0.207 229 226 221 0 0
2.7071 8.3398 -3.8607 -0.296 -0.934 0.202 228 224 221 0 0
2.8250 8.4031 -3.8972 -0.066 -0.857 -0.511 229 222 219 0 0
2.8414 8.4014 -3.9007 0.188 -0.976 0.112 229 221 218 0 0
2.8531 7.0612 -3.7058 -0.573 -0.617 -0.539 210 187 154 0 0
2.9354 6.7607 -3.6805 -0.771 -0.497 -0.398 201 178 147 0 0
2.9529 6.7143 -3.6777 -0.453 -0.799 -0.395 204 181 148 0 0
2.9740 6.6739 -3.6766 -0.595 -0.783 -0.179 204 181 149 0 0
2.9841 6.6651 -3.6776 -0.676 -0.720 -0.160 202 180 149 0 0
2.9926 6.6538 -3.6779 -0.432 -0.880 -0.198 203 182 151 0 0
3.0043 6.6475 -3.6797 -0.698 -0.668 -0.258 202 181 150 0 0
3.0112 6.6340 -3.6793 -0.686 -0.591 -0.425 200 179 147 0 0
3.1162 6.4609 -3.6780 -0.657 -0.613 -0.438 195 172 140 0 0
3.1846 6.3989 -3.6846 -0.534 -0.717 -0.447 194 174 143 0 0
3.5668 6.1886 -3.7419 -0.439 -0.698 -0.566 184 164 135 0 0
4.0725 6.1330 -3.8504 -0.232 -0.812 -0.535 181 166 137 0 0
4.2664 6.1684 -3.9003 0.021 -0.827 -0.561 185 169 143 0 0
5.4272 6.9184 -4.2788 0.583 -0.781 -0.224 204 199 187 0 0
5.2681 6.6694 -4.2054 -0.467 -0.720 -0.514 216 216 214 0 0
5.5167 6.8999 -4.2968 0.576 -0.747 0.332 218 218 216 0 0
5.6190 6.8935 -4.3194 0.297 -0.715 0.633 221 221 219 0 0
1.5330 9.3931 -3.7609 -0.937 -0.315 0.152 228 226 222 0 0
1.6195 9.3183 -3.7698 -0.398 -0.811 -0.429 227 224 223 0 0
1.6993 9.1362 -3.7612 -0.360 -0.922 0.139 226 225 223 0 0
1.7131 9.1304 -3.7635 -0.360 -0.922 0.139 225 223 221 0 0
1.7206 9.1070 -3.7618 -0.317 -0.944 0.090 226 222 221 0 0
1.7337 9.0989 -3.7636 0.001 -1.000 -0.017 227 223 222 0 0
1.8130 9.0965 -3.7816 0.150 -0.940 0.307 224 223 219 0 0
1.8275 9.0921 -3.7843 0.123 -0.895 0.429 223 222 218 0 0
1.8417 9.0871 -3.7869 -0.216 -0.747 0.629 224 222 218 0 0
1.9884 9.0459 -3.8147 -0.551 -0.833 -0.055 227 223 220 0 0
1.9992 9.0317 -3.8151 -0.657 -0.754 0.021 227 225 221 0 0
2.0105 9.0188 -3.8158 -0.749 -0.655 0.098 227 226 222 0 0
2.2524 9.0022 -3.8694 -0.230 -0.865 -0.446 228 227 223 0 0
2.2797 9.0269 -3.8794 -0.496 -0.492 -0.715 228 226 222 0 0
2.3077 9.0529 -3.8897 0.440 -0.728 -0.526 229 225 222 0 0
2.3336 8.8398 -3.8640 -0.683 -0.706 0.184 227 226 222 0 0
2.3790 8.8283 -3.8728 -0.861 -0.487 -0.144 228 225 222 0 0
2.3947 8.8257 -3.8761 -0.216 -0.726 0.653 229 225 222 0 0
2.5626 8.8577 -3.9197 -0.901 -0.105 -0.421 229 225 222 0 0
2.6134 8.7821 -3.9203 0.549 -0.834 0.051 230 225 221 0 0
2.8199 7.5294 -3.7817 -0.933 -0.255 -0.252 212 192 162 0 0
2.9299 6.7796 -3.6956 -0.731 -0.499 -0.466 206 183 151 0 0
2.9722 6.6980 -3.6933 -0.780 -0.582 -0.232 204 181 149 0 0
2.9956 6.6611 -3.6932 -0.451 -0.889 -0.073 206 185 154 0 0
3.0344 6.6237 -3.6966 -0.501 -0.724 -0.475 201 182 149 0 0
3.0318 6.5963 -3.6919 -0.696 -0.547 -0.465 202 182 149 0 0
3.0555 6.6075 -3.6991 -0.661 -0.580 -0.475 201 181 148 0 0
3.1464 6.4608 -3.6983 -0.626 -0.708 -0.326 196 173 142 0 0
3.2025 6.3816 -3.6995 -0.582 -0.744 -0.328 193 174 142 0 0
3.2253 6.3685 -3.7029 -0.544 -0.713 -0.443 194 173 144 0 0
3.5073 6.2001 -3.7431 -0.346 -0.829 -0.439 188 169 139 0 0
3.5179 6.1924 -3.7444 -0.675 -0.637 -0.372 189 170 140 0 0
3.5287 6.1851 -3.7458 -0.546 -0.744 -0.385 186 167 137 0 0
5.3186 6.8309 -4.2566 0.583 -0.781 -0.224 188 177 161 0 0
5.2741 6.6778 -4.2235 -0.589 -0.596 -0.546 216 216 214 0 0
5.5442 6.8212 -4.3074 0.505 -0.746 0.435 221 221 219 0 0
5.5772 6.8325 -4.3167 -0.103 -0.431 0.897 222 222 220 0 0
1.6997 9.2323 -3.7914 -0.246 -0.812 0.529 228 224 221 0 0
1.8411 9.0905 -3.8029 0.223 -0.893 0.391 224 223 219 0 0
1.8644 9.0666 -3.8048 -0.796 -0.456 0.398 225 222 221 0 0
2.1061 8.8550 -3.8292 -0.428 -0.900 -0.077 229 226 223 0 0
2.1353 8.8857 -3.8406 -0.899 -0.431 -0.074 228 227 223 0 0
2.2551 9.0130 -3.8876 -0.050 -0.861 -0.506 228 227 223 0 0
2.2650 8.9967 -3.8874 -0.205 -0.970 -0.134 228 227 223 0 0
2.3335 9.1182 -3.9216 0.423 -0.765 -0.486 229 226 223 0 0
2.4876 8.6996 -3.8946 0.377 -0.846 0.378 230 226 223 0 0
2.5380 8.6986 -3.9062 0.363 -0.728 0.581 229 226 223 0 0
2.6546 8.8370 -3.9540 0.530 -0.779 -0.335 230 225 221 0 0
2.6702 8.7604 -3.9462 0.565 -0.735 0.375 227 226 221 0 0
2.6514 8.2705 -3.8683 -0.260 -0.738 -0.623 229 226 222 0 0
2.6689 8.2718 -3.8725 -0.195 -0.778 -0.597 229 226 221 0 0
2.7903 8.3768 -3.9165 0.156 -0.979 0.135 226 224 219 0 0
2.8222 7.5367 -3.7978 -0.972 -0.108 -0.209 211 191 161 0 0
3.0379 6.6315 -3.7120 -0.501 -0.724 -0.475 201 182 150 0 0
3.0475 6.6221 -3.7129 -0.727 -0.580 -0.369 203 183 150 0 0
3.1220 6.4973 -3.7115 -0.523 -0.691 -0.500 201 178 147 0 0
3.1382 6.4745 -3.7118 -0.665 -0.639 -0.388 196 173 142 0 0
3.2182 6.3835 -3.7168 -0.582 -0.697 -0.419 191 169 140 0 0
3.2286 6.3756 -3.7180 -0.582 -0.697 -0.419 195 174 145 0 0
3.4834 6.2142 -3.7530 -0.431 -0.793 -0.431 187 169 139 0 0
3.5231 6.2013 -3.7603 -0.467 -0.767 -0.441 189 170 141 0 0
3.6114 6.1862 -3.7786 -0.462 -0.717 -0.523 186 166 139 0 0
3.6277 6.1854 -3.7822 -0.374 -0.824 -0.424 184 166 138 0 0
3.6407 6.1807 -3.7845 -0.374 -0.824 -0.424 187 170 142 0 0
3.7742 6.1157 -3.8058 -0.587 -0.658 -0.471 188 170 142 0 0
5.3308 6.8460 -4.2774 0.579 -0.785 -0.222 190 179 166 0 0
5.2698 6.6758 -4.2376 -0.680 -0.521 -0.516 216 216 214 0 0
5.5126 6.8353 -4.3180 0.315 -0.735 0.601 220 220 218 0 0
1.7709 9.0797 -3.8007 0.022 -1.000 0.014 228 224 222 0 0
1.7975 9.0650 -3.8046 0.076 -0.808 0.585 225 224 221 0 0
1.8796 9.0266 -3.8180 0.304 -0.810 0.502 223 222 219 0 0
2.0027 8.9676 -3.8378 -0.831 -0.224 0.509 228 227 225 0 0
2.0213 8.8515 -3.8245 -0.282 -0.584 0.761 227 228 223 0 0
2.0456 8.8714 -3.8332 -0.087 -0.695 0.713 228 227 223 0 0
2.2781 8.9925 -3.9058 -0.407 -0.899 0.161 228 227 223 0 0
2.5297 8.6851 -3.9180 0.335 -0.684 0.648 228 227 223 0 0
2.6752 8.2881 -3.8918 -0.165 -0.802 -0.574 229 226 221 0 0
2.7788 8.3249 -3.9215 -0.257 -0.955 0.150 227 224 217 0 0
2.8254 7.5456 -3.8144 -0.989 -0.146 -0.025 211 192 162 0 0
3.0903 6.5933 -3.7320 -0.602 -0.695 -0.393 200 177 146 0 0
3.0839 6.5607 -3.7256 -0.693 -0.536 -0.483 199 176 145 0 0
3.1267 6.5065 -3.7273 -0.645 -0.586 -0.491 197 174 143 0 0
3.2202 6.3887 -3.7313 -0.478 -0.740 -0.473 193 170 141 0 0
3.2339 6.3854 -3.7340 -0.487 -0.740 -0.465 194 172 143 0 0
3.4902 6.2253 -3.7696 -0.461 -0.804 -0.376 188 171 141 0 0
3.5021 6.2193 -3.7714 -0.461 -0.804 -0.376 188 169 139 0 0
3.5265 6.2080 -3.7754 -0.467 -0.767 -0.441 191 171 144 0 0
3.8420 6.1576 -3.8414 -0.341 -0.866 -0.367 184 167 139 0 0
3.8562 6.1539 -3.8442 -0.535 -0.809 -0.242 184 167 139 0 0
4.0970 6.1879 -3.9055 -0.215 -0.679 -0.702 185 168 140 0 0
5.1496 6.7041 -4.2293 0.556 -0.791 -0.254 184 169 149 0 0
5.3482 6.8664 -4.3002 0.556 -0.791 -0.254 197 188 176 0 0
5.3317 6.7198 -4.2742 -0.642 -0.320 0.697 217 217 215 0 0
5.4249 6.7711 -4.3037 0.566 -0.800 0.200 219 219 217 0 0
5.5575 6.8828 -4.3516 -0.228 -0.628 0.744 220 220 218 0 0
1.4935 9.2435 -3.7763 -0.867 -0.434 -0.246 229 228 226 0 0
1.5119 9.2515 -3.7819 -0.803 -0.337 -0.492 229 228 225 0 0
1.7544 9.0833 -3.8130 -0.077 -0.842 0.534 226 225 223 0 0
1.8390 9.0094 -3.8215 0.140 -0.926 0.351 227 223 221 0 0
2.0071 9.0246 -3.8632 -0.730 -0.367 0.576 229 228 226 0 0
2.0061 8.8586 -3.8376 0.127 -0.979 0.161 230 227 224 0 0
2.0305 8.8388 -3.8403 -0.352 -0.593 0.724 231 227 224 0 0
2.0430 8.8295 -3.8418 -0.352 -0.593 0.724 230 226 223 0 0
2.8240 7.5752 -3.8331 -0.984 -0.087 -0.157 215 194 165 0 0
2.8253 7.5487 -3.8294 -0.965 -0.083 -0.250 209 188 159 0 0
3.1243 6.5288 -3.7435 -0.678 -0.635 -0.370 198 176 145 0 0
3.2051 6.4377 -3.7486 -0.258 -0.917 -0.305 192 171 142 0 0
3.2265 6.4001 -3.7478 -0.635 -0.632 -0.445 192 172 142 0 0
3.3327 6.3015 -3.7577 -0.644 -0.657 -0.392 192 173 141 0 0
3.3419 6.2920 -3.7584 -0.648 -0.649 -0.399 190 171 139 0 0
3.5791 6.1925 -3.7987 -0.294 -0.925 -0.242 187 167 140 0 0
3.5926 6.1883 -3.8012 -0.320 -0.946 -0.051 188 168 141 0 0
3.6370 6.1808 -3.8105 -0.044 -0.975 -0.216 183 166 139 0 0
3.6502 6.1763 -3.8129 -0.417 -0.829 -0.373 181 163 136 0 0
3.7448 6.1672 -3.8336 -0.100 -0.880 -0.464 186 169 142 0 0
4.1168 6.1924 -3.9246 0.082 -0.912 -0.403 186 167 141 0 0
4.8532 6.4814 -4.1412 0.377 -0.804 -0.460 183 167 145 0 0
5.0821 6.6577 -4.2218 0.530 -0.795 -0.295 183 168 147 0 0
5.1712 6.7289 -4.2536 0.530 -0.795 -0.295 186 170 149 0 0
5.2623 6.8018 -4.2860 0.530 -0.795 -0.295 184 170 155 0 0
5.3555 6.8764 -4.3192 0.530 -0.795 -0.295 204 197 188 0 0
5.3109 6.7010 -4.2820 -0.595 -0.372 0.713 217 217 215 0 0
5.3200 6.6889 -4.2823 -0.098 -0.974 0.203 218 218 216 0 0
5.3500 6.6980 -4.2907 -0.173 -0.752 0.636 219 219 217 0 0
1.4943 9.2515 -3.7934 -0.867 -0.434 -0.246 229 228 226 0 0
1.4981 9.2157 -3.7888 -0.800 -0.467 0.376 230 229 226 0 0
1.6963 9.1041 -3.8181 -0.371 -0.492 0.787 229 225 222 0 0
1.7222 9.0877 -3.8217 0.016 -0.948 0.316 224 223 220 0 0
1.7316 9.0697 -3.8212 -0.056 -0.818 0.573 227 226 222 0 0
1.7597 9.0594 -3.8262 -0.256 -0.589 0.767 226 225 223 0 0
1.8487 8.9973 -3.8375 0.267 -0.912 0.312 228 224 221 0 0
2.0160 8.8476 -3.8538 0.240 -0.876 0.419 229 227 224 0 0
2.5630 8.5487 -3.9363 0.068 -0.660 -0.749 231 228 222 0 0
2.6611 8.6820 -3.9799 0.563 -0.721 0.403 231 228 224 0 0
2.6716 8.6680 -3.9802 0.057 -0.449 0.892 231 227 224 0 0
2.8330 8.4044 -3.9775 0.154 -0.972 0.180 228 225 219 0 0
2.9400 6.9065 -3.7718 -0.859 -0.468 -0.206 209 185 153 0 0
3.1149 6.5410 -3.7566 -0.619 -0.719 -0.316 200 179 148 0 0
3.1636 6.5183 -3.7646 -0.587 -0.621 -0.520 195 173 142 0 0
3.1925 6.4679 -3.7636 -0.623 -0.620 -0.477 197 177 147 0 0
3.2615 6.4061 -3.7703 -0.689 -0.634 -0.351 195 175 148 0 0
3.2708 6.3964 -3.7710 -0.689 -0.634 -0.351 195 175 148 0 0
3.2892 6.3772 -3.7724 -0.689 -0.634 -0.351 194 175 147 0 0
3.3952 6.2782 -3.7820 -0.610 -0.643 -0.462 187 166 136 0 0
3.4724 6.2927 -3.8024 -0.555 -0.705 -0.441 191 171 141 0 0
3.7478 6.1731 -3.8487 -0.095 -0.873 -0.478 186 168 139 0 0
3.7943 6.1877 -3.8619 -0.281 -0.934 -0.221 185 165 137 0 0
3.8065 6.1817 -3.8638 -0.373 -0.888 -0.268 187 167 140 0 0
3.8331 6.1928 -3.8718 -0.858 -0.474 0.198 188 168 141 0 0
3.8399 6.1802 -3.8715 -0.892 -0.424 0.154 185 166 136 0 0
3.8636 6.1468 -3.8719 -0.399 -0.893 0.208 182 165 135 0 0
4.0558 6.1863 -3.9232 -0.055 -0.873 -0.485 182 165 139 0 0
4.0750 6.1878 -3.9279 -0.074 -0.876 -0.477 181 164 138 0 0
4.2368 6.2075 -3.9690 -0.030 -0.951 -0.308 180 164 138 0 0
4.5910 6.3498 -4.0742 0.280 -0.849 -0.448 181 165 140 0 0
4.8069 6.4557 -4.1412 0.372 -0.825 -0.425 184 169 146 0 0
5.0971 6.6757 -4.2434 0.530 -0.795 -0.295 184 169 147 0 0
5.1866 6.7473 -4.2754 0.530 -0.795 -0.295 187 171 154 0 0
5.2781 6.8206 -4.3082 0.530 -0.795 -0.295 187 176 164 0 0
5.2869 6.6578 -4.2852 -0.174 -0.665 0.726 218 218 216 0 0
1.8285 8.9913 -3.8474 -0.210 -0.524 0.825 229 225 222 0 0
2.5626 8.5874 -3.9578 0.218 -0.652 -0.727 231 228 224 0 0
2.9221 6.9318 -3.7853 -0.570 -0.772 -0.282 210 185 154 0 0
3.0855 6.6414 -3.7787 -0.614 -0.644 -0.456 198 177 144 0 0
3.1047 6.5521 -3.7694 -0.619 -0.728 -0.295 198 178 146 0 0
3.1165 6.5460 -3.7712 -0.619 -0.719 -0.316 199 178 147 0 0
3.1268 6.5376 -3.7723 -0.619 -0.719 -0.316 197 174 143 0 0
3.1371 6.5292 -3.7735 -0.619 -0.719 -0.316 196 174 143 0 0
3.1758 6.5154 -3.7804 -0.630 -0.633 -0.451 195 175 144 0 0
3.1956 6.4975 -3.7823 -0.570 -0.706 -0.420 193 172 141 0 0
3.1951 6.4741 -3.7786 -0.651 -0.621 -0.437 196 175 146 0 0
3.2144 6.4332 -3.7768 -0.617 -0.631 -0.470 196 175 146 0 0
3.2247 6.4249 -3.7779 -0.598 -0.733 -0.325 199 178 149 0 0
3.2543 6.4211 -3.7843 -0.605 -0.687 -0.403 198 178 150 0 0
3.2948 6.3873 -3.7886 -0.641 -0.635 -0.432 193 175 146 0 0
3.5049 6.2727 -3.8204 -0.738 -0.590 -0.327 185 165 138 0 0
3.6824 6.2205 -3.8541 -0.362 -0.708 -0.606 183 163 136 0 0
3.7126 6.2158 -3.8606 -0.273 -0.774 -0.572 186 165 136 0 0
3.7526 6.1813 -3.8646 -0.095 -0.873 -0.478 184 165 135 0 0
3.8109 6.2099 -3.8828 -0.599 -0.724 0.341 188 168 140 0 0
3.8209 6.2012 -3.8838 -0.599 -0.724 0.341 186 166 139 0 0
3.8309 6.1925 -3.8848 -0.599 -0.724 0.341 178 158 132 0 0
3.8463 6.1696 -3.8849 -0.766 -0.492 0.414 181 163 134 0 0
3.8624 6.1477 -3.8853 -0.205 -0.913 -0.352 183 165 137 0 0
3.9649 6.2063 -3.9186 -0.254 -0.810 -0.529 183 165 137 0 0
4.0535 6.2064 -3.9395 -0.176 -0.769 -0.614 182 166 141 0 0
4.0707 6.2056 -3.9434 -0.176 -0.769 -0.614 184 167 142 0 0
4.0964 6.2146 -3.9509 -0.307 -0.794 -0.524 184 167 141 0 0
4.1172 6.2179 -3.9563 -0.105 -0.945 -0.311 183 166 140 0 0
4.3032 6.2429 -4.0041 -0.112 -0.816 -0.566 185 169 144 0 0
4.5823 6.3634 -4.0887 0.175 -0.779 -0.602 182 166 141 0 0
4.8229 6.4750 -4.1628 0.353 -0.831 -0.429 185 170 147 0 0
5.1122 6.6938 -4.2650 0.530 -0.795 -0.295 185 170 150 0 0
5.2021 6.7658 -4.2974 0.530 -0.795 -0.295 183 169 153 0 0
5.2940 6.8395 -4.3306 0.530 -0.795 -0.295 194 186 175 0 0
5.6475 6.9147 -4.4257 -0.411 -0.034 0.911 222 222 220 0 0
5.6549 6.9002 -4.4252 -0.458 0.007 0.889 222 222 220 0 0
5.6413 6.8650 -4.4165 -0.477 0.000 0.879 222 222 220 0 0
1.8318 8.9625 -3.8592 -0.201 -0.466 0.862 229 227 223 0 0
