ply
format ascii 1.0
element vertex 827
property float x
property float y
property float z
property float nx
property float ny
property float nz
property uchar diffuse_red
property uchar diffuse_green
property uchar diffuse_blue
property uchar class
property uchar detection
end_header
5.7675 10.0578 -2.1596 -0.721 -0.649 -0.244 219 212 206 0 0
6.5818 7.1644 -1.3306 -0.254 -0.963 0.093 211 194 166 0 0
6.6304 7.1303 -1.3043 -0.535 -0.845 0.025 203 187 157 0 0
6.6424 7.1203 -1.2975 -0.450 -0.868 0.208 205 188 155 0 0
6.6547 7.1151 -1.2915 -0.298 -0.950 0.095 203 185 151 0 0
6.6649 7.0809 -1.2814 -0.228 -0.922 -0.314 202 182 148 0 0
6.9876 6.9392 -1.1212 -0.142 -0.953 0.268 198 181 151 0 0
7.0001 6.9413 -1.1162 -0.118 -0.980 0.158 195 178 147 0 0
7.0122 6.9400 -1.1109 -0.151 -0.979 0.136 196 180 147 0 0
7.0248 6.9434 -1.1061 -0.043 -0.989 0.139 198 181 150 0 0
7.1192 6.9152 -1.0615 0.027 -0.984 -0.177 193 175 143 0 0
7.1656 6.8981 -1.0390 0.137 -0.955 0.263 184 166 138 0 0
7.1775 6.8966 -1.0337 -0.093 -0.980 0.177 185 168 137 0 0
7.2843 6.8821 -0.9861 -0.117 -0.981 0.153 183 166 138 0 0
7.2963 6.8814 -0.9809 -0.117 -0.981 0.153 181 163 133 0 0
7.3090 6.8859 -0.9763 0.173 -0.892 0.418 176 157 127 0 0
7.3599 6.9041 -0.9578 -0.064 -0.918 0.392 183 166 137 0 0
7.3957 6.9018 -0.9422 -0.220 -0.970 0.103 193 174 142 0 0
7.4669 6.8958 -0.9111 -0.125 -0.943 0.307 195 179 146 0 0
7.6700 6.9575 -0.8356 0.284 -0.903 0.321 201 178 144 0 0
7.8201 7.0481 -0.7872 0.214 -0.951 0.223 208 188 161 0 0
8.0311 7.1838 -0.7207 -0.046 -0.967 0.250 216 199 172 0 0
8.1066 7.2471 -0.6994 0.655 -0.691 0.306 222 205 180 0 0
8.2217 7.3704 -0.6713 0.503 -0.596 0.626 226 206 181 0 0
8.5102 8.0242 -0.6587 0.866 -0.266 0.423 243 237 229 0 0
2.6802 6.4985 -2.8846 -0.433 -0.833 0.345 218 198 168 0 0
3.4284 6.6817 -2.5989 -0.062 -0.626 0.777 222 201 171 0 0
3.4418 6.6815 -2.5932 -0.321 -0.746 0.584 222 201 171 0 0
3.5662 6.7103 -2.5454 -0.223 -0.616 0.755 221 199 169 0 0
4.0241 6.7839 -2.3640 -0.216 -0.583 0.783 226 204 175 0 0
4.0990 6.8028 -2.3355 -0.285 -0.620 0.731 227 206 177 0 0
4.6933 6.8538 -2.0926 -0.129 -0.763 0.634 224 201 170 0 0
4.7061 6.8558 -2.0876 -0.129 -0.763 0.634 229 207 176 0 0
4.7421 6.8764 -2.0758 0.174 -0.662 0.729 224 202 171 0 0
4.7544 6.8814 -2.0714 -0.267 -0.810 0.522 227 206 177 0 0
4.7666 6.8870 -2.0672 -0.430 -0.845 0.319 229 209 181 0 0
4.8571 6.8931 -2.0299 -0.369 -0.553 0.747 225 204 175 0 0
5.2835 6.9049 -1.8514 0.144 -0.624 0.768 226 205 176 0 0
5.2958 6.9114 -1.8473 0.227 -0.664 0.712 227 204 173 0 0
5.3319 7.1044 -1.8647 0.955 -0.038 0.293 212 185 148 0 0
5.3383 7.1909 -1.8766 0.964 -0.058 0.261 212 188 153 0 0
5.4285 10.0497 -2.3222 -0.257 -0.622 -0.740 215 207 201 0 0
5.5492 9.6636 -2.2058 0.490 -0.698 0.523 216 209 203 0 0
5.5560 9.9033 -2.2434 0.071 -0.692 -0.719 215 208 202 0 0
5.6254 9.8753 -2.2093 0.133 -0.650 -0.748 217 210 204 0 0
5.6514 9.6142 -2.1541 0.155 -0.883 -0.443 217 210 204 0 0
5.6703 9.5470 -2.1348 0.452 -0.813 0.366 218 211 205 0 0
5.6847 9.6138 -2.1400 0.238 -0.874 -0.424 218 211 205 0 0
6.5869 7.1619 -1.3432 -0.254 -0.963 0.093 211 194 165 0 0
6.5996 7.1608 -1.3377 -0.281 -0.954 0.107 211 194 166 0 0
6.6111 7.1419 -1.3296 -0.476 -0.874 0.095 209 193 164 0 0
6.6725 7.1126 -1.2987 0.049 -0.853 -0.520 203 184 149 0 0
6.9937 6.9470 -1.1347 -0.084 -0.996 0.006 196 178 148 0 0
7.0060 6.9474 -1.1296 -0.124 -0.979 -0.161 197 179 147 0 0
7.0173 6.9387 -1.1233 -0.107 -0.989 0.104 196 178 146 0 0
7.0297 6.9407 -1.1184 -0.023 -0.982 0.185 200 181 149 0 0
7.1582 6.8948 -1.0562 -0.224 -0.975 0.017 176 158 126 0 0
7.1695 6.8882 -1.0503 0.001 -0.970 0.245 179 160 131 0 0
7.1821 6.8920 -1.0456 -0.097 -0.988 0.124 178 161 129 0 0
7.1936 6.8872 -1.0400 -0.088 -0.945 0.316 177 161 128 0 0
7.3015 6.8820 -0.9934 -0.163 -0.984 0.067 195 176 148 0 0
7.3138 6.8837 -0.9885 0.196 -0.932 0.306 183 165 135 0 0
7.4714 6.8913 -0.9231 -0.125 -0.943 0.307 202 185 153 0 0
7.4833 6.8909 -0.9180 0.014 -0.986 0.169 201 185 153 0 0
7.4955 6.8922 -0.9130 -0.085 -0.940 0.330 199 181 150 0 0
7.6512 6.9577 -0.8582 -0.213 -0.969 0.124 199 176 144 0 0
7.6629 6.9564 -0.8530 -0.177 -0.972 0.155 203 182 149 0 0
7.6759 6.9615 -0.8484 -0.013 -0.992 0.122 205 184 151 0 0
7.8218 7.0304 -0.7983 0.353 -0.872 0.338 207 188 158 0 0
7.9889 7.1341 -0.7451 0.289 -0.824 0.487 216 199 170 0 0
8.0363 7.1833 -0.7333 0.049 -0.873 0.485 217 200 172 0 0
8.0494 7.1871 -0.7285 0.080 -0.739 0.669 220 203 177 0 0
8.1959 7.3431 -0.6928 0.298 -0.837 0.458 225 208 182 0 0
8.2274 7.3713 -0.6843 0.659 -0.612 0.438 223 203 178 0 0
8.3070 7.4943 -0.6714 0.670 -0.506 0.543 227 211 186 0 0
8.5134 8.0135 -0.6719 0.866 -0.266 0.423 240 234 225 0 0
2.6896 6.4872 -2.8937 -0.265 -0.752 0.603 217 197 168 0 0
2.7311 6.4835 -2.8755 -0.516 -0.787 0.339 217 198 168 0 0
2.8271 6.5102 -2.8394 0.052 -0.702 0.710 222 202 177 0 0
3.2283 6.6158 -2.6876 -0.176 -0.845 0.505 221 204 177 0 0
3.3181 6.6256 -2.6512 -0.401 -0.759 0.513 225 202 170 0 0
3.4371 6.6696 -2.6083 0.025 -0.848 0.529 224 203 172 0 0
3.8543 6.7423 -2.4441 -0.162 -0.602 0.782 225 206 174 0 0
4.2530 6.7843 -2.2824 0.321 -0.617 0.718 225 204 175 0 0
4.5352 6.8150 -2.1681 -0.549 -0.816 0.182 228 205 174 0 0
4.5476 6.8186 -2.1635 -0.015 -0.826 0.563 226 203 172 0 0
4.5608 6.8176 -2.1577 -0.387 -0.635 0.669 226 203 172 0 0
4.7000 6.8438 -2.1033 -0.132 -0.760 0.636 225 202 171 0 0
4.7608 6.8725 -2.0824 -0.351 -0.828 0.437 223 202 173 0 0
5.0862 6.8651 -1.9433 -0.061 -0.940 0.335 228 208 183 0 0
5.3310 7.0185 -1.8659 -0.056 -0.451 0.891 220 195 160 0 0
5.4213 9.9888 -2.3353 0.478 -0.775 0.414 213 208 202 0 0
5.4573 9.9610 -2.3153 -0.347 -0.691 0.635 217 210 203 0 0
5.5256 9.9748 -2.2887 -0.778 -0.574 0.254 217 209 204 0 0
5.5465 9.8886 -2.2652 -0.036 -0.894 0.447 217 210 204 0 0
5.5800 9.9042 -2.2536 0.276 -0.918 -0.287 217 209 206 0 0
5.6121 9.9630 -2.2501 0.027 -0.988 0.151 218 211 205 0 0
5.6319 9.8884 -2.2290 -0.042 -0.772 -0.635 219 212 206 0 0
5.6583 9.6095 -2.1701 0.214 -0.934 -0.286 219 212 206 0 0
5.6746 9.6219 -2.1653 0.115 -0.990 -0.082 219 212 206 0 0
5.7065 9.6696 -2.1600 0.140 -0.922 -0.360 218 213 207 0 0
5.7242 9.6349 -2.1465 0.021 -0.926 0.377 218 213 207 0 0
5.7389 9.7099 -2.1531 0.038 -0.956 -0.290 218 213 207 0 0
5.8011 9.9455 -2.1670 -0.654 -0.386 -0.651 219 214 209 0 0
6.4093 7.3768 -1.4704 -0.221 -0.974 -0.055 206 186 155 0 0
6.4220 7.3672 -1.4634 -0.362 -0.893 -0.266 204 181 150 0 0
6.6049 7.1608 -1.3507 -0.171 -0.984 0.054 207 190 160 0 0
6.6531 7.1221 -1.3236 -0.200 -0.972 -0.124 205 186 154 0 0
6.7238 7.0547 -1.2822 -0.381 -0.915 0.130 202 183 153 0 0
7.0101 6.9376 -1.1409 -0.107 -0.989 0.104 190 170 139 0 0
7.1632 6.8935 -1.0685 -0.224 -0.975 0.017 175 159 126 0 0
7.1743 6.8858 -1.0625 -0.022 -0.991 0.129 180 163 130 0 0
7.1875 6.8937 -1.0583 0.171 -0.985 0.019 183 167 134 0 0
7.2247 6.9004 -1.0437 0.056 -0.981 -0.184 180 164 131 0 0
7.3164 6.8661 -0.9990 -0.018 -0.999 0.040 187 168 138 0 0
7.3283 6.8650 -0.9938 -0.055 -0.991 0.122 174 156 126 0 0
7.3420 6.8764 -0.9899 0.002 -0.983 0.183 172 156 128 0 0
7.3567 6.8943 -0.9867 0.429 -0.873 0.231 172 157 128 0 0
7.3826 6.9055 -0.9777 0.081 -0.913 0.400 176 161 131 0 0
7.3946 6.9053 -0.9726 0.025 -0.993 -0.114 176 161 129 0 0
7.4177 6.8994 -0.9618 -0.000 -0.998 -0.066 178 159 126 0 0
7.4754 6.8846 -0.9348 -0.331 -0.934 0.137 205 186 154 0 0
7.4872 6.8834 -0.9296 -0.073 -0.991 0.113 207 188 157 0 0
7.4995 6.8853 -0.9247 0.039 -0.997 0.071 203 184 154 0 0
7.5115 6.8856 -0.9197 -0.047 -0.981 0.189 201 181 149 0 0
7.6436 6.9538 -0.8754 -0.018 -1.000 0.019 196 175 142 0 0
7.7453 6.9828 -0.8373 0.347 -0.935 0.069 201 180 148 0 0
7.7571 6.9816 -0.8321 0.500 -0.865 -0.045 206 185 154 0 0
7.8136 7.0233 -0.8153 0.513 -0.805 0.298 207 188 157 0 0
8.0427 7.1881 -0.7464 0.254 -0.906 0.337 215 198 170 0 0
8.3113 7.4891 -0.6841 0.722 -0.524 0.452 223 207 182 0 0
8.5115 7.9833 -0.6838 0.798 -0.279 0.535 235 227 218 0 0
3.3258 6.6171 -2.6616 -0.464 -0.730 0.501 224 203 171 0 0
4.1794 6.7837 -2.3287 -0.063 -0.634 0.771 229 206 175 0 0
4.1930 6.7815 -2.3225 -0.341 -0.740 0.580 227 205 174 0 0
4.2596 6.7770 -2.2935 0.476 -0.633 0.611 228 205 175 0 0
4.2722 6.7795 -2.2886 0.173 -0.877 0.449 230 207 178 0 0
4.4129 6.7964 -2.2319 -0.211 -0.611 0.763 227 206 177 0 0
4.5414 6.8083 -2.1795 -0.056 -0.846 0.530 227 205 175 0 0
4.5540 6.8109 -2.1746 -0.015 -0.826 0.563 225 204 174 0 0
4.5666 6.8138 -2.1698 -0.032 -0.953 0.300 224 201 170 0 0
4.6703 6.8168 -2.1263 -0.098 -0.696 0.711 228 205 175 0 0
4.6826 6.8213 -2.1219 0.135 -0.739 0.660 226 203 172 0 0
5.0031 6.8470 -1.9905 -0.326 -0.602 0.729 225 205 176 0 0
5.3083 6.8852 -1.8678 0.425 -0.652 0.628 229 207 176 0 0
5.3373 7.0049 -1.8762 0.360 -0.307 0.881 221 195 160 0 0
5.3553 7.4627 -1.9476 0.946 0.041 0.323 213 204 191 0 0
5.4468 9.9641 -2.3406 0.256 -0.747 0.613 215 211 204 0 0
5.5537 9.8805 -2.2809 -0.036 -0.894 0.447 217 211 205 0 0
5.5707 9.8831 -2.2741 -0.036 -0.894 0.447 217 212 206 0 0
5.5855 9.9409 -2.2778 0.191 -0.936 0.296 217 211 206 0 0
5.6021 9.9566 -2.2735 0.513 -0.858 0.010 217 211 206 0 0
5.6191 9.9624 -2.2673 0.095 -0.903 -0.420 218 212 207 0 0
5.6644 9.6299 -2.1907 -0.358 -0.934 -0.011 218 212 206 0 0
5.6814 9.6206 -2.1819 -0.519 -0.833 0.190 218 213 207 0 0
5.6981 9.6197 -2.1747 -0.319 -0.779 0.539 218 213 207 0 0
5.7307 9.6451 -2.1653 -0.081 -0.833 0.547 220 214 208 0 0
5.7503 10.2128 -2.2550 -0.654 -0.464 -0.598 221 214 208 0 0
5.8622 9.7561 -2.1287 0.171 -0.760 -0.627 219 215 209 0 0
6.4146 7.3737 -1.4833 -0.087 -0.985 -0.146 204 183 151 0 0
6.4274 7.3668 -1.4767 -0.341 -0.934 -0.103 209 186 155 0 0
6.6585 7.1238 -1.3368 -0.029 -0.968 -0.249 202 185 152 0 0
6.6711 7.1228 -1.3313 -0.075 -0.899 -0.431 193 177 144 0 0
6.6834 7.1176 -1.3252 0.242 -0.885 -0.398 198 181 148 0 0
6.9890 6.9218 -1.1619 -0.020 -0.994 -0.111 192 175 145 0 0
7.0033 6.9405 -1.1591 -0.112 -0.990 -0.081 192 172 141 0 0
7.0273 6.9357 -1.1481 -0.214 -0.967 0.138 189 167 134 0 0
7.0522 6.9391 -1.1381 0.202 -0.940 0.276 192 171 141 0 0
7.0985 6.9182 -1.1149 -0.066 -0.955 0.288 187 170 141 0 0
7.1443 6.8952 -1.0915 -0.312 -0.939 0.142 185 170 139 0 0
7.1804 6.8928 -1.0758 0.019 -1.000 0.013 187 170 139 0 0
7.2765 6.8878 -1.0342 0.099 -0.990 -0.098 182 162 133 0 0
7.3598 6.8804 -0.9976 -0.051 -0.949 0.310 175 160 129 0 0
7.3996 6.9044 -0.9849 0.376 -0.926 0.034 176 160 128 0 0
7.4230 6.8998 -0.9742 0.121 -0.988 0.099 173 154 121 0 0
7.4352 6.9011 -0.9693 -0.062 -0.997 0.043 170 151 119 0 0
7.4467 6.8977 -0.9638 -0.255 -0.966 0.051 176 156 124 0 0
7.4591 6.8999 -0.9589 -0.062 -0.996 0.068 180 158 127 0 0
7.4813 6.8892 -0.9477 0.162 -0.984 -0.073 185 166 134 0 0
7.5161 6.8823 -0.9317 -0.051 -0.965 -0.257 198 177 146 0 0
7.5439 6.9043 -0.9238 0.078 -0.813 0.578 205 183 151 0 0
7.5686 6.9086 -0.9140 -0.136 -0.918 0.372 207 186 153 0 0
7.7637 6.9885 -0.8452 0.519 -0.847 0.115 201 181 149 0 0
7.8305 7.0214 -0.8225 0.080 -0.886 0.457 210 190 159 0 0
8.0472 7.1842 -0.7588 0.356 -0.861 0.364 217 200 173 0 0
8.0857 7.1924 -0.7439 0.481 -0.853 0.201 220 203 179 0 0
8.3156 7.4840 -0.6968 0.722 -0.524 0.452 220 203 178 0 0
8.5125 7.9643 -0.6963 0.790 -0.262 0.555 235 226 215 0 0
2.6080 6.5142 -2.9631 -0.696 -0.611 0.377 233 233 227 0 0
2.7616 6.4648 -2.8893 -0.270 -0.700 0.661 222 205 178 0 0
2.7925 6.4874 -2.8802 0.521 -0.643 0.561 221 201 174 0 0
2.8134 6.4680 -2.8679 -0.294 -0.707 0.643 224 204 177 0 0
2.8589 6.4877 -2.8521 -0.013 -0.854 0.520 222 202 175 0 0
2.8672 6.5007 -2.8508 -0.211 -0.742 0.637 222 202 175 0 0
2.8804 6.5009 -2.8453 -0.127 -0.800 0.586 224 204 175 0 0
2.9256 6.4866 -2.8236 -0.355 -0.858 0.371 225 204 176 0 0
3.0782 6.5406 -2.7683 -0.070 -0.568 0.820 220 201 171 0 0
3.9121 6.7099 -2.4443 -0.104 -0.909 0.405 226 202 174 0 0
3.9252 6.7104 -2.4388 -0.113 -0.969 0.219 230 208 179 0 0
4.2239 6.7836 -2.3249 0.064 -0.839 0.540 222 201 170 0 0
4.2383 6.7775 -2.3177 -0.472 -0.824 0.315 225 204 172 0 0
4.2526 6.7719 -2.3107 -0.550 -0.787 0.281 227 204 172 0 0
4.5727 6.8075 -2.1812 -0.265 -0.788 0.556 223 200 169 0 0
4.9969 6.8336 -2.0059 -0.377 -0.656 0.654 223 202 173 0 0
5.0634 6.8155 -1.9746 0.384 -0.650 0.656 229 209 183 0 0
5.0755 6.8218 -1.9705 0.183 -0.782 0.596 225 205 179 0 0
5.5414 9.9307 -2.3150 -0.754 -0.651 0.088 219 213 207 0 0
5.5591 9.9185 -2.3054 0.611 -0.789 0.054 218 213 207 0 0
5.5767 9.9064 -2.2959 0.085 -0.886 0.457 217 212 207 0 0
5.6066 10.0243 -2.3037 -0.118 -0.975 -0.186 217 212 206 0 0
5.6259 9.9665 -2.2855 0.289 -0.954 0.073 218 213 207 0 0
5.6440 9.9393 -2.2730 -0.024 -0.969 0.245 217 214 207 0 0
5.6622 9.9083 -2.2599 -0.169 -0.574 -0.801 217 213 206 0 0
5.7228 9.5736 -2.1759 0.415 -0.802 0.429 219 214 208 0 0
5.7946 10.1041 -2.2379 -0.537 -0.420 -0.732 221 216 211 0 0
5.8142 9.9877 -2.2093 0.877 -0.469 0.101 221 216 212 0 0
5.8688 9.7701 -2.1482 0.010 -0.844 -0.536 221 216 211 0 0
6.3940 7.3793 -1.5087 -0.087 -0.985 -0.146 195 175 142 0 0
6.4196 7.3643 -1.4952 0.251 -0.923 0.292 201 181 149 0 0
6.4331 7.3732 -1.4911 -0.087 -0.985 -0.146 204 184 152 0 0
6.6388 7.1283 -1.3612 0.004 -0.978 -0.210 205 188 158 0 0
6.6769 7.1289 -1.3451 -0.075 -0.899 -0.431 204 187 158 0 0
6.6892 7.1253 -1.3392 -0.005 -0.976 -0.219 202 185 156 0 0
6.7226 7.0653 -1.3147 -0.622 -0.747 -0.234 199 178 147 0 0
6.7345 7.0577 -1.3083 -0.520 -0.853 -0.035 204 183 153 0 0
6.8304 7.0101 -1.2593 -0.080 -0.994 0.070 201 186 157 0 0
7.0199 6.9325 -1.1654 -0.311 -0.942 0.127 191 171 139 0 0
7.0318 6.9298 -1.1599 0.034 -0.996 0.079 194 173 141 0 0
7.0441 6.9305 -1.1548 -0.165 -0.984 0.067 189 168 136 0 0
7.0571 6.9366 -1.1504 0.202 -0.940 0.276 194 174 144 0 0
7.1966 6.8848 -1.0822 0.166 -0.952 0.258 190 173 142 0 0
7.2819 6.8896 -1.0469 0.099 -0.990 -0.098 177 156 125 0 0
7.2941 6.8903 -1.0418 0.099 -0.990 -0.098 183 164 132 0 0
7.3643 6.8763 -1.0096 -0.051 -0.949 0.310 181 166 135 0 0
7.3785 6.8906 -1.0061 0.348 -0.887 0.305 182 167 135 0 0
7.4032 6.8947 -0.9963 0.129 -0.931 0.341 182 166 134 0 0
7.4749 6.8920 -0.9654 0.010 -0.973 0.230 177 159 128 0 0
7.4861 6.8867 -0.9598 0.145 -0.980 0.133 178 160 128 0 0
7.5114 6.8948 -0.9505 0.200 -0.972 -0.119 182 163 131 0 0
7.5334 6.8829 -0.9391 0.139 -0.973 0.185 183 163 130 0 0
7.5494 6.9064 -0.9364 -0.032 -0.970 0.241 189 169 136 0 0
7.5728 6.9029 -0.9259 -0.210 -0.955 0.209 208 188 153 0 0
7.5837 6.8971 -0.9202 0.220 -0.932 0.287 210 190 156 0 0
7.5965 6.9016 -0.9156 0.220 -0.932 0.287 214 194 161 0 0
7.6219 6.9096 -0.9062 0.119 -0.982 0.148 211 191 158 0 0
7.6636 6.9410 -0.8940 0.283 -0.936 0.210 201 178 145 0 0
7.6759 6.9424 -0.8890 0.021 -0.974 0.225 194 171 137 0 0
7.8345 7.0155 -0.8345 0.049 -0.915 0.400 204 183 154 0 0
7.8861 7.0320 -0.8155 0.272 -0.903 0.332 205 186 156 0 0
7.9149 7.0544 -0.8072 0.558 -0.756 0.342 211 190 159 0 0
8.0019 7.1207 -0.7819 0.369 -0.793 0.484 214 197 171 0 0
8.0597 7.1617 -0.7645 -0.199 -0.887 0.417 219 202 176 0 0
8.1418 7.2533 -0.7457 0.567 -0.766 0.304 220 202 178 0 0
8.2382 7.3484 -0.7214 0.455 -0.659 0.598 222 205 179 0 0
8.3144 7.4571 -0.7080 0.791 -0.488 0.369 223 205 181 0 0
8.5104 7.9330 -0.7079 0.783 -0.244 0.572 230 219 206 0 0
2.7720 6.3517 -2.8800 -0.333 -0.845 0.418 220 199 167 0 0
2.7866 6.3480 -2.8731 0.146 -0.896 0.419 219 198 168 0 0
2.9267 6.4966 -2.8399 -0.250 -0.844 0.474 222 202 175 0 0
2.9469 6.4783 -2.8281 0.485 -0.681 0.549 223 203 176 0 0
3.0279 6.5098 -2.7993 -0.541 -0.795 0.273 222 202 173 0 0
3.0647 6.5177 -2.7850 -0.199 -0.635 0.747 224 204 179 0 0
3.0770 6.5206 -2.7804 -0.432 -0.703 0.565 225 205 177 0 0
3.7186 6.6636 -2.5334 -0.130 -0.745 0.655 224 204 175 0 0
3.8579 6.6844 -2.4779 -0.479 -0.731 0.487 222 201 172 0 0
3.9182 6.7055 -2.4560 0.008 -0.965 0.264 228 204 176 0 0
3.9310 6.7070 -2.4509 -0.113 -0.969 0.219 228 206 177 0 0
3.9443 6.7067 -2.4452 -0.113 -0.969 0.219 229 207 179 0 0
4.1372 6.7233 -2.3663 -0.058 -0.676 0.734 225 204 175 0 0
4.2169 6.7788 -2.3423 -0.019 -0.948 0.318 226 203 172 0 0
4.2304 6.7771 -2.3362 -0.012 -0.989 -0.146 223 202 171 0 0
4.2450 6.7697 -2.3287 -0.539 -0.834 0.122 227 205 175 0 0
4.2582 6.7693 -2.3230 -0.557 -0.781 0.282 226 204 173 0 0
5.0797 6.8298 -1.9852 -0.410 -0.732 0.543 227 206 179 0 0
5.5993 9.9451 -2.3133 0.660 -0.751 0.027 218 213 208 0 0
5.6159 9.9623 -2.3093 0.103 -0.992 -0.072 218 213 207 0 0
5.6501 9.9667 -2.2956 0.465 -0.845 0.264 217 214 208 0 0
5.7112 9.6347 -2.2112 0.652 -0.757 -0.039 220 215 209 0 0
5.7852 10.0639 -2.2554 0.219 -0.465 0.858 221 216 212 0 0
6.2037 8.3124 -1.7694 -0.923 -0.176 -0.341 226 222 215 0 0
6.5221 7.2208 -1.4422 0.082 -0.918 0.388 209 190 159 0 0
6.5347 7.2179 -1.4363 -0.312 -0.916 0.251 204 185 153 0 0
6.6325 7.1448 -1.3819 -0.174 -0.985 0.007 207 190 160 0 0
6.6442 7.1296 -1.3743 -0.012 -0.990 -0.139 208 191 161 0 0
6.6695 7.1290 -1.3634 0.004 -0.978 -0.210 203 186 157 0 0
6.8355 7.0091 -1.2719 -0.003 -0.984 0.178 197 182 153 0 0
6.8456 6.9841 -1.2632 -0.057 -0.998 0.021 195 180 151 0 0
6.8578 6.9821 -1.2577 -0.051 -0.993 0.106 200 185 156 0 0
7.0615 6.9299 -1.1621 -0.131 -0.990 0.049 193 174 143 0 0
7.2872 6.8907 -1.0594 0.020 -0.993 0.115 186 165 134 0 0
7.2994 6.8913 -1.0544 0.042 -0.998 0.043 185 167 135 0 0
7.3688 6.8721 -1.0216 -0.051 -0.949 0.310 187 171 141 0 0
7.4555 6.8881 -0.9876 -0.204 -0.958 0.202 182 162 131 0 0
7.4791 6.8857 -0.9772 0.043 -0.883 0.467 180 163 133 0 0
7.4905 6.8825 -0.9717 0.251 -0.878 0.408 176 159 129 0 0
7.5041 6.8916 -0.9676 -0.018 -0.995 0.098 175 158 128 0 0
7.5165 6.8944 -0.9628 0.110 -0.991 0.081 175 158 126 0 0
7.5275 6.8884 -0.9571 0.020 -0.975 -0.221 178 159 127 0 0
7.5774 6.8998 -0.9379 -0.161 -0.956 -0.246 178 159 126 0 0
7.5894 6.8999 -0.9329 0.261 -0.962 -0.074 186 167 133 0 0
7.6012 6.8989 -0.9277 0.061 -0.997 -0.055 187 168 135 0 0
7.6559 6.9357 -0.9110 -0.006 -0.996 0.085 202 179 146 0 0
7.6684 6.9386 -0.9062 0.216 -0.976 0.034 204 180 146 0 0
7.6811 6.9426 -0.9015 0.210 -0.962 0.176 209 185 151 0 0
7.7049 6.9413 -0.8912 0.150 -0.983 0.108 210 187 154 0 0
7.7429 6.9519 -0.8769 0.280 -0.950 0.141 205 182 149 0 0
7.7778 6.9467 -0.8612 0.446 -0.894 -0.049 204 183 155 0 0
7.7905 6.9501 -0.8564 0.312 -0.950 -0.009 203 182 151 0 0
7.8036 6.9560 -0.8519 0.271 -0.939 -0.214 202 181 150 0 0
7.8161 6.9585 -0.8470 0.271 -0.939 -0.214 205 184 153 0 0
7.8290 6.9629 -0.8423 0.166 -0.970 -0.175 204 184 155 0 0
7.8911 7.0307 -0.8279 0.250 -0.930 0.269 206 186 157 0 0
7.9185 7.0464 -0.8190 0.527 -0.813 0.247 211 191 160 0 0
8.0379 7.1496 -0.7866 0.383 -0.849 0.365 217 201 174 0 0
8.0513 7.1550 -0.7818 0.028 -0.947 0.321 216 199 173 0 0
8.0635 7.1551 -0.7767 -0.199 -0.887 0.417 218 201 175 0 0
8.0780 7.1655 -0.7723 0.397 -0.815 0.422 220 203 177 0 0
8.1469 7.2524 -0.7584 0.497 -0.800 0.336 221 204 179 0 0
8.2402 7.3342 -0.7332 0.628 -0.667 0.401 222 205 179 0 0
8.3584 7.5109 -0.7142 0.665 -0.330 0.670 227 211 188 0 0
8.3836 7.5615 -0.7124 0.756 -0.338 0.561 227 211 188 0 0
8.5085 7.9030 -0.7196 0.783 -0.247 0.571 218 206 192 0 0
2.7808 6.3418 -2.8893 -0.379 -0.806 0.455 221 199 167 0 0
2.7957 6.3374 -2.8822 0.044 -0.768 0.639 219 198 167 0 0
2.9539 6.4725 -2.8390 0.009 -0.876 0.483 222 203 172 0 0
3.0074 6.5068 -2.8224 -0.309 -0.665 0.680 223 205 175 0 0
3.0237 6.4982 -2.8140 -0.161 -0.636 0.754 224 205 175 0 0
3.0366 6.4992 -2.8087 -0.503 -0.759 0.413 220 201 171 0 0
3.1718 6.5280 -2.7564 -0.133 -0.640 0.757 223 202 173 0 0
3.1962 6.5340 -2.7471 -0.133 -0.640 0.757 219 198 168 0 0
3.3835 6.5661 -2.6733 0.168 -0.691 0.703 224 203 173 0 0
3.4056 6.5793 -2.6663 0.215 -0.783 0.584 223 203 172 0 0
4.1448 6.7117 -2.3761 -0.037 -0.657 0.753 226 205 176 0 0
4.2198 6.7275 -2.3471 -0.272 -0.636 0.722 225 202 171 0 0
4.2255 6.7619 -2.3507 -0.419 -0.718 0.555 223 202 171 0 0
4.3751 6.7330 -2.2821 0.004 -0.740 0.672 226 205 177 0 0
4.3878 6.7348 -2.2771 0.185 -0.636 0.749 229 208 179 0 0
4.5780 6.7601 -2.2008 -0.425 -0.662 0.617 226 204 173 0 0
4.6785 6.7794 -2.1616 0.212 -0.792 0.573 226 205 176 0 0
4.9067 6.8111 -2.0704 -0.288 -0.682 0.672 228 207 179 0 0
4.9188 6.8170 -2.0663 -0.079 -0.695 0.715 224 203 174 0 0
5.1771 6.8067 -1.9548 -0.185 -0.626 0.758 229 208 181 0 0
5.1900 6.8052 -1.9490 0.140 -0.745 0.653 228 210 182 0 0
5.3673 6.9869 -1.9061 0.964 -0.237 0.120 212 188 155 0 0
5.5154 9.6782 -2.3218 0.458 -0.603 0.653 219 214 208 0 0
5.6232 9.9532 -2.3249 0.463 -0.879 -0.117 219 214 208 0 0
5.6391 9.9899 -2.3247 0.622 -0.766 0.163 219 214 208 0 0
5.6849 9.6239 -2.2402 -0.358 -0.791 -0.496 218 215 210 0 0
5.7011 9.6421 -2.2366 0.119 -0.990 0.071 219 216 210 0 0
5.7178 9.6410 -2.2293 0.615 -0.788 -0.040 220 216 210 0 0
5.7348 9.6287 -2.2198 0.667 -0.743 0.050 221 216 210 0 0
5.7515 9.6288 -2.2128 0.702 -0.712 0.008 221 216 210 0 0
5.7926 10.0473 -2.2697 0.361 -0.467 0.807 221 217 213 0 0
5.8968 9.9777 -2.2131 0.527 -0.387 0.757 221 218 213 0 0
6.0335 9.8550 -2.1333 0.259 -0.910 0.322 223 219 216 0 0
6.0674 9.9064 -2.1281 0.403 -0.677 0.616 225 220 216 0 0
6.4439 7.3702 -1.5173 -0.353 -0.861 0.365 202 182 150 0 0
6.6623 7.1317 -1.3822 -0.339 -0.925 0.173 206 189 159 0 0
6.6749 7.1304 -1.3766 -0.181 -0.966 0.182 208 191 163 0 0
7.1932 6.8726 -1.1108 0.040 -0.989 0.145 188 172 144 0 0
7.2055 6.8740 -1.1058 0.208 -0.937 0.279 189 174 145 0 0
7.2920 6.8880 -1.0716 0.127 -0.963 0.237 184 164 133 0 0
7.3044 6.8902 -1.0667 0.020 -0.993 0.115 191 174 142 0 0
7.3733 6.8680 -1.0335 -0.051 -0.949 0.310 187 169 139 0 0
7.3878 6.8835 -1.0301 0.230 -0.913 0.338 182 167 138 0 0
7.3992 6.8798 -1.0246 0.373 -0.898 0.231 178 163 133 0 0
7.4232 6.8796 -1.0144 -0.199 -0.933 0.299 181 165 132 0 0
7.4593 6.8799 -0.9991 0.064 -0.965 0.255 191 171 142 0 0
7.5216 6.8940 -0.9752 0.110 -0.991 0.081 181 162 132 0 0
7.5950 6.9024 -0.9455 0.261 -0.962 -0.074 178 159 126 0 0
7.6734 6.9375 -0.9185 0.255 -0.939 0.230 175 151 117 0 0
7.6854 6.9377 -0.9134 0.051 -0.938 0.343 179 155 121 0 0
7.6973 6.9372 -0.9083 -0.093 -0.954 0.285 189 166 132 0 0
7.7945 6.9443 -0.8683 0.025 -0.985 -0.173 202 181 151 0 0
7.8062 6.9432 -0.8631 0.015 -0.996 -0.088 203 182 151 0 0
7.8687 6.9562 -0.8389 -0.082 -0.960 0.268 206 187 157 0 0
7.9072 7.0251 -0.8348 0.245 -0.895 -0.372 209 189 158 0 0
8.0421 7.1442 -0.7988 0.497 -0.853 0.160 216 199 173 0 0
8.0697 7.1592 -0.7897 0.419 -0.864 0.279 215 198 172 0 0
8.0838 7.1673 -0.7852 0.318 -0.844 0.432 218 201 175 0 0
8.3721 7.5436 -0.7297 0.643 -0.411 0.647 227 209 185 0 0
2.7737 6.3386 -2.9065 -0.382 -0.805 0.454 219 195 164 0 0
2.7881 6.3356 -2.8998 -0.382 -0.805 0.454 220 197 166 0 0
2.8144 6.3353 -2.8886 0.276 -0.750 0.601 220 199 170 0 0
2.8235 6.3453 -2.8865 0.355 -0.794 0.493 219 198 170 0 0
2.8447 6.3579 -2.8798 -0.088 -0.800 0.594 219 198 169 0 0
3.0973 6.4908 -2.7964 -0.240 -0.713 0.659 222 203 173 0 0
3.1396 6.4830 -2.7770 -0.273 -0.648 0.711 224 205 174 0 0
3.1491 6.4935 -2.7749 -0.344 -0.713 0.611 224 205 175 0 0
3.4047 6.5562 -2.6776 -0.120 -0.800 0.588 225 206 176 0 0
3.4166 6.5602 -2.6732 -0.067 -0.820 0.568 225 204 175 0 0
3.4255 6.5738 -2.6719 -0.119 -0.818 0.563 224 202 172 0 0
3.8493 6.6545 -2.5064 -0.099 -0.698 0.709 226 203 172 0 0
3.8747 6.6577 -2.4962 -0.320 -0.735 0.598 225 203 172 0 0
4.7771 6.7593 -2.1312 -0.194 -0.815 0.546 227 206 177 0 0
5.1833 6.7957 -1.9652 -0.154 -0.760 0.631 228 208 182 0 0
5.1959 6.7974 -1.9602 -0.062 -0.863 0.502 230 213 185 0 0
5.2079 6.8050 -1.9564 0.180 -0.679 0.712 231 211 184 0 0
5.2197 6.8156 -1.9533 0.132 -0.588 0.798 229 208 181 0 0
5.3508 6.9336 -1.9188 0.044 -0.432 0.901 213 188 153 0 0
5.3611 6.9670 -1.9204 0.820 -0.423 0.387 215 190 154 0 0
5.5912 9.6335 -2.3014 -0.169 -0.924 0.343 221 216 210 0 0
5.6811 9.9721 -2.3241 0.665 -0.746 -0.032 221 218 213 0 0
5.7072 9.6642 -2.2577 0.484 -0.790 -0.375 220 217 212 0 0
6.0235 9.9300 -2.1711 0.320 -0.910 0.263 225 221 217 0 0
6.0404 9.8530 -2.1501 0.300 -0.921 0.248 224 220 217 0 0
6.0573 9.8601 -2.1442 0.300 -0.921 0.248 225 222 217 0 0
6.0911 9.8685 -2.1313 0.320 -0.518 0.793 226 221 217 0 0
6.1081 9.8854 -2.1271 0.320 -0.518 0.793 226 222 217 0 0
6.4362 7.3704 -1.5363 -0.194 -0.937 0.290 205 184 153 0 0
6.8573 6.9980 -1.2906 0.285 -0.954 0.088 196 181 152 0 0
6.8690 6.9903 -1.2842 -0.037 -0.998 -0.043 197 182 153 0 0
6.8811 6.9871 -1.2785 -0.066 -0.998 -0.017 194 179 150 0 0
7.1407 6.8952 -1.1518 -0.293 -0.880 0.374 185 168 141 0 0
7.1525 6.8929 -1.1463 -0.077 -0.993 0.088 191 175 147 0 0
7.3094 6.8889 -1.0790 0.097 -0.990 0.102 184 167 135 0 0
7.3210 6.8861 -1.0736 -0.181 -0.983 0.005 183 168 137 0 0
7.3897 6.8629 -1.0402 -0.197 -0.980 0.004 183 166 136 0 0
7.4016 6.8625 -1.0351 0.086 -0.991 -0.103 178 161 131 0 0
7.4173 6.8858 -1.0326 0.014 -0.893 0.450 176 160 129 0 0
7.4650 6.8835 -1.0119 -0.106 -0.983 -0.147 186 168 139 0 0
7.5277 6.8993 -0.9881 0.350 -0.928 0.127 182 163 131 0 0
7.5998 6.9005 -0.9577 -0.024 -0.962 0.270 189 170 137 0 0
7.6533 6.9304 -0.9404 -0.003 -0.995 0.104 183 163 128 0 0
7.6653 6.9309 -0.9354 -0.003 -0.995 0.104 185 162 127 0 0
7.6783 6.9359 -0.9308 0.189 -0.924 0.333 175 151 116 0 0
7.6910 6.9395 -0.9260 0.185 -0.965 0.184 175 151 117 0 0
7.7024 6.9365 -0.9206 0.034 -0.931 0.363 176 153 121 0 0
7.7997 6.9442 -0.8807 0.262 -0.938 -0.229 207 186 154 0 0
7.8117 6.9444 -0.8756 0.015 -0.996 -0.088 205 184 153 0 0
7.9006 7.0260 -0.8525 0.365 -0.880 0.302 207 188 158 0 0
8.0472 7.1433 -0.8113 0.339 -0.939 0.057 216 198 172 0 0
8.0745 7.1565 -0.8021 0.377 -0.912 0.161 213 194 169 0 0
8.1178 7.1861 -0.7890 0.171 -0.804 0.570 219 203 177 0 0
8.2664 7.3465 -0.7547 0.686 -0.711 0.155 222 205 179 0 0
8.3734 7.5269 -0.7416 0.643 -0.411 0.647 225 207 182 0 0
8.4316 7.6571 -0.7403 0.716 -0.449 0.534 218 202 177 0 0
8.5330 7.8020 -0.7233 0.341 -0.872 0.351 245 245 243 0 0
2.7966 6.3262 -2.9093 -0.382 -0.805 0.454 222 200 169 0 0
2.8104 6.3244 -2.9031 -0.128 -0.774 0.620 221 200 170 0 0
2.8335 6.3321 -2.8947 0.057 -0.686 0.725 221 201 171 0 0
2.8391 6.3511 -2.8957 0.287 -0.678 0.677 220 200 170 0 0
3.4333 6.5647 -2.6820 -0.304 -0.816 0.491 224 202 173 0 0
3.4482 6.5589 -2.6745 -0.041 -0.724 0.689 223 201 171 0 0
3.6634 6.5854 -2.5879 -0.353 -0.847 0.397 225 202 171 0 0
3.6758 6.5876 -2.5830 -0.385 -0.860 0.336 222 199 168 0 0
3.6888 6.5880 -2.5776 -0.148 -0.856 0.495 222 198 169 0 0
3.7138 6.5924 -2.5678 0.027 -0.753 0.657 226 203 174 0 0
3.7369 6.6033 -2.5599 0.104 -0.775 0.623 223 202 171 0 0
3.8824 6.6474 -2.5061 -0.343 -0.735 0.585 225 202 171 0 0
3.8965 6.6433 -2.4994 -0.400 -0.807 0.435 226 206 176 0 0
3.9104 6.6400 -2.4928 -0.400 -0.807 0.435 226 207 179 0 0
4.7332 6.7422 -2.1618 -0.290 -0.805 0.517 225 203 175 0 0
4.7460 6.7430 -2.1565 -0.255 -0.714 0.652 228 204 176 0 0
4.7593 6.7397 -2.1502 -0.468 -0.742 0.481 228 207 179 0 0
4.8355 6.7465 -2.1191 -0.329 -0.632 0.702 228 207 176 0 0
4.8597 6.7574 -2.1108 -0.248 -0.696 0.674 229 209 180 0 0
5.0903 6.7571 -2.0127 0.272 -0.540 0.797 228 207 178 0 0
5.1265 6.7767 -2.0009 -0.054 -0.783 0.619 229 209 183 0 0
5.3431 6.9326 -1.9371 -0.416 -0.557 0.718 218 194 159 0 0
5.3560 6.9322 -1.9315 -0.076 -0.526 0.847 212 188 153 0 0
5.5286 9.6875 -2.3576 0.491 -0.404 0.772 219 216 209 0 0
5.5476 9.6355 -2.3401 0.147 -0.753 0.642 221 217 211 0 0
5.5638 9.6498 -2.3358 0.445 -0.810 0.383 221 216 211 0 0
5.5801 9.6614 -2.3310 0.312 -0.770 0.557 221 216 211 0 0
5.5976 9.6435 -2.3203 -0.619 -0.782 -0.074 222 217 211 0 0
5.6128 9.6835 -2.3211 -0.530 -0.847 -0.039 221 216 210 0 0
5.6711 9.9645 -2.3473 -0.119 -0.976 0.183 221 217 213 0 0
5.6885 9.9585 -2.3388 0.489 -0.843 0.225 222 218 213 0 0
5.7135 9.6836 -2.2784 0.007 -0.987 0.160 221 218 212 0 0
5.7318 9.6267 -2.2603 0.480 -0.730 -0.487 222 218 212 0 0
5.7482 9.6345 -2.2547 0.474 -0.783 -0.403 222 218 211 0 0
5.7649 9.6334 -2.2474 0.164 -0.888 -0.430 222 218 211 0 0
5.7809 9.6640 -2.2461 -0.122 -0.608 -0.785 222 219 212 0 0
5.7976 9.6608 -2.2384 -0.452 -0.652 -0.608 223 220 214 0 0
6.4547 7.3690 -1.5438 -0.222 -0.968 0.113 201 180 149 0 0
6.6597 7.1244 -1.4124 -0.356 -0.891 0.283 202 185 156 0 0
6.8497 6.9930 -1.3078 0.181 -0.980 0.077 194 176 148 0 0
6.8625 6.9973 -1.3032 0.259 -0.920 0.293 197 181 153 0 0
6.9452 6.9580 -1.2609 0.191 -0.980 0.061 198 180 148 0 0
7.0506 6.9133 -1.2080 0.116 -0.979 0.165 185 166 135 0 0
7.0628 6.9132 -1.2028 -0.135 -0.956 0.259 192 174 144 0 0
7.1808 6.8838 -1.1474 -0.186 -0.979 0.080 189 173 146 0 0
7.2403 6.8767 -1.1208 -0.008 -0.951 0.308 185 170 141 0 0
7.3262 6.8862 -1.0860 -0.292 -0.952 0.090 182 167 136 0 0
7.3948 6.8628 -1.0526 -0.021 -0.998 -0.065 185 166 135 0 0
7.4071 6.8642 -1.0477 0.086 -0.991 -0.103 184 165 135 0 0
7.4458 6.8814 -1.0343 0.040 -0.967 0.250 183 165 135 0 0
7.4694 6.8787 -1.0238 -0.187 -0.948 0.257 186 168 140 0 0
7.5073 6.8901 -1.0098 0.130 -0.990 0.048 188 169 137 0 0
7.5207 6.8983 -1.0056 0.213 -0.935 0.284 185 165 133 0 0
7.6166 6.8986 -0.9648 0.207 -0.937 0.282 189 171 138 0 0
7.6582 6.9293 -0.9527 0.073 -0.994 0.084 183 162 127 0 0
7.6703 6.9296 -0.9477 -0.003 -0.995 0.104 182 159 124 0 0
7.6833 6.9348 -0.9431 0.185 -0.965 0.184 185 161 125 0 0
7.6959 6.9381 -0.9383 0.185 -0.965 0.184 187 164 130 0 0
7.7077 6.9372 -0.9331 0.290 -0.957 -0.027 190 168 135 0 0
8.0227 7.1188 -0.8322 0.341 -0.884 0.320 210 193 165 0 0
8.0371 7.1290 -0.8279 0.419 -0.908 0.021 212 195 168 0 0
8.2723 7.3484 -0.7677 0.663 -0.694 0.282 219 202 175 0 0
8.2910 7.3738 -0.7644 0.713 -0.664 0.226 219 202 176 0 0
8.5560 7.9692 -0.7597 0.870 -0.301 0.390 237 230 220 0 0
2.7946 6.3105 -2.9220 0.267 -0.792 0.549 217 194 161 0 0
2.8045 6.3185 -2.9193 -0.114 -0.777 0.619 216 195 164 0 0
2.8179 6.3175 -2.9134 -0.047 -0.793 0.607 216 196 164 0 0
2.8244 6.3340 -2.9136 -0.133 -0.883 0.451 220 201 171 0 0
2.8373 6.3345 -2.9082 0.081 -0.841 0.534 220 201 171 0 0
2.8653 6.3970 -2.9078 -0.152 -0.613 0.775 221 202 172 0 0
2.8777 6.3990 -2.9029 -0.050 -0.602 0.797 220 200 173 0 0
3.4447 6.5021 -2.6807 -0.116 -0.909 0.401 222 201 174 0 0
3.6856 6.5708 -2.5908 -0.387 -0.724 0.571 225 202 170 0 0
3.6962 6.5795 -2.5879 -0.132 -0.715 0.686 223 200 169 0 0
3.7067 6.5888 -2.5851 0.382 -0.672 0.634 223 201 170 0 0
3.7210 6.5843 -2.5782 0.018 -0.871 0.491 224 203 172 0 0
3.7328 6.5888 -2.5740 0.142 -0.867 0.478 227 206 176 0 0
4.3873 6.6815 -2.3127 -0.260 -0.742 0.618 224 203 174 0 0
4.4878 6.6972 -2.2729 -0.557 -0.784 0.275 226 203 171 0 0
4.4998 6.7022 -2.2687 -0.630 -0.717 0.299 226 203 172 0 0
4.5254 6.7033 -2.2580 -0.184 -0.811 0.556 227 205 174 0 0
4.5623 6.7140 -2.2443 0.226 -0.581 0.782 224 203 175 0 0
4.5758 6.7106 -2.2379 -0.089 -0.690 0.718 224 203 174 0 0
4.6275 6.7100 -2.2158 0.133 -0.780 0.611 224 203 173 0 0
4.6425 6.6968 -2.2070 -0.191 -0.972 0.137 226 205 174 0 0
4.6558 6.6943 -2.2009 -0.063 -0.988 0.143 227 205 174 0 0
4.6690 6.6922 -2.1949 -0.326 -0.919 0.220 231 208 179 0 0
5.1957 6.7733 -1.9858 -0.298 -0.810 0.505 227 207 182 0 0
5.2333 6.7795 -1.9710 -0.101 -0.734 0.671 228 208 182 0 0
5.2853 6.7671 -1.9466 -0.131 -0.712 0.690 226 205 176 0 0
5.3626 6.9143 -1.9406 -0.048 -0.481 0.875 213 190 154 0 0
5.5048 9.6216 -2.3756 0.277 -0.693 0.666 221 218 211 0 0
5.5196 9.6635 -2.3769 -0.506 -0.694 0.512 221 218 211 0 0
5.5375 9.6401 -2.3651 0.144 -0.518 0.843 220 217 210 0 0
5.5537 9.6522 -2.3604 0.144 -0.518 0.843 222 217 213 0 0
5.5714 9.6299 -2.3488 -0.106 -0.429 0.897 222 217 213 0 0
5.6040 9.6520 -2.3390 -0.548 -0.818 0.176 222 217 211 0 0
5.6195 9.6878 -2.3389 -0.341 -0.883 0.323 222 217 211 0 0
5.7349 9.7640 -2.3038 -0.007 -0.423 0.906 224 219 213 0 0
5.7532 9.7063 -2.2855 -0.454 -0.849 0.270 223 218 212 0 0
5.7713 9.6521 -2.2679 0.302 -0.659 -0.689 224 219 213 0 0
5.7870 9.6962 -2.2692 0.507 -0.783 -0.359 224 220 215 0 0
5.9531 9.8280 -2.2227 0.099 -0.816 0.569 225 220 213 0 0
6.0889 10.0770 -2.2105 0.083 -0.408 0.909 226 222 219 0 0
6.1061 10.0750 -2.2029 -0.164 -0.394 0.904 227 223 220 0 0
6.4598 7.3615 -1.5560 -0.054 -0.980 0.190 195 175 142 0 0
6.8422 6.9891 -1.3253 -0.073 -0.993 -0.092 197 177 148 0 0
6.8549 6.9930 -1.3206 0.181 -0.980 0.077 197 179 149 0 0
6.8676 6.9957 -1.3157 0.181 -0.980 0.077 200 183 154 0 0
6.9501 6.9556 -1.2732 0.210 -0.957 0.198 196 180 150 0 0
7.1858 6.8831 -1.1598 -0.223 -0.956 0.193 188 172 146 0 0
7.1976 6.8801 -1.1542 -0.186 -0.979 0.080 186 170 144 0 0
7.2809 6.8714 -1.1172 0.021 -0.984 0.177 186 170 140 0 0
7.2932 6.8725 -1.1122 0.021 -0.984 0.177 183 166 137 0 0
7.4126 6.8669 -1.0604 0.134 -0.982 -0.134 184 164 133 0 0
7.4377 6.8736 -1.0509 0.213 -0.974 0.082 184 165 133 0 0
7.4505 6.8784 -1.0464 0.040 -0.967 0.250 182 163 132 0 0
7.7010 6.9379 -0.9507 0.210 -0.962 0.176 191 168 132 0 0
7.7133 6.9392 -0.9458 0.290 -0.957 -0.027 189 168 134 0 0
7.7260 6.9429 -0.9411 0.290 -0.957 -0.027 187 166 133 0 0
7.8119 6.9533 -0.9064 0.096 -0.975 -0.202 194 174 143 0 0
7.8245 6.9563 -0.9016 -0.070 -0.977 -0.200 202 181 150 0 0
7.8491 6.9595 -0.8917 -0.058 -0.997 0.044 206 187 154 0 0
7.9409 7.0525 -0.8697 0.331 -0.837 0.435 206 187 156 0 0
8.0572 7.1408 -0.8364 0.184 -0.961 0.206 216 197 171 0 0
8.1154 7.1822 -0.8193 0.351 -0.770 0.534 213 196 168 0 0
8.1299 7.1923 -0.8149 0.424 -0.775 0.468 212 195 168 0 0
8.2969 7.3757 -0.7775 0.713 -0.664 0.226 220 203 177 0 0
8.3966 7.5247 -0.7624 0.879 -0.378 0.289 226 210 184 0 0
8.4369 7.6337 -0.7652 0.835 -0.432 0.340 226 210 187 0 0
8.4547 7.6537 -0.7613 0.862 -0.368 0.347 227 211 193 0 0
8.4867 7.7286 -0.7614 0.862 -0.368 0.347 229 216 203 0 0
8.5192 7.8046 -0.7615 0.862 -0.368 0.347 239 234 225 0 0
8.5474 7.8134 -0.7511 0.605 -0.762 0.231 244 244 242 0 0
2.8033 6.3007 -2.9312 0.103 -0.794 0.599 220 199 167 0 0
2.8128 6.3096 -2.9288 -0.114 -0.777 0.619 218 197 166 0 0
2.8301 6.2989 -2.9195 -0.317 -0.755 0.574 218 197 166 0 0
3.7276 6.5784 -2.5893 0.104 -0.775 0.623 226 205 174 0 0
3.7398 6.5813 -2.5846 0.170 -0.732 0.659 230 209 180 0 0
3.7526 6.5823 -2.5794 -0.028 -0.708 0.705 228 208 178 0 0
4.1172 6.6340 -2.4338 -0.311 -0.714 0.627 227 206 177 0 0
4.5078 6.6858 -2.2772 -0.465 -0.858 0.217 226 203 172 0 0
4.5319 6.6952 -2.2687 -0.324 -0.848 0.419 227 204 173 0 0
4.5461 6.6877 -2.2613 0.380 -0.703 0.601 228 204 174 0 0
4.5586 6.6899 -2.2564 0.463 -0.655 0.597 228 206 177 0 0
4.5822 6.7027 -2.2487 -0.098 -0.700 0.707 227 206 177 0 0
4.6337 6.7025 -2.2267 0.133 -0.780 0.611 223 203 173 0 0
4.6613 6.6915 -2.2130 -0.228 -0.971 0.067 224 203 174 0 0
4.7874 6.7055 -2.1620 -0.179 -0.702 0.689 225 204 173 0 0
5.0155 6.7196 -2.0675 0.290 -0.617 0.732 226 206 179 0 0
5.1243 6.7723 -2.0310 0.405 -0.648 0.645 225 205 178 0 0
5.1385 6.7589 -2.0224 -0.054 -0.783 0.619 227 207 180 0 0
5.1785 6.7410 -2.0021 -0.129 -0.620 0.774 228 208 181 0 0
5.1900 6.7530 -1.9994 -0.210 -0.605 0.768 227 207 181 0 0
5.2783 6.7603 -1.9632 -0.341 -0.717 0.608 229 209 182 0 0
5.2911 6.7590 -1.9575 -0.341 -0.717 0.608 229 209 180 0 0
5.3411 6.7676 -1.9379 0.069 -0.828 0.556 220 197 164 0 0
5.3689 6.8996 -1.9504 0.099 -0.442 0.892 217 193 158 0 0
5.5138 9.5736 -2.3827 -0.174 -0.982 -0.078 221 218 211 0 0
5.5266 9.6604 -2.3933 -0.281 -0.959 0.026 221 218 211 0 0
5.5434 9.6596 -2.3860 -0.261 -0.947 -0.187 221 218 211 0 0
5.5606 9.6491 -2.3767 -0.208 -0.974 0.093 222 217 212 0 0
5.5938 9.6586 -2.3643 0.367 -0.909 0.200 223 218 212 0 0
5.6106 9.6589 -2.3573 0.022 -0.999 0.026 223 218 212 0 0
5.6266 9.6794 -2.3542 -0.341 -0.883 0.323 223 218 212 0 0
5.7604 9.6933 -2.2999 -0.461 -0.853 0.243 225 220 214 0 0
5.7777 9.6655 -2.2874 0.330 -0.865 -0.377 225 220 215 0 0
5.7948 9.6502 -2.2773 -0.230 -0.835 -0.499 226 221 217 0 0
5.8159 9.4296 -2.2276 -0.422 -0.530 0.736 224 221 216 0 0
6.0959 10.0566 -2.2243 -0.166 -0.415 0.894 227 223 220 0 0
6.4651 7.3577 -1.5687 -0.108 -0.961 0.253 199 178 145 0 0
6.8352 6.9917 -1.3437 0.019 -0.999 0.028 194 174 141 0 0
6.8476 6.9919 -1.3384 0.135 -0.990 0.031 197 177 146 0 0
6.8601 6.9919 -1.3331 -0.036 -0.993 0.112 200 183 153 0 0
6.8725 6.9924 -1.3279 0.200 -0.956 0.217 198 181 151 0 0
6.8963 6.9825 -1.3160 -0.316 -0.947 -0.049 193 176 148 0 0
6.9546 6.9488 -1.2849 0.221 -0.921 0.321 196 181 153 0 0
7.1784 6.8792 -1.1769 -0.021 -0.908 0.418 187 172 143 0 0
7.1905 6.8789 -1.1717 -0.046 -0.911 0.410 181 165 139 0 0
7.2981 6.8708 -1.1244 0.151 -0.948 0.279 179 162 132 0 0
7.4301 6.8691 -1.0679 0.170 -0.976 0.137 184 165 133 0 0
7.4429 6.8737 -1.0634 0.213 -0.974 0.082 185 166 134 0 0
7.4558 6.8791 -1.0589 0.070 -0.995 -0.070 178 159 127 0 0
7.4664 6.8705 -1.0528 -0.010 -1.000 0.024 182 163 132 0 0
7.5162 6.8816 -1.0336 0.250 -0.967 0.047 179 160 126 0 0
7.8158 6.9469 -0.9182 0.002 -0.997 -0.074 198 178 146 0 0
7.8276 6.9458 -0.9130 -0.108 -0.989 0.098 196 177 145 0 0
7.8537 6.9563 -0.9039 -0.062 -0.997 -0.040 200 181 149 0 0
8.0595 7.1274 -0.8479 -0.054 -0.995 0.085 213 193 166 0 0
8.0778 7.1542 -0.8451 0.494 -0.853 0.171 210 193 165 0 0
8.1184 7.1721 -0.8311 0.542 -0.750 0.380 213 194 167 0 0
8.1337 7.1856 -0.8271 0.530 -0.784 0.323 214 196 168 0 0
8.1487 7.1974 -0.8229 0.460 -0.791 0.404 217 200 173 0 0
8.2856 7.3580 -0.7943 0.744 -0.630 0.224 221 201 174 0 0
8.3020 7.3743 -0.7903 0.694 -0.716 0.081 221 203 177 0 0
8.3840 7.5028 -0.7792 0.767 -0.475 0.431 222 206 181 0 0
8.4427 7.6345 -0.7785 0.836 -0.429 0.341 230 214 193 0 0
8.4673 7.6807 -0.7766 0.845 -0.383 0.374 232 215 198 0 0
8.4927 7.7299 -0.7749 0.862 -0.368 0.347 228 215 203 0 0
2.8223 6.2977 -2.9373 -0.355 -0.794 0.493 218 197 166 0 0
2.8869 6.3662 -2.9225 -0.297 -0.946 0.125 222 202 174 0 0
2.8986 6.3698 -2.9182 0.005 -0.989 0.145 222 202 175 0 0
3.4100 6.4775 -2.7206 -0.393 -0.709 0.585 226 205 175 0 0
3.4444 6.4925 -2.7088 -0.047 -0.716 0.696 226 202 174 0 0
3.7365 6.5637 -2.5977 0.113 -0.745 0.658 226 205 176 0 0
3.9632 6.5926 -2.5066 0.060 -0.684 0.727 226 205 175 0 0
4.0005 6.5995 -2.4921 -0.117 -0.671 0.732 225 206 176 0 0
4.5525 6.6799 -2.2721 0.417 -0.632 0.653 222 200 169 0 0
4.5764 6.6903 -2.2638 0.142 -0.795 0.589 226 205 176 0 0
4.5886 6.6942 -2.2594 -0.159 -0.748 0.644 225 204 174 0 0
4.6541 6.6877 -2.2303 -0.174 -0.972 -0.157 228 208 179 0 0
4.6676 6.6832 -2.2237 -0.405 -0.914 0.033 227 206 178 0 0
5.3635 6.8699 -1.9623 0.038 -0.540 0.841 216 192 156 0 0
5.3756 6.8801 -1.9591 0.368 -0.535 0.760 213 189 154 0 0
5.5356 9.6099 -2.3999 0.381 -0.618 0.688 223 218 212 0 0
5.5510 9.6421 -2.3993 0.121 -0.542 0.831 223 218 212 0 0
5.5655 9.6948 -2.4030 -0.412 -0.878 -0.244 222 218 212 0 0
5.5840 9.6547 -2.3876 0.553 -0.727 -0.407 222 219 212 0 0
5.5999 9.6759 -2.3848 0.666 -0.728 0.161 223 219 213 0 0
5.6184 9.6316 -2.3687 -0.092 -0.933 -0.347 223 218 214 0 0
5.6329 9.6932 -2.3740 -0.225 -0.827 0.515 223 218 213 0 0
5.6511 9.6517 -2.3585 -0.137 -0.905 0.403 223 218 212 0 0
5.7168 9.6971 -2.3390 0.339 -0.821 -0.460 224 220 214 0 0
5.7333 9.7070 -2.3338 0.244 -0.690 0.682 224 220 214 0 0
5.7673 9.6881 -2.3158 -0.520 -0.854 0.017 225 221 216 0 0
5.7845 9.6697 -2.3051 -0.411 -0.722 -0.557 225 221 217 0 0
5.8009 9.6834 -2.3007 -0.719 -0.672 -0.178 226 222 218 0 0
5.8175 9.6873 -2.2943 -0.383 -0.619 -0.686 226 222 218 0 0
6.0178 9.7113 -2.2136 0.259 -0.860 0.441 227 224 219 0 0
6.6989 7.0963 -1.4361 -0.195 -0.958 0.209 201 184 155 0 0
6.8527 6.9902 -1.3509 -0.036 -0.993 0.112 191 173 140 0 0
6.8653 6.9922 -1.3459 0.019 -0.999 0.028 195 178 146 0 0
6.9719 6.9470 -1.2921 -0.127 -0.928 0.351 192 177 151 0 0
7.1589 6.8758 -1.1992 0.181 -0.983 -0.011 186 171 142 0 0
7.2309 6.8717 -1.1678 -0.166 -0.986 -0.018 177 161 135 0 0
7.2427 6.8696 -1.1624 -0.166 -0.986 -0.018 184 167 139 0 0
7.2782 6.8643 -1.1463 -0.087 -0.993 0.077 185 168 138 0 0
7.4230 6.8674 -1.0852 0.166 -0.949 0.267 189 169 138 0 0
7.4481 6.8741 -1.0758 0.230 -0.953 0.199 186 167 135 0 0
7.4734 6.8819 -1.0665 -0.086 -0.974 0.211 177 158 126 0 0
7.5083 6.8756 -1.0505 0.347 -0.929 0.125 179 160 126 0 0
7.5213 6.8811 -1.0460 0.347 -0.929 0.125 181 162 127 0 0
7.5835 6.8942 -1.0219 0.102 -0.957 0.270 182 159 128 0 0
7.5959 6.8966 -1.0171 0.183 -0.983 -0.015 188 165 133 0 0
7.6082 6.8985 -1.0122 -0.065 -0.997 -0.033 182 160 127 0 0
7.7088 6.9243 -0.9742 0.028 -0.989 0.144 186 164 130 0 0
7.8040 6.9813 -0.9443 0.242 -0.916 0.321 195 175 142 0 0
7.8340 6.9518 -0.9260 -0.134 -0.990 0.040 200 180 148 0 0
7.8465 6.9541 -0.9212 0.034 -0.999 0.035 200 181 149 0 0
8.1533 7.1944 -0.8354 0.564 -0.767 0.306 215 196 169 0 0
8.3081 7.3768 -0.8035 0.694 -0.704 0.152 221 203 176 0 0
8.4485 7.6351 -0.7919 0.836 -0.429 0.341 231 215 194 0 0
8.4726 7.6795 -0.7899 0.845 -0.383 0.374 232 215 198 0 0
8.4985 7.7302 -0.7883 0.851 -0.390 0.351 229 217 204 0 0
8.5284 7.7961 -0.7879 0.851 -0.390 0.351 240 235 226 0 0
8.5438 7.8054 -0.7831 0.683 -0.626 0.377 244 245 241 0 0
2.8788 6.3655 -2.9407 -0.211 -0.713 0.668 219 198 169 0 0
3.0142 6.3885 -2.8873 0.067 -0.577 0.814 223 204 175 0 0
3.0381 6.3946 -2.8783 -0.169 -0.798 0.579 220 199 169 0 0
3.0635 6.3968 -2.8679 -0.512 -0.780 0.358 223 202 171 0 0
3.0752 6.4006 -2.8636 -0.107 -0.721 0.685 223 203 172 0 0
3.1009 6.4018 -2.8529 0.149 -0.655 0.740 221 201 172 0 0
3.1118 6.4079 -2.8494 -0.168 -0.714 0.680 223 204 175 0 0
3.4528 6.4813 -2.7180 -0.121 -0.793 0.597 223 202 172 0 0
3.4643 6.4861 -2.7140 -0.047 -0.716 0.696 225 204 175 0 0
3.5758 6.5054 -2.6702 0.025 -0.667 0.745 223 202 171 0 0
3.6011 6.5077 -2.6598 -0.335 -0.709 0.621 229 205 176 0 0
3.8237 6.5485 -2.5727 -0.167 -0.605 0.778 226 205 176 0 0
3.9682 6.5927 -2.5195 -0.076 -0.758 0.648 228 206 175 0 0
3.9851 6.5768 -2.5093 -0.125 -0.774 0.621 227 207 178 0 0
3.9956 6.5869 -2.5067 -0.171 -0.985 0.031 226 207 177 0 0
4.0097 6.5818 -2.4997 -0.171 -0.936 0.307 224 205 175 0 0
4.0230 6.5806 -2.4939 -0.286 -0.902 0.322 225 206 176 0 0
4.0373 6.5751 -2.4867 -0.014 -0.704 0.710 227 208 178 0 0
4.0478 6.5850 -2.4841 0.099 -0.719 0.688 228 207 178 0 0
4.0586 6.5941 -2.4812 0.094 -0.696 0.712 225 204 175 0 0
4.0699 6.6012 -2.4777 0.252 -0.632 0.733 224 203 174 0 0
4.1087 6.6013 -2.4612 -0.476 -0.778 0.411 226 204 175 0 0
4.2841 6.6269 -2.3914 -0.414 -0.662 0.625 220 200 169 0 0
4.3729 6.6341 -2.3549 -0.417 -0.651 0.634 225 203 173 0 0
4.3858 6.6339 -2.3494 -0.359 -0.723 0.590 224 204 175 0 0
4.4100 6.6418 -2.3406 0.169 -0.760 0.628 223 202 173 0 0
4.5353 6.6599 -2.2906 -0.406 -0.672 0.619 229 206 176 0 0
4.5425 6.6918 -2.2935 -0.089 -0.989 0.122 225 204 175 0 0
4.5829 6.6820 -2.2745 0.400 -0.877 0.267 228 207 176 0 0
4.5951 6.6861 -2.2701 -0.106 -0.961 -0.257 225 203 172 0 0
4.6084 6.6832 -2.2638 -0.292 -0.906 -0.306 227 204 173 0 0
4.6870 6.6738 -2.2286 -0.185 -0.813 0.552 227 206 179 0 0
5.3167 6.7271 -1.9705 -0.306 -0.578 0.756 224 201 170 0 0
5.5423 9.6122 -2.4173 0.174 -0.507 0.844 224 219 213 0 0
5.5576 9.6463 -2.4171 0.440 -0.627 0.643 225 220 214 0 0
5.5919 9.6264 -2.3988 -0.395 -0.885 0.247 223 220 213 0 0
5.6077 9.6504 -2.3966 -0.258 -0.941 -0.218 224 220 214 0 0
5.6252 9.6301 -2.3853 0.157 -0.987 -0.036 225 220 216 0 0
5.6574 9.6675 -2.3786 0.638 -0.768 -0.056 224 219 214 0 0
5.7055 9.7408 -2.3719 0.801 -0.481 0.357 225 222 217 0 0
5.7231 9.7143 -2.3594 0.300 -0.887 -0.350 225 222 215 0 0
5.7741 9.6874 -2.3326 -0.317 -0.923 0.216 226 223 218 0 0
5.7910 9.6807 -2.3242 -0.411 -0.722 -0.557 226 223 218 0 0
5.8081 9.6636 -2.3137 -0.531 -0.653 -0.540 226 222 218 0 0
5.8258 9.6125 -2.2966 -0.022 -0.638 -0.770 227 222 218 0 0
5.8914 9.6776 -2.2809 0.568 -0.721 0.396 228 223 217 0 0
5.9081 9.6745 -2.2732 0.346 -0.793 0.501 227 222 218 0 0
5.9247 9.6824 -2.2676 0.005 -0.881 0.473 227 223 218 0 0
6.0413 9.6809 -2.2177 -0.438 -0.860 0.260 228 224 221 0 0
6.4501 7.3660 -1.6080 -0.658 -0.746 -0.099 190 166 130 0 0
6.8576 6.9865 -1.3630 -0.201 -0.954 0.224 194 175 141 0 0
6.8822 6.9844 -1.3522 -0.056 -0.957 0.285 195 178 147 0 0
7.1749 6.8665 -1.2053 -0.054 -0.997 0.054 182 165 135 0 0
7.1871 6.8669 -1.2002 0.231 -0.961 0.151 185 168 139 0 0
7.2002 6.8747 -1.1961 -0.117 -0.981 0.158 188 171 143 0 0
7.2122 6.8741 -1.1909 -0.117 -0.981 0.158 173 156 128 0 0
7.2359 6.8701 -1.1801 -0.197 -0.968 0.154 180 163 137 0 0
7.2481 6.8709 -1.1750 -0.160 -0.979 0.124 180 163 135 0 0
7.2831 6.8629 -1.1586 -0.087 -0.993 0.077 185 168 139 0 0
7.3075 6.8646 -1.1485 0.006 -0.970 0.245 187 170 140 0 0
7.3571 6.8745 -1.1292 0.156 -0.984 0.086 181 164 134 0 0
7.3691 6.8741 -1.1241 -0.096 -0.978 0.186 175 159 126 0 0
7.4777 6.8769 -1.0783 -0.022 -0.999 0.047 174 155 123 0 0
7.5883 6.8921 -1.0341 0.067 -0.960 0.273 183 163 131 0 0
7.6131 6.8970 -1.0245 0.206 -0.979 0.003 181 158 124 0 0
7.6255 6.8992 -1.0196 0.030 -0.999 -0.035 184 163 130 0 0
7.7137 6.9227 -0.9865 0.028 -0.989 0.144 190 170 137 0 0
8.0438 7.1183 -0.8827 0.133 -0.944 0.302 206 185 154 0 0
8.1411 7.1716 -0.8513 0.575 -0.809 -0.119 213 194 167 0 0
8.3149 7.3822 -0.8169 0.645 -0.762 -0.059 219 199 172 0 0
8.4545 7.6368 -0.8053 0.828 -0.432 0.358 229 213 193 0 0
8.4780 7.6783 -0.8032 0.845 -0.383 0.374 231 214 195 0 0
8.5083 7.7463 -0.8030 0.819 -0.435 0.374 227 214 200 0 0
8.5318 7.7870 -0.8007 0.825 -0.449 0.343 241 236 227 0 0
8.5492 7.8040 -0.7965 0.660 -0.633 0.405 245 246 242 0 0
8.5671 7.8230 -0.7924 0.701 -0.613 0.363 245 245 243 0 0
3.0564 6.3935 -2.8851 -0.512 -0.780 0.358 221 200 169 0 0
3.0995 6.3830 -2.8648 0.277 -0.640 0.717 220 201 171 0 0
3.4042 6.4444 -2.7466 -0.273 -0.933 0.234 225 206 176 0 0
3.6222 6.4969 -2.6637 -0.364 -0.688 0.628 226 203 172 0 0
3.6485 6.4959 -2.6523 -0.222 -0.647 0.730 221 200 169 0 0
4.0672 6.5789 -2.4896 0.044 -0.675 0.737 229 208 179 0 0
4.4033 6.6360 -2.3573 -0.233 -0.873 0.429 227 206 179 0 0
4.4162 6.6357 -2.3517 -0.231 -0.919 0.318 226 203 177 0 0
4.6361 6.6246 -2.2559 -0.480 -0.825 0.297 228 207 177 0 0
4.6637 6.6118 -2.2417 -0.526 -0.850 0.021 226 207 178 0 0
4.6757 6.6165 -2.2375 0.082 -0.678 0.730 226 207 177 0 0
4.6786 6.6772 -2.2477 -0.508 -0.857 0.081 225 206 178 0 0
4.6926 6.6697 -2.2404 -0.276 -0.837 0.472 227 207 180 0 0
4.9622 6.6562 -2.1229 0.055 -0.733 0.678 230 210 183 0 0
4.9748 6.6568 -2.1177 -0.055 -0.856 0.514 232 211 184 0 0
5.0363 6.6721 -2.0944 0.180 -0.632 0.754 229 209 182 0 0
5.1101 6.6909 -2.0665 -0.166 -0.729 0.664 227 207 180 0 0
5.3099 6.7171 -1.9863 -0.323 -0.647 0.691 224 201 171 0 0
5.3894 7.1852 -2.0414 0.961 0.040 0.275 196 173 141 0 0
5.6417 6.8761 -1.8752 -0.149 -0.308 0.940 225 220 217 0 0
5.5826 9.6098 -2.4194 -0.265 -0.414 0.871 224 221 214 0 0
5.6310 9.6586 -2.4081 0.200 -0.899 -0.389 226 221 217 0 0
5.6485 9.6354 -2.3962 0.631 -0.772 0.077 226 221 217 0 0
5.6652 9.6361 -2.3892 0.759 -0.621 0.195 226 221 215 0 0
5.6817 9.6444 -2.3838 0.837 -0.545 -0.052 226 221 215 0 0
5.6960 9.7265 -2.3933 0.766 -0.574 0.290 227 222 216 0 0
5.7289 9.7549 -2.3846 0.673 -0.735 -0.082 226 223 217 0 0
5.7812 9.6775 -2.3477 -0.022 -0.933 -0.360 226 223 218 0 0
5.7976 9.6907 -2.3431 -0.482 -0.846 -0.227 226 223 219 0 0
5.8145 9.6839 -2.3347 -0.340 -0.790 -0.510 228 224 219 0 0
5.8315 9.6672 -2.3242 -0.244 -0.731 -0.637 228 223 219 0 0
5.9156 9.6054 -2.2767 0.110 -0.989 0.094 229 224 220 0 0
5.9316 9.6718 -2.2825 0.283 -0.692 0.664 229 225 220 0 0
5.9814 9.7023 -2.2670 -0.218 -0.909 0.354 228 225 220 0 0
6.1319 9.7680 -2.2154 0.697 -0.523 -0.490 231 227 224 0 0
6.6963 7.0895 -1.4663 -0.324 -0.942 0.083 199 184 155 0 0
6.9819 6.9428 -1.3167 -0.128 -0.934 0.333 192 176 144 0 0
7.0741 6.8930 -1.2680 -0.110 -0.994 -0.026 184 169 139 0 0
7.1566 6.8725 -1.2289 0.057 -0.984 -0.170 184 167 137 0 0
7.1921 6.8661 -1.2126 0.231 -0.961 0.151 185 168 138 0 0
7.2050 6.8722 -1.2083 -0.117 -0.981 0.158 185 168 139 0 0
7.2170 6.8716 -1.2030 -0.117 -0.981 0.158 182 165 137 0 0
7.2410 6.8698 -1.1925 -0.160 -0.979 0.124 176 160 132 0 0
7.2764 6.8641 -1.1763 0.002 -1.000 -0.012 177 160 130 0 0
7.2887 6.8657 -1.1714 0.206 -0.973 0.105 179 162 133 0 0
7.3002 6.8617 -1.1657 -0.069 -0.994 -0.087 181 164 135 0 0
7.3122 6.8616 -1.1606 0.006 -0.970 0.245 185 168 138 0 0
7.3236 6.8574 -1.1549 0.160 -0.934 0.320 180 164 136 0 0
7.3362 6.8611 -1.1503 0.160 -0.934 0.320 182 167 138 0 0
7.3499 6.8722 -1.1465 0.029 -0.951 0.309 181 164 135 0 0
7.4820 6.8718 -1.0901 -0.149 -0.986 0.079 177 156 125 0 0
7.5310 6.8779 -1.0704 0.130 -0.949 0.287 182 162 130 0 0
7.5426 6.8753 -1.0650 0.132 -0.976 0.172 183 162 131 0 0
7.5803 6.8856 -1.0509 0.121 -0.961 0.249 185 165 134 0 0
7.5928 6.8884 -1.0461 0.121 -0.961 0.249 185 165 133 0 0
7.6058 6.8944 -1.0417 0.220 -0.966 0.138 182 162 129 0 0
7.6306 6.8987 -1.0320 0.083 -0.990 -0.110 177 156 123 0 0
