ply
format ascii 1.0
element vertex 822
property float x
property float y
property float z
property float nx
property float ny
property float nz
property uchar diffuse_red
property uchar diffuse_green
property uchar diffuse_blue
property uchar class
property uchar detection
end_header
4.7670 6.1408 -2.5215 -0.075 -0.747 0.661 222 202 169 0 0
5.0049 6.1340 -2.4723 0.060 -0.869 0.490 221 202 172 0 0
5.0161 6.1274 -2.4685 -0.261 -0.702 0.663 222 202 174 0 0
5.0274 6.1208 -2.4647 -0.416 -0.890 0.186 223 202 175 0 0
5.1241 6.1015 -2.4408 -0.064 -0.892 0.448 225 204 172 0 0
5.1366 6.1010 -2.4382 -0.141 -0.688 0.712 222 201 169 0 0
5.1492 6.1010 -2.4356 -0.141 -0.688 0.712 223 202 168 0 0
5.1618 6.1006 -2.4330 -0.135 -0.702 0.700 220 196 162 0 0
5.1745 6.1010 -2.4306 -0.076 -0.751 0.656 208 184 148 0 0
5.1876 6.1030 -2.4284 -0.101 -0.730 0.676 203 179 143 0 0
5.2000 6.1021 -2.4257 -0.026 -0.809 0.587 208 185 151 0 0
5.4676 6.7740 -2.5319 -0.967 -0.171 -0.189 198 177 150 0 0
5.5114 6.6758 -2.4998 -0.778 -0.627 -0.027 227 224 220 0 0
6.4683 8.8129 -2.8165 0.226 -0.827 0.514 217 216 212 0 0
6.5863 8.8611 -2.8043 -0.869 -0.037 -0.494 213 212 209 0 0
6.5841 8.7972 -2.7896 -0.889 -0.022 -0.458 212 211 209 0 0
6.7585 8.6968 -2.7308 -0.494 -0.137 0.859 202 202 200 0 0
7.0421 8.0732 -2.5259 -0.842 -0.119 0.526 152 151 146 0 0
7.0665 8.0949 -2.5262 -0.980 -0.192 -0.044 149 147 140 0 0
7.0783 8.0829 -2.5209 -0.747 -0.623 0.232 148 144 135 0 0
7.0675 8.0113 -2.5061 -0.283 -0.228 -0.931 152 146 135 0 0
7.0760 7.9911 -2.4996 -0.125 -0.276 -0.953 156 147 134 0 0
7.0984 7.5610 -2.3929 -0.207 -0.747 -0.632 167 150 123 0 0
7.2980 7.3021 -2.2914 -0.289 -0.688 -0.666 177 160 134 0 0
7.3095 7.2935 -2.2871 -0.292 -0.689 -0.664 175 159 133 0 0
7.3314 7.2742 -2.2781 -0.240 -0.671 -0.702 177 161 135 0 0
7.4375 7.2732 -2.2566 0.178 -0.971 0.160 179 164 139 0 0
7.5356 7.2545 -2.2326 0.309 -0.758 -0.575 187 172 148 0 0
7.5472 7.2468 -2.2284 0.331 -0.855 -0.399 187 172 149 0 0
7.6575 7.2543 -2.2081 0.225 -0.888 -0.402 187 171 148 0 0
1.7901 9.0523 -3.8262 -0.348 -0.892 0.288 228 227 225 0 0
2.1260 9.0489 -3.7583 -0.040 -0.825 0.564 219 215 211 0 0
2.7154 6.3814 -3.0021 -0.029 -0.938 0.347 212 188 157 0 0
2.7277 6.3804 -2.9994 -0.287 -0.948 0.133 209 186 153 0 0
2.7655 6.3630 -2.9877 -0.271 -0.855 0.443 211 187 149 0 0
3.2937 6.3233 -2.8727 -0.057 -0.731 0.680 224 203 172 0 0
3.3061 6.3226 -2.8700 -0.296 -0.714 0.634 224 203 172 0 0
3.5402 6.2969 -2.8171 -0.020 -0.584 0.812 226 205 175 0 0
3.9231 6.2661 -2.7332 -0.444 -0.605 0.661 225 204 175 0 0
4.0824 6.2346 -2.6939 -0.242 -0.645 0.725 225 203 174 0 0
4.4387 6.1863 -2.6111 -0.160 -0.701 0.695 225 204 174 0 0
4.5369 6.1727 -2.5882 -0.138 -0.674 0.725 227 206 176 0 0
4.5605 6.1631 -2.5812 0.032 -0.750 0.661 222 201 171 0 0
4.6248 6.1738 -2.5709 -0.663 -0.736 0.137 222 202 172 0 0
4.7682 6.1313 -2.5321 -0.075 -0.747 0.661 221 200 169 0 0
4.8432 6.1300 -2.5168 -0.132 -0.791 0.597 227 203 175 0 0
5.1257 6.0958 -2.4522 0.032 -0.793 0.609 221 200 168 0 0
5.1747 6.0894 -2.4409 0.011 -0.733 0.680 208 184 148 0 0
5.2007 6.0925 -2.4364 -0.349 -0.773 0.530 206 184 152 0 0
5.2268 6.0960 -2.4320 0.048 -0.837 0.545 202 180 151 0 0
5.4712 6.7756 -2.5459 -0.940 -0.211 -0.268 199 175 149 0 0
5.5151 6.6780 -2.5137 -0.602 -0.763 -0.237 225 225 220 0 0
6.5838 8.8397 -2.8175 -0.920 -0.038 -0.389 214 213 211 0 0
6.6243 8.4780 -2.7229 -0.435 -0.150 0.888 207 206 204 0 0
6.6505 8.5074 -2.7247 -0.645 -0.137 0.752 207 204 203 0 0
7.0496 8.0833 -2.5434 -0.387 -0.098 0.917 152 153 149 0 0
7.0632 8.0759 -2.5390 -0.310 -0.195 0.930 151 152 147 0 0
7.0781 8.0721 -2.5351 -0.284 -0.183 0.941 146 147 143 0 0
7.0969 8.0788 -2.5329 -0.495 -0.191 -0.848 146 145 140 0 0
7.1059 8.0597 -2.5265 -0.205 -0.310 -0.928 147 143 135 0 0
7.1019 7.5608 -2.4079 -0.044 -0.699 -0.714 164 148 123 0 0
7.1159 7.5570 -2.4042 -0.231 -0.602 -0.765 166 150 126 0 0
7.1249 7.5408 -2.3985 -0.431 -0.508 -0.746 164 148 124 0 0
7.1280 7.5100 -2.3906 -0.031 -0.642 -0.766 173 157 133 0 0
7.2062 7.3645 -2.3401 -0.459 -0.539 -0.706 177 161 138 0 0
7.2147 7.3483 -2.3346 -0.572 -0.544 -0.614 178 163 140 0 0
7.4402 7.2713 -2.2711 0.178 -0.971 0.160 164 148 123 0 0
7.5097 7.2566 -2.2537 0.080 -0.751 -0.655 187 169 145 0 0
7.5475 7.2725 -2.2499 0.309 -0.758 -0.575 185 170 146 0 0
7.5670 7.2489 -2.2403 0.136 -0.763 -0.632 189 175 149 0 0
7.6702 7.2732 -2.2256 0.290 -0.846 -0.447 188 171 150 0 0
8.7379 8.1646 -2.2256 0.503 -0.621 0.601 229 229 227 0 0
8.7684 8.1894 -2.2254 0.503 -0.621 0.601 231 231 229 0 0
8.9045 8.2187 -2.2052 -0.050 -0.261 0.964 233 233 231 0 0
1.7633 9.0417 -3.8463 -0.414 -0.907 0.081 230 229 227 0 0
1.7798 9.0371 -3.8418 -0.252 -0.798 0.548 229 228 226 0 0
1.7948 9.0434 -3.8404 -0.302 -0.823 0.481 229 228 226 0 0
2.0457 9.0806 -3.7993 0.096 -0.988 0.117 228 227 222 0 0
2.0747 9.1069 -3.7998 -0.393 -0.892 -0.225 226 225 221 0 0
2.3473 8.9526 -3.7082 0.384 -0.738 0.555 215 209 204 0 0
2.3629 8.9561 -3.7059 0.069 -0.732 0.678 214 210 204 0 0
2.3778 8.9685 -3.7059 0.493 -0.837 0.237 212 209 203 0 0
2.4130 8.9309 -3.6899 0.090 -0.980 0.178 213 208 203 0 0
2.4267 8.9579 -3.6936 0.270 -0.877 -0.397 215 209 203 0 0
2.7312 6.3690 -3.0091 -0.155 -0.873 0.462 215 194 162 0 0
2.8441 6.3183 -2.9744 -0.242 -0.657 0.713 218 196 164 0 0
3.1984 6.3064 -2.9008 -0.003 -0.768 0.640 220 199 168 0 0
4.0735 6.2427 -2.7107 -0.177 -0.705 0.686 225 203 174 0 0
4.4626 6.1577 -2.6126 -0.132 -0.629 0.766 225 203 171 0 0
4.5134 6.1639 -2.6039 -0.240 -0.559 0.794 226 205 174 0 0
4.7694 6.1222 -2.5428 -0.334 -0.610 0.719 224 205 174 0 0
5.0021 6.0933 -2.4894 -0.333 -0.633 0.699 224 204 174 0 0
5.5189 6.6805 -2.5277 -0.606 -0.761 -0.231 226 225 219 0 0
6.4778 8.7598 -2.8372 -0.133 -0.663 0.737 216 215 211 0 0
7.0498 8.4336 -2.6444 0.061 -0.615 0.786 172 171 167 0 0
7.0627 8.0645 -2.5529 -0.357 -0.208 0.910 151 152 151 0 0
7.0776 8.0609 -2.5491 -0.477 -0.161 0.864 150 150 149 0 0
7.1451 7.5431 -2.4109 0.167 -0.656 -0.736 170 154 129 0 0
7.1621 7.5467 -2.4084 0.077 -0.705 -0.705 171 155 130 0 0
7.1822 7.5200 -2.3979 -0.069 -0.586 -0.807 172 158 133 0 0
7.2282 7.4817 -2.3795 -0.052 -0.549 -0.834 176 161 139 0 0
7.2204 7.3534 -2.3501 -0.546 -0.504 -0.670 179 164 139 0 0
7.4104 7.2647 -2.2908 0.313 -0.943 -0.111 183 167 142 0 0
7.4282 7.2703 -2.2886 0.313 -0.943 -0.111 187 171 145 0 0
7.4430 7.2694 -2.2855 0.178 -0.971 0.160 170 155 129 0 0
7.6796 7.2854 -2.2421 0.207 -0.817 -0.538 191 175 154 0 0
8.1546 7.5818 -2.2187 0.353 -0.933 0.073 221 216 212 0 0
8.1745 7.5895 -2.2165 0.353 -0.933 0.073 221 217 214 0 0
8.1986 7.6052 -2.2155 0.446 -0.895 0.014 221 218 215 0 0
8.5728 7.9755 -2.2300 -0.563 -0.820 0.104 227 227 226 0 0
8.7385 8.1898 -2.2486 -0.655 -0.506 0.562 229 229 228 0 0
8.7901 8.1904 -2.2384 0.273 -0.808 0.523 230 230 228 0 0
1.3807 9.2539 -3.9912 -0.927 -0.255 0.274 235 234 232 0 0
2.1540 9.0034 -3.7762 -0.569 -0.820 0.062 226 221 217 0 0
2.2320 9.0226 -3.7654 0.568 -0.720 -0.400 220 216 210 0 0
2.4120 8.9830 -3.7199 -0.039 -0.978 0.204 215 210 204 0 0
2.4291 8.9710 -3.7135 0.200 -0.936 -0.291 215 210 204 0 0
2.6207 7.1757 -3.2399 -0.912 -0.197 -0.361 216 209 197 0 0
2.7991 6.3054 -2.9932 -0.311 -0.751 0.582 215 189 153 0 0
2.8354 6.3064 -2.9862 -0.114 -0.637 0.762 217 194 162 0 0
2.8475 6.3068 -2.9839 -0.242 -0.657 0.713 218 196 164 0 0
3.1527 6.2825 -2.9172 -0.116 -0.798 0.592 223 202 171 0 0
3.1649 6.2821 -2.9146 -0.142 -0.774 0.616 223 202 171 0 0
3.1773 6.2705 -2.9093 -0.116 -0.864 0.490 221 199 168 0 0
3.1892 6.2859 -2.9107 0.280 -0.746 0.604 221 199 168 0 0
3.2013 6.2958 -2.9107 0.140 -0.758 0.637 222 201 170 0 0
3.2135 6.2965 -2.9084 -0.029 -0.787 0.617 223 202 173 0 0
3.2381 6.2913 -2.9023 -0.388 -0.727 0.566 219 197 166 0 0
3.3975 6.2740 -2.8663 -0.189 -0.721 0.666 224 203 172 0 0
3.4098 6.2761 -2.8643 0.071 -0.755 0.651 222 201 170 0 0
3.8025 6.2327 -2.7755 -0.207 -0.617 0.759 227 207 180 0 0
4.5748 6.1383 -2.5986 -0.015 -0.693 0.721 223 201 169 0 0
4.5876 6.1402 -2.5965 -0.015 -0.693 0.721 223 200 169 0 0
4.7005 6.1417 -2.5743 -0.642 -0.495 0.585 225 205 175 0 0
5.0147 6.0797 -2.4966 -0.338 -0.582 0.739 226 204 174 0 0
5.0749 6.0678 -2.4817 -0.383 -0.684 0.621 223 200 168 0 0
5.5011 6.6520 -2.5384 -0.850 -0.377 -0.368 226 223 218 0 0
5.5240 6.6881 -2.5426 -0.200 -0.946 -0.254 227 224 218 0 0
6.5782 8.5738 -2.7897 -0.988 -0.091 -0.122 211 210 208 0 0
7.1660 8.4635 -2.6457 0.038 -0.464 0.885 160 158 160 0 0
7.1923 8.4886 -2.6466 -0.089 -0.530 0.844 158 156 158 0 0
7.0653 8.0612 -2.5682 -0.468 -0.318 0.824 152 151 151 0 0
7.1534 8.2073 -2.5861 -0.594 -0.113 -0.797 150 149 147 0 0
7.1710 8.2101 -2.5833 -0.420 -0.147 -0.896 148 147 145 0 0
7.1597 8.0948 -2.5576 -0.390 -0.461 -0.797 147 143 140 0 0
7.1654 8.0672 -2.5497 -0.442 -0.364 -0.820 142 137 133 0 0
7.1730 7.5645 -2.4263 -0.085 -0.595 -0.799 170 156 132 0 0
7.1825 7.5497 -2.4208 -0.056 -0.615 -0.787 169 156 131 0 0
7.1954 7.5432 -2.4167 -0.056 -0.615 -0.787 168 156 131 0 0
7.2944 7.4105 -2.3647 -0.179 -0.483 -0.857 178 164 138 0 0
7.3914 7.3511 -2.3310 0.243 -0.693 -0.678 182 166 141 0 0
7.6354 7.3139 -2.2733 -0.347 -0.611 -0.712 188 173 151 0 0
8.1011 7.5946 -2.2485 -0.749 -0.632 0.199 212 205 195 0 0
8.1074 7.5755 -2.2426 -0.772 -0.600 0.210 218 214 207 0 0
8.1570 7.5480 -2.2260 0.032 -0.796 0.604 220 219 216 0 0
8.1797 7.5610 -2.2247 0.025 -0.904 0.426 220 219 217 0 0
8.4907 7.9387 -2.2543 -0.578 -0.806 0.125 224 224 222 0 0
8.7243 8.1558 -2.2603 -0.305 -0.910 0.280 228 228 228 0 0
8.7813 8.1981 -2.2592 0.168 -0.810 0.562 229 229 227 0 0
2.2067 8.9912 -3.7800 -0.147 -0.747 0.649 224 220 216 0 0
2.3532 8.9644 -3.7443 0.394 -0.919 0.004 217 214 207 0 0
2.3678 8.9799 -3.7452 0.462 -0.883 0.085 217 213 207 0 0
2.3977 9.0038 -3.7450 0.304 -0.922 0.239 217 212 208 0 0
2.4161 8.9762 -3.7346 0.220 -0.912 -0.345 217 212 206 0 0
2.4321 8.9773 -3.7317 0.200 -0.936 -0.291 217 213 206 0 0
2.9977 6.2672 -2.9573 -0.504 -0.647 0.572 221 200 169 0 0
3.0095 6.2756 -2.9570 0.056 -0.708 0.704 222 200 169 0 0
3.1922 6.2695 -2.9191 0.042 -0.767 0.640 223 202 171 0 0
3.3021 6.2757 -2.8987 0.091 -0.680 0.727 222 201 170 0 0
3.4493 6.2669 -2.8673 0.080 -0.748 0.658 222 200 169 0 0
3.4737 6.2578 -2.8602 -0.094 -0.632 0.769 222 201 170 0 0
3.4859 6.2558 -2.8573 -0.392 -0.685 0.614 223 202 171 0 0
3.5352 6.2620 -2.8489 0.470 -0.875 0.118 226 205 174 0 0
3.5480 6.2787 -2.8505 -0.375 -0.824 0.425 226 206 175 0 0
3.5602 6.2752 -2.8472 -0.726 -0.663 0.184 225 204 173 0 0
4.1008 6.2091 -2.7233 0.073 -0.671 0.738 223 204 175 0 0
4.9879 6.0576 -2.5096 0.015 -0.806 0.592 225 202 171 0 0
5.0149 6.0670 -2.5065 -0.338 -0.582 0.739 221 198 167 0 0
5.5279 6.6911 -2.5567 -0.200 -0.946 -0.254 226 223 217 0 0
6.5875 8.6455 -2.8227 -0.982 -0.176 -0.061 212 211 209 0 0
6.6053 8.3821 -2.7549 -0.994 -0.088 -0.059 207 206 204 0 0
6.5977 8.1551 -2.7010 -0.988 -0.146 -0.040 204 202 203 0 0
6.7663 8.5679 -2.7682 -0.680 -0.133 0.721 202 201 199 0 0
6.7777 8.5512 -2.7618 -0.726 -0.116 0.677 201 200 198 0 0
6.8043 8.4294 -2.7268 0.082 -0.468 0.880 198 197 195 0 0
7.1590 8.4794 -2.6683 -0.473 -0.606 0.640 165 163 164 0 0
7.2146 8.4920 -2.6603 -0.236 -0.739 0.631 158 156 157 0 0
7.2290 8.4853 -2.6558 -0.572 -0.757 0.316 155 154 153 0 0
7.1710 8.1140 -2.5767 -0.569 -0.422 -0.706 146 143 142 0 0
7.1795 8.0937 -2.5701 -0.469 -0.447 -0.762 143 141 138 0 0
7.1907 8.0804 -2.5646 -0.673 -0.571 -0.470 141 138 139 0 0
7.4164 7.3648 -2.3449 0.209 -0.727 -0.654 179 164 141 0 0
7.6134 7.3579 -2.3040 0.391 -0.792 -0.469 190 176 151 0 0
7.6332 7.3672 -2.3023 0.411 -0.785 -0.463 188 176 153 0 0
8.3225 7.7986 -2.2703 0.592 -0.636 -0.494 220 220 218 0 0
8.4699 7.9233 -2.2713 -0.745 -0.567 0.353 224 223 221 0 0
2.0962 9.1523 -3.8588 0.778 -0.558 -0.288 229 228 224 0 0
2.1289 9.0048 -3.8161 -0.297 -0.938 0.180 229 227 223 0 0
2.3893 8.9569 -3.7524 0.200 -0.979 0.023 219 214 210 0 0
2.7056 6.4895 -3.0831 -0.619 -0.478 -0.623 217 202 182 0 0
2.8053 6.2922 -3.0148 -0.626 -0.756 0.190 208 184 150 0 0
2.8302 6.2804 -3.0069 -0.319 -0.639 0.700 219 196 162 0 0
2.8913 6.2698 -2.9921 -0.221 -0.698 0.681 218 196 164 0 0
2.9398 6.2680 -2.9820 -0.305 -0.628 0.716 222 199 168 0 0
3.2684 6.2504 -2.9123 0.090 -0.666 0.741 223 200 169 0 0
3.3294 6.2641 -2.9035 -0.385 -0.563 0.731 221 201 171 0 0
3.3538 6.2501 -2.8952 -0.231 -0.750 0.620 225 205 175 0 0
3.4395 6.2466 -2.8773 -0.078 -0.770 0.633 224 203 173 0 0
3.4517 6.2472 -2.8750 -0.078 -0.770 0.633 222 201 170 0 0
3.4763 6.2504 -2.8709 -0.141 -0.674 0.725 225 204 173 0 0
3.4885 6.2454 -2.8673 -0.392 -0.685 0.614 225 204 173 0 0
3.5382 6.2722 -2.8639 -0.161 -0.895 0.416 226 204 173 0 0
3.5505 6.2719 -2.8614 -0.375 -0.824 0.425 227 204 173 0 0
3.5626 6.2628 -2.8568 -0.320 -0.858 0.402 224 202 171 0 0
4.1269 6.1929 -2.7273 -0.525 -0.628 0.574 228 207 180 0 0
4.1387 6.1868 -2.7234 -0.573 -0.620 0.537 227 206 179 0 0
4.1504 6.1803 -2.7195 -0.525 -0.628 0.574 226 205 177 0 0
4.3211 6.1530 -2.6788 -0.335 -0.717 0.612 225 205 178 0 0
4.8307 6.0696 -2.5569 -0.357 -0.591 0.723 224 204 172 0 0
4.9891 6.0496 -2.5204 0.015 -0.806 0.592 221 198 167 0 0
5.0014 6.0491 -2.5178 -0.219 -0.639 0.737 221 198 167 0 0
5.0852 6.0316 -2.4969 -0.086 -0.760 0.644 218 196 162 0 0
5.5307 6.6899 -2.5700 -0.131 -0.964 -0.231 225 222 217 0 0
6.5115 8.4961 -2.8186 -0.612 -0.582 -0.535 214 213 211 0 0
6.7829 8.5043 -2.7666 -0.295 -0.376 0.878 200 199 197 0 0
7.1273 8.3834 -2.6683 -0.510 -0.771 0.382 166 164 164 0 0
7.2489 8.4825 -2.6685 -0.513 -0.458 0.726 156 155 153 0 0
7.2822 8.5251 -2.6723 -0.469 -0.502 0.727 154 152 152 0 0
7.4092 7.3749 -2.3644 0.070 -0.785 -0.616 181 166 142 0 0
7.4220 7.3692 -2.3604 0.263 -0.884 -0.386 181 166 144 0 0
2.0947 9.0550 -3.8525 -0.876 -0.382 -0.294 230 229 225 0 0
2.2787 8.9806 -3.7975 -0.239 -0.887 -0.394 225 220 216 0 0
2.3774 8.9508 -3.7705 0.563 -0.824 -0.063 221 217 213 0 0
2.6217 7.1053 -3.2654 -0.868 -0.371 -0.330 219 214 207 0 0
2.6233 7.2531 -3.3016 -0.890 -0.241 -0.386 220 213 204 0 0
2.8945 6.2593 -3.0018 -0.221 -0.698 0.681 220 197 165 0 0
2.9067 6.2581 -2.9991 -0.221 -0.698 0.681 222 200 168 0 0
3.4788 6.2399 -2.8808 -0.087 -0.848 0.523 223 204 173 0 0
3.7476 6.2043 -2.8186 -0.300 -0.665 0.684 225 205 175 0 0
4.0654 6.1672 -2.7462 -0.579 -0.677 0.454 225 202 173 0 0
4.8072 6.0618 -2.5726 -0.198 -0.633 0.748 224 201 170 0 0
4.8185 6.0559 -2.5689 -0.311 -0.515 0.799 223 200 170 0 0
4.8313 6.0573 -2.5667 -0.357 -0.591 0.723 223 201 169 0 0
5.1370 6.0268 -2.4984 0.254 -0.895 0.366 210 186 151 0 0
5.5348 6.6935 -2.5842 -0.450 -0.860 0.241 225 222 217 0 0
6.4940 8.2667 -2.7826 -0.811 -0.338 0.478 212 211 209 0 0
6.4872 8.1414 -2.7529 -0.548 -0.297 0.782 210 209 207 0 0
6.6091 8.4743 -2.8110 -0.976 -0.060 -0.210 209 208 206 0 0
6.5214 7.9966 -2.7103 -0.999 -0.052 0.003 208 205 203 0 0
6.7994 8.4914 -2.7774 -0.148 -0.380 0.913 201 200 198 0 0
7.1361 8.3964 -2.6870 -0.612 -0.723 0.321 165 164 162 0 0
7.2487 7.8400 -2.5269 -0.097 -0.298 -0.950 154 145 136 0 0
7.4151 7.3801 -2.3801 -0.225 -0.697 -0.680 177 162 139 0 0
7.4258 7.3694 -2.3753 0.221 -0.886 -0.407 179 166 144 0 0
7.6544 7.3970 -2.3366 0.469 -0.828 -0.308 183 168 145 0 0
8.6841 8.3146 -2.3589 0.027 -0.779 0.626 222 222 220 0 0
1.9460 8.8721 -3.8538 -0.734 -0.678 -0.050 232 231 229 0 0
1.9643 8.8518 -3.8451 -0.780 -0.581 -0.230 232 231 229 0 0
2.1184 9.0182 -3.8559 -0.891 -0.384 -0.242 230 229 225 0 0
2.1479 8.8965 -3.8198 -0.219 -0.964 0.151 231 229 225 0 0
2.1639 8.8951 -3.8163 -0.235 -0.875 -0.423 231 227 224 0 0
2.3932 8.8126 -3.7502 0.366 -0.895 0.256 222 218 214 0 0
2.4425 8.7894 -3.7346 -0.407 -0.878 0.252 220 217 211 0 0
2.6249 7.1026 -3.2783 -0.715 -0.433 -0.550 220 216 209 0 0
2.8501 6.2389 -3.0185 -0.426 -0.745 0.514 216 193 159 0 0
2.8744 6.2361 -3.0130 -0.316 -0.692 0.648 220 197 164 0 0
2.8868 6.2295 -3.0089 -0.308 -0.759 0.573 221 197 165 0 0
4.1531 6.1515 -2.7379 -0.341 -0.615 0.711 224 203 175 0 0
5.0993 6.0131 -2.5154 0.037 -0.916 0.400 201 177 141 0 0
5.5505 6.7420 -2.6073 -0.530 -0.535 -0.658 225 222 217 0 0
6.7076 8.4561 -2.8041 -0.214 -0.640 0.738 205 204 202 0 0
6.7235 8.4536 -2.8003 -0.257 -0.467 0.846 203 202 200 0 0
6.7393 8.4506 -2.7965 -0.201 -0.515 0.833 202 201 199 0 0
6.7479 8.4260 -2.7886 -0.299 -0.398 0.868 202 201 199 0 0
6.7746 8.4559 -2.7908 -0.274 -0.418 0.866 200 199 197 0 0
6.9768 8.4097 -2.7391 -0.784 -0.565 0.257 186 184 182 0 0
6.9955 8.4149 -2.7367 -0.736 -0.443 0.512 183 182 180 0 0
7.0464 8.4630 -2.7385 -0.463 -0.644 0.609 181 179 177 0 0
7.0646 8.4666 -2.7358 -0.341 -0.660 0.669 179 177 175 0 0
7.4164 7.3748 -2.3941 -0.341 -0.720 0.605 181 166 145 0 0
7.4722 7.4657 -2.4056 -0.164 -0.503 -0.849 181 168 147 0 0
7.9008 7.6430 -2.3646 0.428 -0.460 -0.778 191 177 159 0 0
8.5665 8.2135 -2.3744 -0.511 -0.859 -0.029 220 220 216 0 0
8.6688 8.3105 -2.3782 -0.018 -0.854 0.520 222 222 220 0 0
8.6857 8.3099 -2.3747 -0.316 -0.898 0.306 222 223 220 0 0
2.1932 8.8021 -3.8042 -0.324 -0.640 0.697 230 228 225 0 0
2.3433 8.7094 -3.7512 0.214 -0.838 -0.502 225 222 217 0 0
2.6259 7.1263 -3.2984 -0.715 -0.433 -0.550 223 218 212 0 0
2.6426 7.0823 -3.2840 -0.760 -0.466 -0.453 222 217 211 0 0
2.9136 6.2279 -3.0161 0.041 -0.739 0.673 221 198 166 0 0
2.9254 6.2316 -3.0147 -0.017 -0.711 0.703 222 199 167 0 0
2.9373 6.2349 -3.0131 0.099 -0.765 0.636 225 202 170 0 0
2.9498 6.2270 -3.0087 -0.370 -0.796 0.480 222 200 169 0 0
3.4346 6.1803 -2.9007 0.378 -0.704 0.601 222 203 174 0 0
3.9833 6.1516 -2.7846 0.322 -0.825 0.464 225 201 166 0 0
3.9960 6.1565 -2.7833 0.394 -0.782 0.483 226 201 167 0 0
4.3009 6.1215 -2.7141 -0.166 -0.718 0.676 224 203 174 0 0
4.5651 6.0649 -2.6474 -0.455 -0.592 0.666 226 206 177 0 0
4.7942 6.0282 -2.5927 -0.483 -0.646 0.591 226 204 174 0 0
5.1010 6.0083 -2.5268 0.037 -0.916 0.400 210 186 149 0 0
5.5571 6.7555 -2.6235 -0.530 -0.535 -0.658 225 222 217 0 0
6.6621 8.7242 -2.8976 -0.972 0.011 0.236 210 210 208 0 0
6.7182 8.4255 -2.8116 -0.226 -0.740 0.634 204 202 202 0 0
6.7772 8.4519 -2.8065 -0.340 -0.341 0.877 201 200 198 0 0
7.0598 8.4892 -2.7597 -0.513 -0.733 0.448 182 180 179 0 0
7.3272 7.9752 -2.5778 -0.034 -0.315 -0.948 134 134 132 0 0
7.6850 7.6850 -2.4341 0.385 -0.401 -0.831 183 168 149 0 0
7.7184 7.7231 -2.4370 0.385 -0.401 -0.831 181 169 147 0 0
7.7687 7.7627 -2.4369 0.220 -0.348 -0.911 179 166 143 0 0
8.0290 7.7338 -2.3780 -0.593 -0.689 -0.416 203 201 195 0 0
8.0503 7.7442 -2.3764 -0.544 -0.588 -0.599 205 203 199 0 0
8.5488 8.2044 -2.3928 -0.321 -0.939 0.121 219 218 215 0 0
8.5638 8.2005 -2.3888 -0.521 -0.831 0.196 221 220 216 0 0
8.6085 8.2533 -2.3932 0.171 -0.892 0.417 221 220 218 0 0
8.6724 8.3096 -2.3946 -0.080 -0.908 0.412 221 221 221 0 0
2.1768 8.8392 -3.8337 -0.713 -0.557 0.425 230 229 226 0 0
2.6269 7.1502 -3.3185 -0.715 -0.433 -0.550 223 218 214 0 0
2.6531 7.1569 -3.3150 -0.842 -0.247 -0.480 224 216 208 0 0
2.7504 6.5342 -3.1386 -0.856 -0.262 -0.445 216 200 175 0 0
2.8560 6.2293 -3.0408 -0.546 -0.739 0.395 208 184 147 0 0
2.8688 6.2161 -3.0349 -0.536 -0.723 0.435 213 189 153 0 0
2.8808 6.2156 -3.0324 -0.528 -0.667 0.526 216 192 157 0 0
2.8932 6.2092 -3.0283 -0.382 -0.778 0.499 219 196 161 0 0
2.9056 6.2020 -3.0240 -0.125 -0.699 0.705 222 199 165 0 0
3.2675 6.1964 -2.9509 -0.101 -0.847 0.521 225 202 170 0 0
3.2917 6.2041 -2.9480 0.137 -0.758 0.638 223 200 169 0 0
3.5831 6.1707 -2.8818 -0.196 -0.619 0.760 226 206 176 0 0
3.7660 6.1639 -2.8438 -0.538 -0.606 0.586 222 201 172 0 0
3.9853 6.1421 -2.7948 0.209 -0.812 0.545 221 198 164 0 0
3.9983 6.1510 -2.7945 0.200 -0.852 0.484 223 200 166 0 0
4.0090 6.1314 -2.7874 -0.242 -0.704 0.667 225 203 171 0 0
4.0209 6.1271 -2.7840 0.095 -0.532 0.841 224 203 172 0 0
4.1670 6.1132 -2.7515 -0.116 -0.638 0.761 224 201 170 0 0
4.6512 6.0441 -2.6380 -0.436 -0.574 0.693 223 204 176 0 0
5.0243 5.9858 -2.5493 -0.115 -0.671 0.733 222 199 164 0 0
5.1593 6.0316 -2.5341 0.439 -0.874 0.210 192 169 136 0 0
6.6010 8.4649 -2.8619 -0.876 -0.465 0.124 209 209 207 0 0
6.6119 8.4463 -2.8551 -0.876 -0.465 0.124 210 209 207 0 0
6.7010 8.4121 -2.8288 -0.289 -0.466 0.836 205 204 202 0 0
6.7222 8.4258 -2.8280 -0.517 -0.457 0.724 204 203 203 0 0
6.7338 8.4103 -2.8218 -0.629 -0.438 0.642 204 202 203 0 0
7.0193 8.5546 -2.8016 0.631 -0.192 0.751 190 187 186 0 0
7.0581 8.4734 -2.7734 -0.284 -0.750 0.598 185 181 180 0 0
7.0740 8.4706 -2.7695 -0.144 -0.787 0.600 182 178 177 0 0
7.1189 8.4548 -2.7566 -0.621 -0.562 0.547 175 174 172 0 0
7.3729 7.8414 -2.5516 -0.133 -0.320 -0.938 135 132 127 0 0
7.3791 7.8177 -2.5444 -0.133 -0.320 -0.938 137 133 126 0 0
7.5429 7.5725 -2.4500 0.291 -0.487 -0.823 179 165 147 0 0
7.7738 7.7654 -2.4529 0.264 -0.354 -0.897 178 165 145 0 0
8.8044 8.8986 -2.5343 0.526 -0.266 0.808 213 213 213 0 0
8.5112 8.2227 -2.4220 -0.351 -0.933 0.080 217 216 214 0 0
8.5237 8.2139 -2.4173 -0.461 -0.878 0.126 218 217 215 0 0
8.5432 8.2186 -2.4146 -0.569 -0.819 -0.080 218 217 215 0 0
8.5548 8.2081 -2.4097 -0.617 -0.785 -0.055 219 218 215 0 0
8.5665 8.1978 -2.4047 -0.482 -0.874 0.060 220 219 215 0 0
8.6088 8.2462 -2.4085 0.171 -0.892 0.417 221 220 218 0 0
8.6601 8.2785 -2.4065 -0.312 -0.797 0.518 222 222 222 0 0
1.7759 8.9257 -3.9521 0.523 -0.291 0.801 234 233 230 0 0
2.2813 8.7742 -3.8135 0.432 -0.848 -0.307 228 227 223 0 0
2.7520 6.5509 -3.1559 -0.849 -0.261 -0.460 218 202 178 0 0
2.8963 6.2007 -3.0384 -0.349 -0.808 0.476 221 197 161 0 0
2.9087 6.1939 -3.0342 -0.097 -0.759 0.644 221 197 163 0 0
2.9207 6.1939 -3.0319 -0.195 -0.693 0.694 220 197 164 0 0
2.9686 6.1950 -3.0226 -0.605 -0.649 0.462 222 199 167 0 0
3.0649 6.1929 -3.0030 -0.201 -0.649 0.734 223 202 173 0 0
3.2098 6.1876 -2.9730 0.101 -0.706 0.701 220 199 168 0 0
3.2460 6.1882 -2.9660 -0.363 -0.612 0.703 221 198 167 0 0
3.2581 6.1901 -2.9640 -0.250 -0.856 0.452 223 200 168 0 0
3.2823 6.1872 -2.9585 -0.373 -0.812 0.450 223 201 171 0 0
3.2945 6.1849 -2.9555 -0.316 -0.566 0.762 220 199 169 0 0
3.5493 6.1698 -2.9012 -0.241 -0.572 0.784 223 201 169 0 0
3.5735 6.1662 -2.8955 -0.210 -0.651 0.729 222 201 170 0 0
3.6949 6.1520 -2.8678 -0.372 -0.766 0.524 223 200 169 0 0
3.7068 6.1469 -2.8642 -0.053 -0.825 0.563 221 200 169 0 0
4.5305 6.0439 -2.6748 -0.355 -0.565 0.745 226 205 176 0 0
4.5662 6.0355 -2.6656 -0.026 -0.593 0.804 226 205 178 0 0
4.6881 6.0265 -2.6392 -0.588 -0.592 0.551 225 205 178 0 0
4.6974 6.0085 -2.6328 -0.643 -0.540 0.543 223 202 172 0 0
4.7095 6.0074 -2.6301 -0.475 -0.683 0.554 222 201 170 0 0
4.7225 6.0109 -2.6284 0.163 -0.755 0.635 225 203 172 0 0
4.7356 6.0150 -2.6269 0.163 -0.755 0.635 224 203 172 0 0
4.9383 5.9762 -2.5768 -0.391 -0.675 0.626 222 201 172 0 0
5.0259 5.9801 -2.5605 -0.114 -0.733 0.670 221 198 163 0 0
5.1632 6.0362 -2.5475 0.327 -0.927 -0.181 193 172 140 0 0
5.5368 6.8132 -2.6707 -0.445 -0.684 -0.578 224 219 209 0 0
5.5478 6.8018 -2.6656 -0.445 -0.684 -0.578 224 221 215 0 0
6.5826 8.4471 -2.8782 -0.930 -0.266 0.252 211 211 209 0 0
6.6008 8.4518 -2.8758 -0.911 -0.401 -0.096 210 210 208 0 0
6.6033 8.4074 -2.8640 -0.905 -0.423 -0.039 209 209 207 0 0
7.0885 8.4532 -2.7795 -0.433 -0.867 -0.247 182 179 177 0 0
7.1024 8.4449 -2.7747 -0.433 -0.867 -0.247 178 177 173 0 0
7.1211 8.4500 -2.7723 -0.576 -0.777 -0.256 176 175 173 0 0
7.1291 8.4260 -2.7646 -0.639 -0.756 0.144 175 174 172 0 0
7.1407 8.4116 -2.7586 -0.749 -0.620 0.234 172 171 169 0 0
7.1783 8.3328 -2.7312 -0.684 -0.532 0.498 168 167 163 0 0
7.1948 8.2446 -2.7055 -0.812 -0.534 0.235 162 161 160 0 0
7.2066 8.2321 -2.7000 -0.595 -0.688 -0.416 162 161 160 0 0
7.2529 8.2228 -2.6885 -0.675 -0.588 0.445 157 157 157 0 0
7.3965 8.3329 -2.6880 -0.683 -0.730 0.021 146 145 145 0 0
7.5609 7.6399 -2.4795 0.244 -0.738 -0.629 176 164 149 0 0
7.8402 7.9007 -2.4904 0.288 -0.359 -0.888 174 165 152 0 0
7.8237 7.8300 -2.4757 0.216 -0.351 -0.911 175 167 156 0 0
8.4245 8.3136 -2.4794 0.409 -0.411 0.815 210 209 207 0 0
8.5833 8.5254 -2.5017 0.603 -0.320 0.731 212 211 209 0 0
8.5807 8.1847 -2.4157 -0.414 -0.788 0.457 221 219 219 0 0
8.5999 8.1887 -2.4129 -0.420 -0.793 0.440 221 221 221 0 0
2.3745 8.8232 -3.8245 0.252 -0.834 -0.492 228 225 220 0 0
2.4092 8.7867 -3.8083 -0.665 -0.721 0.197 226 224 219 0 0
2.6476 7.3056 -3.3827 -0.863 -0.239 -0.446 225 219 212 0 0
2.8259 6.2193 -3.0700 -0.594 -0.708 0.381 211 191 159 0 0
2.9601 6.1771 -3.0326 -0.314 -0.679 0.663 222 199 168 0 0
3.0440 6.1773 -3.0161 0.094 -0.710 0.698 220 198 167 0 0
3.0801 6.1784 -3.0092 -0.213 -0.687 0.695 223 202 171 0 0
3.1161 6.1817 -3.0029 -0.091 -0.672 0.735 222 201 171 0 0
3.2488 6.1759 -2.9752 -0.363 -0.612 0.703 223 201 170 0 0
3.2610 6.1725 -2.9719 -0.363 -0.612 0.703 224 202 171 0 0
3.2972 6.1717 -2.9645 -0.080 -0.708 0.702 221 199 171 0 0
3.3577 6.1571 -2.9488 -0.205 -0.622 0.756 224 205 175 0 0
3.3939 6.1492 -2.9396 -0.497 -0.835 0.237 221 200 168 0 0
3.4182 6.1549 -2.9363 0.193 -0.904 0.381 226 203 173 0 0
3.4303 6.1544 -2.9338 -0.087 -0.922 0.377 223 201 170 0 0
3.4424 6.1543 -2.9313 -0.087 -0.922 0.377 222 199 168 0 0
3.4543 6.1447 -2.9265 -0.019 -0.758 0.651 221 199 167 0 0
3.7690 6.1178 -2.8574 -0.354 -0.625 0.695 224 205 175 0 0
3.9375 6.0860 -2.8159 -0.524 -0.673 0.522 221 200 170 0 0
4.2500 6.0367 -2.7414 -0.373 -0.814 0.446 228 205 174 0 0
4.2617 6.0322 -2.7380 -0.033 -0.858 0.512 226 203 171 0 0
4.4207 6.0311 -2.7062 -0.236 -0.639 0.732 224 203 175 0 0
4.4335 6.0351 -2.7047 0.057 -0.603 0.796 224 203 173 0 0
4.5856 6.0626 -2.6816 -0.152 -0.983 -0.107 225 206 176 0 0
4.6756 6.0088 -2.6500 -0.253 -0.706 0.662 225 205 177 0 0
4.6876 6.0073 -2.6473 -0.689 -0.688 0.229 225 204 175 0 0
4.6975 5.9930 -2.6417 -0.586 -0.689 0.426 226 204 172 0 0
4.7115 6.0029 -2.6414 0.061 -0.944 0.323 224 201 169 0 0
4.7370 6.0072 -2.6375 0.186 -0.778 0.600 224 202 171 0 0
4.7462 5.9896 -2.6312 -0.235 -0.705 0.669 225 204 174 0 0
5.0395 5.9727 -2.5688 -0.094 -0.715 0.693 213 190 152 0 0
5.1659 6.0353 -2.5598 0.405 -0.886 -0.224 197 177 145 0 0
5.5146 6.8775 -2.7059 -0.829 -0.411 -0.380 197 176 151 0 0
5.5625 6.7929 -2.6748 -0.519 -0.732 -0.441 224 221 215 0 0
6.4393 8.2934 -2.8845 -0.153 -0.942 0.297 216 216 214 0 0
6.5897 8.4048 -2.8832 -0.797 -0.479 0.367 210 210 208 0 0
6.6024 8.3925 -2.8775 -0.794 -0.589 0.151 209 209 207 0 0
6.6269 8.4168 -2.8789 -0.423 -0.843 -0.332 207 207 205 0 0
6.6400 8.4059 -2.8735 -0.763 -0.529 -0.373 208 208 207 0 0
6.6406 8.3562 -2.8607 -0.819 -0.569 -0.071 207 207 205 0 0
6.7497 8.3846 -2.8464 -0.640 -0.345 0.687 204 202 203 0 0
7.0615 8.4611 -2.8042 -0.340 -0.933 0.120 188 184 183 0 0
7.0973 8.4666 -2.7985 -0.271 -0.901 -0.340 180 179 175 0 0
7.1285 8.4592 -2.7904 -0.675 -0.615 -0.408 179 178 174 0 0
7.1570 8.3996 -2.7696 -0.825 -0.505 -0.253 173 173 171 0 0
7.1222 8.2178 -2.7300 -0.612 -0.534 0.583 171 169 166 0 0
7.1809 8.2414 -2.7244 -0.888 -0.429 0.165 166 165 163 0 0
7.1979 8.2425 -2.7213 -0.642 -0.764 0.069 164 163 161 0 0
7.2031 8.2129 -2.7127 -0.453 -0.741 -0.496 163 162 160 0 0
7.2039 8.1719 -2.7021 -0.734 -0.549 -0.400 161 160 158 0 0
7.4217 7.9789 -2.6097 -0.278 -0.297 -0.914 138 139 139 0 0
7.5369 7.9432 -2.5778 0.075 -0.341 -0.937 138 137 136 0 0
7.5264 7.7697 -2.5355 0.227 -0.453 -0.862 143 140 138 0 0
7.5443 7.7741 -2.5331 0.227 -0.453 -0.862 144 141 136 0 0
8.0421 7.7369 -2.4251 0.140 -0.872 -0.469 204 201 198 0 0
8.5900 8.1945 -2.4335 -0.055 -0.851 0.523 221 220 218 0 0
2.3186 8.7839 -3.8424 0.538 -0.721 -0.436 227 226 222 0 0
2.4488 8.7314 -3.8032 -0.662 -0.736 0.141 224 223 218 0 0
2.4661 8.7128 -3.7950 -0.549 -0.647 0.529 225 223 218 0 0
2.6477 7.3447 -3.4074 -0.867 -0.241 -0.436 225 220 213 0 0
3.2638 6.1563 -2.9800 -0.178 -0.863 0.473 224 203 172 0 0
3.5175 6.1384 -2.9253 -0.024 -0.799 0.601 223 202 170 0 0
3.7711 6.1061 -2.8668 -0.354 -0.625 0.695 220 201 171 0 0
3.7830 6.1010 -2.8632 -0.452 -0.657 0.603 222 203 172 0 0
3.8923 6.0971 -2.8405 -0.251 -0.600 0.760 224 205 174 0 0
4.2402 6.0342 -2.7556 -0.172 -0.843 0.509 224 203 174 0 0
4.2524 6.0333 -2.7529 -0.172 -0.843 0.509 226 203 172 0 0
4.2637 6.0263 -2.7489 -0.422 -0.800 0.425 224 201 169 0 0
4.2771 6.0360 -2.7487 -0.042 -0.696 0.716 222 202 169 0 0
4.3012 6.0328 -2.7431 -0.384 -0.741 0.551 224 204 173 0 0
4.3129 6.0288 -2.7398 0.072 -0.861 0.503 224 205 173 0 0
4.3254 6.0310 -2.7379 -0.021 -0.710 0.704 224 204 174 0 0
4.3506 6.0364 -2.7343 0.218 -0.887 0.407 224 203 174 0 0
4.5828 6.0269 -2.6860 -0.438 -0.642 0.629 228 209 179 0 0
4.7475 5.9813 -2.6416 -0.242 -0.771 0.589 224 203 172 0 0
4.8077 5.9739 -2.6278 -0.250 -0.723 0.644 225 202 174 0 0
4.8445 5.9729 -2.6203 -0.545 -0.701 0.459 226 203 172 0 0
4.8541 5.9587 -2.6148 -0.556 -0.619 0.555 227 202 171 0 0
5.5207 6.8890 -2.7221 -0.928 -0.296 -0.225 196 175 151 0 0
5.5501 6.7858 -2.6897 -0.921 -0.307 -0.241 220 220 212 0 0
6.4900 8.3386 -2.9030 -0.779 -0.608 -0.154 215 215 213 0 0
6.4947 8.3007 -2.8923 -0.497 -0.756 -0.426 213 213 211 0 0
6.5337 8.3202 -2.8896 -0.594 -0.669 -0.446 212 212 210 0 0
6.5738 8.3949 -2.9009 -0.426 -0.845 0.325 211 211 209 0 0
6.5889 8.3901 -2.8967 -0.384 -0.923 0.021 211 211 209 0 0
6.6112 8.4078 -2.8968 -0.568 -0.764 -0.307 210 210 208 0 0
6.6241 8.3960 -2.8912 -0.568 -0.764 -0.307 208 208 206 0 0
6.6496 8.3720 -2.8800 -0.627 -0.491 -0.605 207 208 204 0 0
6.6683 8.3786 -2.8780 -0.572 -0.655 -0.493 206 207 202 0 0
6.7595 8.3528 -2.8533 -0.333 -0.459 0.824 203 200 200 0 0
6.7888 8.3411 -2.8445 0.086 -0.355 0.931 199 199 197 0 0
7.0645 8.4583 -2.8201 -0.285 -0.957 0.063 187 184 183 0 0
7.0856 8.4699 -2.8190 -0.505 -0.863 0.031 185 183 181 0 0
7.0996 8.4619 -2.8141 -0.505 -0.863 0.031 183 182 178 0 0
7.1676 8.5547 -2.8245 0.065 -0.505 0.861 180 179 176 0 0
7.1726 8.5219 -2.8151 -0.509 -0.360 0.782 177 176 174 0 0
7.1340 8.3275 -2.7728 -0.540 -0.619 -0.570 174 173 171 0 0
7.1681 8.2411 -2.7438 -0.653 -0.739 -0.165 169 168 165 0 0
7.1888 8.2519 -2.7425 -0.784 -0.610 -0.117 167 166 163 0 0
7.5788 7.8811 -2.5701 0.273 -0.441 -0.855 144 142 143 0 0
8.1591 8.1378 -2.5213 0.371 -0.887 0.273 194 191 192 0 0
8.2257 8.1708 -2.5166 0.269 -0.785 0.558 197 197 197 0 0
8.3712 8.2593 -2.5105 -0.246 -0.885 0.395 206 206 204 0 0
8.4135 8.2754 -2.5063 0.127 -0.767 0.629 209 208 206 0 0
8.4164 8.2471 -2.4985 -0.220 -0.934 0.281 210 209 207 0 0
8.6454 8.3254 -2.4733 -0.811 -0.261 0.523 219 219 215 0 0
2.2711 8.8216 -3.8784 -0.125 -0.291 0.949 228 227 225 0 0
2.8446 6.1959 -3.0860 -0.603 -0.724 0.335 210 190 163 0 0
3.2666 6.1426 -2.9888 0.110 -0.786 0.609 225 205 175 0 0
3.3389 6.1418 -2.9743 -0.411 -0.545 0.731 222 201 170 0 0
3.4594 6.1241 -2.9459 -0.214 -0.775 0.594 224 205 175 0 0
3.4715 6.1241 -2.9435 0.498 -0.788 0.362 221 202 171 0 0
3.6648 6.1106 -2.9019 -0.622 -0.712 0.325 224 202 171 0 0
4.2076 6.0452 -2.7777 -0.487 -0.627 0.608 223 202 173 0 0
4.3136 6.0122 -2.7482 -0.134 -0.710 0.692 225 203 172 0 0
4.3877 6.0179 -2.7350 -0.667 -0.525 0.529 220 201 171 0 0
4.7847 5.9677 -2.6436 -0.250 -0.723 0.644 222 201 172 0 0
4.8305 5.9497 -2.6299 -0.379 -0.767 0.518 226 202 174 0 0
5.0140 5.9431 -2.5920 0.093 -0.928 0.361 214 193 160 0 0
5.5222 6.8825 -2.7345 -0.935 -0.335 -0.115 196 176 149 0 0
5.5607 6.7610 -2.6955 -0.921 -0.329 -0.208 223 219 214 0 0
6.4645 8.2971 -2.9143 -0.671 -0.552 -0.495 217 216 214 0 0
6.4838 8.3065 -2.9129 -0.663 -0.700 -0.264 216 215 212 0 0
6.5267 8.3382 -2.9126 -0.912 -0.315 -0.261 213 213 211 0 0
6.5651 8.3552 -2.9094 -0.897 -0.356 0.264 213 212 210 0 0
6.5763 8.3383 -2.9028 -0.735 -0.342 0.586 212 211 209 0 0
6.6152 8.4083 -2.9132 -0.518 -0.847 -0.121 210 210 208 0 0
6.6290 8.3992 -2.9082 -0.518 -0.847 -0.121 209 209 207 0 0
6.6478 8.4059 -2.9062 -0.642 -0.765 -0.048 209 208 206 0 0
6.7688 8.2222 -2.8348 0.452 -0.503 0.737 201 200 197 0 0
7.1180 8.5014 -2.8380 0.520 -0.500 0.692 184 183 181 0 0
7.1383 8.5104 -2.8363 0.524 -0.538 0.660 183 182 180 0 0
7.1328 8.4495 -2.8216 0.115 -0.651 0.750 181 180 178 0 0
7.1517 8.4550 -2.8193 0.042 -0.414 0.909 179 178 176 0 0
7.1409 8.3354 -2.7905 -0.446 -0.710 -0.546 179 176 173 0 0
7.1674 8.2291 -2.7578 -0.727 -0.675 -0.124 171 171 169 0 0
7.2146 8.2225 -2.7468 -0.510 -0.788 -0.346 168 166 164 0 0
7.2547 8.1976 -2.7324 -0.772 -0.632 0.066 163 162 160 0 0
7.2660 8.1842 -2.7267 -0.778 -0.627 -0.031 162 160 158 0 0
7.6020 8.2721 -2.6830 0.526 -0.820 0.225 144 144 145 0 0
8.0509 8.4789 -2.6479 -0.694 -0.127 0.709 163 163 161 0 0
8.0575 8.4557 -2.6405 -0.717 -0.103 0.689 165 165 163 0 0
8.6886 9.5397 -2.7963 0.772 -0.487 -0.409 181 180 178 0 0
8.3228 8.2566 -2.5366 0.130 -0.952 0.277 203 202 200 0 0
8.3507 8.2784 -2.5368 0.037 -0.711 0.703 205 204 202 0 0
8.4087 8.3261 -2.5376 -0.458 -0.858 0.234 206 206 204 0 0
8.3818 8.2381 -2.5202 0.125 -0.919 0.375 207 207 205 0 0
8.4007 8.2418 -2.5174 0.125 -0.919 0.375 209 208 208 0 0
8.6470 8.2876 -2.4806 -0.599 -0.317 0.735 220 220 220 0 0
8.7472 8.2175 -2.4427 -0.714 -0.609 0.345 225 225 223 0 0
2.2917 8.8074 -3.8877 0.261 -0.357 0.897 229 228 224 0 0
2.4576 8.7091 -3.8293 -0.242 -0.895 0.374 229 225 222 0 0
2.4749 8.6887 -3.8206 -0.649 -0.702 -0.292 227 223 220 0 0
2.6249 7.5420 -3.4925 -0.883 -0.248 -0.400 227 222 217 0 0
2.6529 7.3547 -3.4383 -0.883 -0.248 -0.400 226 221 215 0 0
2.8848 6.1659 -3.0831 -0.247 -0.789 0.562 209 186 150 0 0
3.2573 6.1341 -3.0013 -0.297 -0.714 0.634 224 205 175 0 0
3.3415 6.1324 -2.9842 -0.340 -0.654 0.676 222 201 170 0 0
3.4379 6.1176 -2.9613 0.019 -0.749 0.662 218 197 166 0 0
3.4499 6.1173 -2.9589 0.173 -0.911 0.374 220 199 168 0 0
3.4620 6.1202 -2.9573 0.173 -0.911 0.374 224 203 172 0 0
3.4741 6.1218 -2.9553 0.040 -0.874 0.485 223 202 171 0 0
3.7514 6.0907 -2.8924 -0.252 -0.645 0.721 224 202 171 0 0
3.8114 6.0785 -2.8774 -0.303 -0.562 0.769 223 202 172 0 0
4.2093 6.0356 -2.7877 -0.624 -0.571 0.534 221 201 172 0 0
4.3154 6.0046 -2.7587 -0.175 -0.797 0.578 224 201 169 0 0
4.8194 5.9410 -2.6427 -0.306 -0.697 0.649 226 203 172 0 0
4.8312 5.9386 -2.6397 -0.306 -0.697 0.649 226 202 174 0 0
4.8432 5.9373 -2.6370 -0.337 -0.702 0.628 225 201 171 0 0
4.8565 5.9421 -2.6356 -0.196 -0.587 0.786 226 203 172 0 0
5.4908 6.7995 -2.7336 0.655 -0.738 -0.158 196 176 147 0 0
5.5086 6.8155 -2.7342 0.655 -0.738 -0.158 195 175 149 0 0
5.5562 6.7848 -2.7169 -0.947 -0.280 -0.160 221 219 214 0 0
5.5681 6.7774 -2.7126 -0.896 -0.423 -0.135 223 219 214 0 0
6.4745 8.3706 -2.9483 -0.658 -0.664 -0.354 217 216 214 0 0
6.4872 8.3583 -2.9426 -0.453 -0.732 -0.509 216 216 214 0 0
6.4998 8.3457 -2.9368 -0.453 -0.707 -0.543 216 217 213 0 0
6.5236 8.3689 -2.9382 -0.469 -0.682 -0.562 214 214 212 0 0
6.5345 8.3507 -2.9313 -0.775 -0.528 -0.348 214 214 212 0 0
6.5490 8.3444 -2.9268 -0.297 -0.865 0.405 214 213 211 0 0
6.5643 8.3406 -2.9228 -0.206 -0.969 0.139 213 212 210 0 0
6.5759 8.3251 -2.9165 -0.687 -0.608 0.399 213 212 210 0 0
6.5895 8.3158 -2.9114 -0.601 -0.676 0.427 210 210 208 0 0
6.6031 8.3068 -2.9063 -0.601 -0.676 0.427 209 209 207 0 0
6.6502 8.4015 -2.9217 -0.837 -0.534 -0.114 210 209 207 0 0
6.7587 8.4772 -2.9200 -0.925 -0.379 0.018 205 205 203 0 0
6.7856 8.2603 -2.8582 0.232 -0.705 0.671 201 200 197 0 0
7.0332 8.3967 -2.8448 0.428 -0.557 0.712 191 190 188 0 0
7.1269 8.4687 -2.8451 0.293 -0.647 0.704 184 183 181 0 0
7.1276 8.4246 -2.8335 0.089 -0.461 0.883 183 182 180 0 0
7.1402 8.4133 -2.8280 -0.298 -0.575 0.762 181 180 178 0 0
7.1572 8.4135 -2.8247 -0.107 -0.619 0.778 180 179 176 0 0
7.2390 8.2324 -2.7615 -0.723 -0.583 -0.370 170 166 165 0 0
7.6382 8.2686 -2.6921 0.515 -0.827 0.224 144 144 144 0 0
7.6632 8.2880 -2.6922 0.090 -0.755 0.650 145 145 145 0 0
7.7570 8.1564 -2.6394 -0.344 -0.924 -0.167 151 151 151 0 0
7.9661 8.3594 -2.6510 0.644 -0.765 0.001 161 161 161 0 0
8.2885 8.2134 -2.5493 0.579 -0.763 0.286 202 202 200 0 0
8.3234 8.2496 -2.5519 0.186 -0.979 0.087 203 203 201 0 0
8.3375 8.2436 -2.5475 0.494 -0.812 0.310 205 204 202 0 0
8.4243 8.2807 -2.5401 0.619 -0.688 0.379 209 208 207 0 0
8.7297 8.0833 -2.4284 -0.775 -0.379 0.505 228 228 226 0 0
2.5118 8.6602 -3.8227 -0.590 -0.739 0.325 227 223 220 0 0
3.4163 6.1026 -2.9745 -0.274 -0.647 0.712 220 199 169 0 0
3.4404 6.1070 -2.9709 0.130 -0.969 0.212 207 185 153 0 0
3.7173 6.0802 -2.9093 0.040 -0.703 0.710 225 202 171 0 0
3.7294 6.0802 -2.9069 -0.144 -0.737 0.661 223 199 171 0 0
3.7413 6.0775 -2.9038 -0.148 -0.677 0.721 224 201 171 0 0
3.7537 6.0815 -2.9024 -0.153 -0.831 0.535 223 202 171 0 0
3.7655 6.0765 -2.8988 -0.212 -0.792 0.573 224 204 174 0 0
3.7776 6.0753 -2.8961 -0.212 -0.792 0.573 224 205 175 0 0
3.7898 6.0782 -2.8944 -0.322 -0.618 0.717 223 203 175 0 0
3.8017 6.0734 -2.8908 -0.386 -0.659 0.646 224 205 177 0 0
3.8133 6.0652 -2.8864 -0.303 -0.562 0.769 224 205 175 0 0
3.8365 6.0479 -2.8773 -0.395 -0.707 0.587 226 205 176 0 0
3.9345 6.0638 -2.8621 -0.609 -0.514 0.604 224 205 176 0 0
4.7602 5.9376 -2.6662 -0.297 -0.706 0.643 225 205 177 0 0
4.7719 5.9344 -2.6631 -0.260 -0.710 0.654 226 205 176 0 0
4.7839 5.9329 -2.6604 -0.297 -0.706 0.643 226 205 176 0 0
4.9767 5.9151 -2.6177 0.282 -0.917 0.282 214 190 153 0 0
5.4960 6.8074 -2.7489 0.655 -0.738 -0.158 196 175 147 0 0
5.5557 6.8243 -2.7416 -0.800 -0.502 -0.329 221 218 211 0 0
5.5662 6.8115 -2.7362 -0.720 -0.512 -0.468 220 218 213 0 0
5.5752 6.7928 -2.7295 -0.720 -0.512 -0.468 223 218 213 0 0
6.4767 8.3652 -2.9635 -0.245 -0.746 -0.619 217 217 215 0 0
6.4975 8.3792 -2.9631 -0.559 -0.826 0.080 216 216 214 0 0
6.5114 8.3706 -2.9581 -0.763 -0.622 -0.176 216 216 215 0 0
6.5298 8.3764 -2.9560 -0.279 -0.613 -0.739 215 215 214 0 0
6.5418 8.3619 -2.9498 -0.157 -0.585 -0.796 214 214 213 0 0
6.5551 8.3514 -2.9445 -0.015 -0.686 -0.728 214 213 211 0 0
6.5604 8.3162 -2.9342 -0.914 -0.404 0.027 214 213 211 0 0
6.5767 8.2639 -2.9173 -0.749 -0.660 0.063 211 211 209 0 0
7.1227 8.4008 -2.8454 0.089 -0.461 0.883 184 183 181 0 0
7.1354 8.3896 -2.8400 -0.737 -0.510 0.444 183 182 180 0 0
7.1760 8.2312 -2.7905 -0.751 -0.600 -0.278 174 174 172 0 0
7.5538 8.4214 -2.7658 -0.183 -0.496 -0.848 151 151 149 0 0
7.7255 8.1518 -2.6613 0.278 -0.960 -0.043 152 152 152 0 0
7.7615 8.1577 -2.6558 -0.344 -0.924 -0.167 153 153 152 0 0
7.9116 8.3430 -2.6747 0.507 -0.677 -0.534 159 157 158 0 0
7.9881 8.3989 -2.6743 0.642 -0.745 -0.181 163 163 163 0 0
7.9472 8.2715 -2.6490 0.143 -0.949 -0.282 165 165 164 0 0
7.9727 8.2903 -2.6489 -0.138 -0.946 -0.295 166 166 164 0 0
8.2368 8.1344 -2.5560 0.641 -0.747 0.177 200 200 198 0 0
8.3403 8.2755 -2.5725 0.738 -0.673 -0.049 203 203 201 0 0
8.3820 8.3251 -2.5773 0.397 -0.915 -0.071 204 203 201 0 0
8.3945 8.2473 -2.5544 0.621 -0.663 0.417 208 207 205 0 0
8.4279 8.2797 -2.5563 0.728 -0.651 0.213 209 208 206 0 0
8.4516 8.2927 -2.5551 -0.727 -0.440 0.527 210 209 207 0 0
2.6560 7.2116 -3.4293 -0.620 -0.531 -0.578 226 224 219 0 0
2.6718 7.1811 -3.4182 -0.612 -0.524 -0.592 226 223 218 0 0
3.3589 6.1009 -2.9982 -0.549 -0.673 0.496 224 201 172 0 0
3.3709 6.0949 -2.9942 -0.572 -0.730 0.375 225 204 175 0 0
3.4430 6.1002 -2.9814 0.200 -0.883 0.424 215 194 162 0 0
3.4551 6.1071 -2.9808 0.264 -0.886 0.381 220 197 165 0 0
3.6832 6.0681 -2.9256 -0.420 -0.675 0.607 221 200 169 0 0
3.6948 6.0579 -2.9207 -0.198 -0.632 0.749 222 201 170 0 0
3.7316 6.0709 -2.9168 -0.144 -0.737 0.661 225 202 172 0 0
3.7437 6.0708 -2.9144 -0.158 -0.661 0.734 224 201 171 0 0
3.7799 6.0693 -2.9069 -0.476 -0.621 0.623 223 204 174 0 0
3.7916 6.0622 -2.9027 -0.290 -0.624 0.725 221 201 173 0 0
3.8038 6.0627 -2.9004 -0.386 -0.659 0.646 223 203 175 0 0
3.8864 6.0312 -2.8759 -0.193 -0.536 0.822 227 204 173 0 0
3.9228 6.0322 -2.8690 -0.041 -0.646 0.762 222 202 173 0 0
3.9347 6.0305 -2.8662 -0.175 -0.556 0.812 222 202 174 0 0
4.7007 5.9311 -2.6891 -0.417 -0.579 0.700 226 203 172 0 0
4.7850 5.9238 -2.6705 0.201 -0.612 0.765 227 206 177 0 0
4.8450 5.9177 -2.6571 -0.422 -0.662 0.619 227 204 173 0 0
5.1944 6.0955 -2.6351 0.746 -0.659 0.100 199 180 155 0 0
5.5197 6.8340 -2.7656 0.554 -0.775 -0.304 194 176 151 0 0
5.5366 6.8461 -2.7655 0.554 -0.775 -0.304 193 178 158 0 0
5.5512 6.8488 -2.7633 0.362 -0.818 -0.447 217 208 196 0 0
5.5996 6.8742 -2.7605 0.414 -0.830 -0.375 222 217 212 0 0
6.4855 8.3816 -2.9831 -0.443 -0.718 -0.538 217 217 216 0 0
6.4732 8.2883 -2.9610 -0.554 -0.748 0.365 217 217 215 0 0
6.4872 8.2804 -2.9561 -0.554 -0.748 0.365 216 216 215 0 0
6.5004 8.2702 -2.9508 -0.338 -0.941 0.031 215 215 215 0 0
6.5549 8.3911 -2.9720 -0.294 -0.588 -0.753 214 214 214 0 0
6.5659 8.3736 -2.9652 0.406 -0.868 -0.286 214 214 212 0 0
6.5625 8.3105 -2.9492 -0.914 -0.404 0.027 214 213 211 0 0
6.5943 8.2558 -2.9285 -0.762 -0.587 0.274 210 210 208 0 0
7.1270 8.4017 -2.8620 -0.848 -0.511 -0.141 184 183 181 0 0
7.2563 8.3874 -2.8328 0.146 -0.430 0.891 174 173 171 0 0
7.5660 8.5670 -2.8191 -0.251 -0.149 -0.957 159 157 155 0 0
7.5928 8.5903 -2.8200 -0.108 -0.401 -0.910 158 156 154 0 0
7.5839 8.5264 -2.8049 -0.191 -0.393 -0.899 155 155 153 0 0
7.5442 8.3883 -2.7763 -0.228 -0.796 -0.561 155 155 153 0 0
7.7226 8.1363 -2.6747 0.222 -0.955 0.196 154 154 153 0 0
7.7562 8.1747 -2.6782 -0.471 -0.881 0.046 155 155 155 0 0
7.8658 8.3077 -2.6917 -0.600 -0.748 0.285 160 160 158 0 0
7.8960 8.2993 -2.6835 -0.601 -0.603 0.525 162 160 161 0 0
7.9090 8.2906 -2.6787 -0.601 -0.603 0.525 162 162 162 0 0
7.9749 8.3986 -2.6942 0.526 -0.723 -0.447 163 163 163 0 0
7.9928 8.4001 -2.6910 0.553 -0.720 -0.420 165 165 165 0 0
7.9620 8.2953 -2.6695 0.089 -0.961 -0.261 166 166 165 0 0
7.9790 8.2953 -2.6661 -0.068 -0.952 -0.300 169 169 167 0 0
8.0500 8.2654 -2.6442 -0.637 -0.292 0.713 179 177 178 0 0
8.3498 8.2866 -2.5908 0.779 -0.627 0.012 202 202 200 0 0
8.3891 8.3311 -2.5948 0.523 -0.843 -0.129 204 204 201 0 0
8.4371 8.3582 -2.5925 -0.236 -0.943 -0.235 207 206 204 0 0
8.3739 8.1981 -2.5627 0.291 -0.609 0.738 207 206 204 0 0
8.4598 8.3008 -2.5729 -0.722 -0.441 0.533 211 210 208 0 0
8.4216 8.0269 -2.5082 -0.123 -0.981 0.149 214 214 213 0 0
8.4855 8.1180 -2.5196 0.046 -0.999 0.000 216 216 214 0 0
2.6732 7.2015 -3.4377 -0.612 -0.524 -0.592 228 225 220 0 0
3.0513 6.0836 -3.0669 -0.154 -0.686 0.711 220 198 165 0 0
3.1465 6.0845 -3.0484 -0.222 -0.618 0.755 223 202 170 0 0
3.1584 6.0834 -3.0458 -0.222 -0.618 0.755 221 201 168 0 0
3.4456 6.0955 -2.9924 0.200 -0.883 0.424 219 198 167 0 0
3.4578 6.1030 -2.9921 0.264 -0.886 0.381 223 201 170 0 0
3.6252 6.0581 -2.9472 -0.261 -0.629 0.733 223 202 171 0 0
3.6372 6.0564 -2.9444 -0.261 -0.629 0.733 221 200 169 0 0
3.6973 6.0536 -2.9318 0.198 -0.813 0.548 223 202 171 0 0
3.7211 6.0465 -2.9253 -0.495 -0.577 0.649 222 201 170 0 0
3.7328 6.0408 -2.9214 -0.495 -0.577 0.649 224 204 173 0 0
3.7699 6.0570 -2.9184 -0.216 -0.711 0.669 226 206 176 0 0
3.7820 6.0572 -2.9161 -0.322 -0.618 0.717 224 205 175 0 0
3.8293 6.0398 -2.9022 -0.105 -0.586 0.803 223 204 174 0 0
3.9029 6.0542 -2.8915 -0.363 -0.683 0.634 225 202 171 0 0
3.9144 6.0464 -2.8871 -0.226 -0.674 0.703 224 202 173 0 0
4.1403 5.9956 -2.8292 0.318 -0.685 0.655 227 205 174 0 0
4.1656 6.0060 -2.8270 0.244 -0.652 0.718 224 202 171 0 0
4.4839 5.9295 -2.7441 -0.169 -0.936 0.308 226 206 179 0 0
4.4963 5.9310 -2.7420 0.014 -0.881 0.473 226 206 180 0 0
4.5083 5.9303 -2.7395 -0.445 -0.705 0.552 224 204 175 0 0
4.8154 5.8764 -2.6647 0.468 -0.733 0.493 223 202 173 0 0
4.8340 5.9096 -2.6699 -0.133 -0.700 0.702 223 202 171 0 0
5.6055 6.8844 -2.7765 0.414 -0.830 -0.375 221 217 212 0 0
6.4327 8.1980 -2.9619 -0.058 -0.884 -0.465 216 216 216 0 0
6.4805 8.2995 -2.9794 -0.281 -0.885 -0.371 217 217 215 0 0
6.4889 8.2737 -2.9709 -0.338 -0.941 0.031 216 216 215 0 0
6.5037 8.2685 -2.9666 -0.338 -0.941 0.031 216 216 216 0 0
6.5706 8.4289 -2.9960 -0.108 -0.520 -0.848 215 215 215 0 0
6.6101 8.2420 -2.9387 -0.548 -0.498 0.672 210 210 208 0 0
7.0762 8.3900 -2.8861 0.082 -0.321 0.944 190 189 187 0 0
7.1262 8.3889 -2.8760 -0.757 -0.583 -0.294 186 185 183 0 0
7.1440 8.3917 -2.8732 -0.739 -0.603 0.300 186 185 183 0 0
7.1585 8.3405 -2.8568 -0.720 -0.647 0.252 183 182 180 0 0
7.4105 8.1751 -2.7633 -0.286 -0.958 -0.024 164 160 159 0 0
7.7033 8.4335 -2.7742 0.752 -0.546 -0.369 155 153 154 0 0
7.8904 8.2406 -2.6863 -0.461 -0.503 0.731 164 164 164 0 0
7.9417 8.3165 -2.6963 -0.264 -0.749 0.608 166 166 164 0 0
7.9733 8.3485 -2.6985 -0.598 -0.391 0.700 168 168 166 0 0
2.6760 7.2036 -3.4522 -0.532 -0.596 -0.601 228 225 219 0 0
2.6910 7.1812 -3.4432 -0.532 -0.596 -0.601 229 226 218 0 0
3.3761 6.0792 -3.0146 -0.519 -0.582 0.627 222 200 170 0 0
3.3881 6.0795 -3.0123 -0.292 -0.571 0.767 219 198 168 0 0
3.4240 6.0742 -3.0038 0.075 -0.704 0.706 223 201 170 0 0
3.4360 6.0703 -3.0004 -0.214 -0.756 0.619 219 197 166 0 0
3.6037 6.0552 -2.9634 -0.209 -0.632 0.746 223 203 173 0 0
3.6155 6.0486 -2.9593 -0.088 -0.668 0.739 223 202 172 0 0
3.6513 6.0406 -2.9502 -0.252 -0.696 0.672 223 201 170 0 0
3.6878 6.0502 -2.9456 -0.062 -0.669 0.740 225 202 171 0 0
3.7358 6.0469 -2.9352 -0.320 -0.692 0.648 223 203 172 0 0
3.7953 6.0325 -2.9197 -0.165 -0.969 0.182 226 206 177 0 0
4.1781 5.9831 -2.8312 -0.321 -0.760 0.566 225 204 174 0 0
4.3415 5.9320 -2.7855 -0.307 -0.538 0.785 222 200 168 0 0
4.3548 5.9414 -2.7854 -0.295 -0.748 0.594 224 203 173 0 0
4.3782 5.9344 -2.7789 -0.456 -0.614 0.644 225 204 176 0 0
4.4858 5.9240 -2.7549 0.014 -0.881 0.473 225 206 177 0 0
4.4981 5.9253 -2.7529 0.014 -0.881 0.473 228 209 182 0 0
4.5099 5.9227 -2.7499 -0.178 -0.786 0.592 226 207 180 0 0
4.5224 5.9247 -2.7480 -0.317 -0.802 0.506 228 207 180 0 0
4.7890 5.8508 -2.6758 -0.301 -0.951 0.071 221 201 171 0 0
4.9273 5.8729 -2.6545 -0.124 -0.701 0.702 214 190 155 0 0
5.6149 6.9083 -2.7955 0.581 -0.793 -0.184 220 217 212 0 0
5.7385 7.0540 -2.8100 -0.912 -0.181 -0.367 219 216 210 0 0
6.4727 8.2622 -2.9879 -0.454 -0.891 0.008 217 217 215 0 0
6.4849 8.2487 -2.9819 -0.716 -0.664 0.215 216 216 214 0 0
6.5198 8.2038 -2.9631 0.071 -0.441 0.895 214 214 213 0 0
6.6199 8.1604 -2.9318 -0.889 -0.390 -0.241 209 209 208 0 0
6.6433 8.1820 -2.9330 -0.656 -0.467 0.593 208 208 206 0 0
7.1376 8.3190 -2.8723 -0.058 -0.565 0.823 186 185 183 0 0
7.1576 8.3277 -2.8707 -0.163 -0.509 0.845 184 183 181 0 0
7.2913 8.1990 -2.8101 0.365 -0.453 0.813 172 169 168 0 0
7.5609 8.4094 -2.8132 -0.143 -0.806 -0.574 160 159 159 0 0
7.6667 8.4181 -2.7947 0.527 -0.555 -0.643 160 159 158 0 0
7.7284 8.4830 -2.7998 0.797 -0.546 -0.256 158 157 156 0 0
7.8173 8.6507 -2.8271 -0.435 -0.070 -0.898 156 156 155 0 0
7.8842 8.2180 -2.6985 -0.519 -0.465 0.718 166 165 166 0 0
7.9404 8.3046 -2.7106 -0.338 -0.745 0.576 169 167 167 0 0
7.9571 8.2669 -2.6972 -0.705 -0.307 0.639 171 171 169 0 0
2.6794 7.1964 -3.4640 -0.452 -0.719 -0.527 227 225 220 0 0
2.6947 7.1705 -3.4540 0.290 -0.809 -0.512 228 225 218 0 0
3.2833 6.0490 -3.0375 -0.390 -0.556 0.734 219 196 164 0 0
3.3787 6.0672 -3.0236 -0.519 -0.582 0.627 221 200 169 0 0
3.3906 6.0585 -3.0189 -0.342 -0.714 0.612 221 200 169 0 0
3.7380 6.0373 -2.9450 -0.378 -0.649 0.660 221 200 169 0 0
3.7617 6.0302 -2.9384 -0.378 -0.649 0.660 225 205 174 0 0
3.7736 6.0267 -2.9351 -0.448 -0.674 0.588 226 206 178 0 0
4.0703 5.9661 -2.8606 -0.694 -0.689 0.207 222 203 172 0 0
4.1670 5.9677 -2.8420 0.039 -0.602 0.797 224 203 174 0 0
4.3325 5.9350 -2.8007 -0.443 -0.544 0.713 222 199 168 0 0
4.3430 5.9226 -2.7953 -0.143 -0.726 0.673 221 198 167 0 0
4.3554 5.9244 -2.7934 0.097 -0.619 0.779 220 199 170 0 0
4.3678 5.9271 -2.7917 -0.605 -0.754 0.256 221 200 172 0 0
4.3794 5.9235 -2.7884 -0.456 -0.614 0.644 225 204 176 0 0
4.3909 5.9185 -2.7849 -0.452 -0.698 0.556 224 203 174 0 0
4.5090 5.8985 -2.7563 -0.237 -0.764 0.600 226 206 179 0 0
4.5461 5.9032 -2.7503 -0.605 -0.713 0.355 226 205 176 0 0
4.6789 5.8986 -2.7229 -0.404 -0.715 0.570 226 205 175 0 0
4.7802 5.8537 -2.6910 -0.441 -0.839 0.318 223 204 173 0 0
4.7923 5.8535 -2.6885 -0.308 -0.873 0.379 222 203 173 0 0
4.8163 5.8520 -2.6834 0.636 -0.772 0.013 221 200 170 0 0
4.8417 5.8574 -2.6799 0.006 -0.904 0.427 223 201 170 0 0
5.5662 7.0364 -2.8539 -0.888 -0.086 -0.451 195 175 150 0 0
6.0352 8.3812 -3.1226 -0.450 -0.517 -0.728 219 217 211 0 0
6.4755 8.2063 -2.9892 -0.742 -0.591 0.318 216 216 214 0 0
6.5095 8.2110 -2.9838 -0.493 -0.609 0.621 214 214 213 0 0
6.5660 8.1833 -2.9653 0.281 -0.816 0.505 214 213 211 0 0
6.5962 8.2262 -2.9708 -0.495 -0.679 0.543 213 212 210 0 0
6.6335 8.1409 -2.9406 -0.905 -0.402 -0.141 209 209 207 0 0
6.8887 8.3111 -2.9362 0.008 -0.265 0.964 201 200 198 0 0
7.0024 8.2579 -2.8995 0.485 -0.320 0.814 194 193 191 0 0
7.2119 8.2845 -2.8655 -0.501 -0.860 0.102 180 179 174 0 0
7.2527 8.3470 -2.8743 0.140 -0.791 0.596 179 178 174 0 0
7.1732 8.0556 -2.8117 -0.361 -0.908 0.214 178 177 174 0 0
