ply
format ascii 1.0
element vertex 827
property float x
property float y
property float z
property float nx
property float ny
property float nz
property uchar diffuse_red
property uchar diffuse_green
property uchar diffuse_blue
property uchar class
property uchar detection
end_header
4.7620 6.2528 -2.4681 -0.601 -0.518 0.609 230 211 184 0 0
4.7768 6.2463 -2.4716 -0.471 -0.666 0.579 232 214 187 0 0
4.7892 6.2016 -2.4778 -0.689 -0.333 0.644 231 214 189 0 0
4.8393 6.1862 -2.4892 -0.435 -0.708 0.557 231 213 185 0 0
7.7410 7.6587 -2.9498 -0.238 -0.858 0.456 221 221 219 0 0
7.7616 7.6504 -2.9547 -0.238 -0.858 0.456 223 223 221 0 0
7.8230 7.6704 -2.9654 0.248 -0.845 -0.473 223 223 221 0 0
8.0499 7.7126 -3.0075 0.293 -0.926 -0.240 226 226 224 0 0
8.1877 7.7605 -3.0312 0.280 -0.958 0.058 227 227 225 0 0
8.3054 7.7709 -3.0540 0.283 -0.957 0.057 228 229 226 0 0
7.9981 7.5419 -3.0114 0.174 -0.897 0.405 229 230 227 0 0
8.0687 7.5443 -3.0254 -0.193 -0.744 0.640 230 230 228 0 0
8.0684 7.5218 -3.0272 -0.894 -0.448 0.004 231 231 229 0 0
8.0015 7.4110 -3.0230 0.015 -0.872 0.489 233 233 231 0 0
0.8101 10.5520 -1.3291 -0.484 -0.391 0.783 172 124 107 0 0
1.0298 10.3385 -1.3912 -0.586 -0.711 0.388 189 146 129 0 0
1.0410 10.3264 -1.3945 -0.640 -0.701 0.316 185 140 124 0 0
1.0511 10.3114 -1.3977 -0.746 -0.611 0.263 183 140 124 0 0
1.0613 10.2971 -1.4010 -0.836 -0.495 0.238 171 129 113 0 0
1.0749 10.2911 -1.4042 -0.640 -0.701 0.316 190 148 131 0 0
1.0935 10.2977 -1.4074 -0.305 -0.891 0.337 187 144 127 0 0
1.1270 10.3011 -1.4139 -0.417 -0.501 0.758 183 137 120 0 0
1.1400 10.2935 -1.4172 -0.303 -0.658 0.689 185 138 120 0 0
1.1519 10.2831 -1.4205 -0.480 -0.592 0.647 198 153 132 0 0
1.6209 9.8883 -1.5479 -0.668 -0.539 0.513 190 141 126 0 0
1.6988 9.8043 -1.5706 -0.458 -0.426 0.780 174 125 108 0 0
2.3000 9.2683 -1.7365 -0.513 -0.699 0.498 171 113 93 0 0
2.6434 9.0266 -1.8259 -0.292 -0.715 0.636 161 105 85 0 0
2.7537 8.9383 -1.8555 -0.490 -0.430 0.758 195 145 125 0 0
2.9538 8.8426 -1.9038 -0.274 -0.841 0.467 165 113 91 0 0
3.0053 8.8341 -1.9150 -0.082 -0.814 0.575 180 129 108 0 0
3.4086 8.9316 -1.9885 0.231 -0.854 -0.467 109 63 47 0 0
3.4948 8.9662 -2.0031 0.387 -0.726 -0.569 116 74 57 0 0
3.5291 8.9850 -2.0084 0.416 -0.713 -0.565 106 65 48 0 0
3.6754 9.0990 -2.0286 0.524 -0.790 -0.317 112 71 53 0 0
2.9145 7.9010 -1.9736 0.099 -0.908 0.408 229 205 171 0 0
3.0472 7.6438 -2.0217 -0.453 -0.538 0.711 230 213 185 0 0
3.2158 7.5510 -2.0634 -0.283 -0.797 0.534 232 212 185 0 0
3.2576 7.4874 -2.0771 -0.394 -0.883 0.255 234 213 186 0 0
3.4849 7.3704 -2.1328 -0.394 -0.915 -0.088 233 216 188 0 0
3.5376 7.2978 -2.1494 -0.433 -0.561 0.706 232 213 185 0 0
3.5497 7.2895 -2.1526 -0.292 -0.650 0.702 229 211 182 0 0
3.5819 7.2597 -2.1615 -0.289 -0.711 0.641 234 212 186 0 0
3.6054 7.2421 -2.1677 -0.085 -0.739 0.668 232 213 183 0 0
3.6552 7.2099 -2.1805 -0.302 -0.519 0.800 237 218 190 0 0
4.1539 6.8007 -2.3151 -0.451 -0.720 0.527 230 213 185 0 0
4.1585 6.7851 -2.3173 -0.394 -0.814 0.427 231 214 186 0 0
4.2956 6.6744 -2.3542 -0.337 -0.703 0.626 228 211 183 0 0
4.3229 6.6599 -2.3609 -0.174 -0.797 0.579 232 215 187 0 0
4.3269 6.6441 -2.3630 -0.130 -0.714 0.688 232 215 187 0 0
4.6018 6.4227 -2.4369 -0.339 -0.737 0.585 230 213 185 0 0
7.7684 7.6596 -2.9754 -0.278 -0.603 0.748 222 222 220 0 0
8.0137 7.7381 -3.0185 0.184 -0.983 0.003 225 225 223 0 0
8.1885 7.7657 -3.0516 0.248 -0.965 -0.084 227 227 225 0 0
8.2527 7.7861 -3.0629 0.148 -0.928 -0.343 227 227 225 0 0
7.9944 7.5216 -3.0325 0.021 -0.996 0.082 229 229 227 0 0
8.0756 7.5534 -3.0463 -0.074 -0.992 -0.103 230 230 228 0 0
8.1066 7.5516 -3.0527 -0.001 -0.999 0.032 232 232 230 0 0
8.1381 7.5500 -3.0592 -0.039 -0.987 -0.156 232 232 230 0 0
7.9163 7.3811 -3.0283 0.031 -0.847 0.530 232 232 230 0 0
0.7706 10.5820 -1.3351 -0.232 -0.590 0.773 182 137 118 0 0
1.0202 10.3226 -1.4069 -0.310 -0.715 0.627 182 136 120 0 0
1.0364 10.3236 -1.4101 -0.640 -0.701 0.316 190 144 128 0 0
1.0469 10.3097 -1.4134 -0.746 -0.611 0.263 187 142 126 0 0
1.0573 10.2957 -1.4167 -0.746 -0.611 0.263 165 121 105 0 0
1.0677 10.2816 -1.4199 -0.746 -0.611 0.263 190 146 129 0 0
1.3168 10.1035 -1.4850 -0.300 -0.512 0.805 174 127 109 0 0
1.4600 9.9809 -1.5241 -0.239 -0.578 0.780 169 121 105 0 0
1.4771 9.9821 -1.5275 -0.394 -0.569 0.722 168 119 101 0 0
1.4883 9.9703 -1.5307 -0.394 -0.569 0.722 168 119 99 0 0
1.6667 9.8154 -1.5796 -0.378 -0.495 0.783 170 122 104 0 0
2.1487 9.4148 -1.7102 -0.209 -0.604 0.769 182 127 106 0 0
2.2929 9.2625 -1.7519 -0.513 -0.699 0.498 165 106 85 0 0
2.3049 9.2525 -1.7551 -0.275 -0.754 0.596 174 117 97 0 0
2.3184 9.2450 -1.7585 -0.275 -0.754 0.596 192 137 116 0 0
2.5453 9.0518 -1.8203 -0.549 -0.411 0.728 190 138 117 0 0
2.5612 9.0480 -1.8239 -0.472 -0.592 0.653 197 145 125 0 0
2.7399 8.9231 -1.8703 -0.393 -0.507 0.767 204 154 135 0 0
2.9458 8.8367 -1.9192 -0.274 -0.841 0.467 159 107 86 0 0
3.0695 8.8215 -1.9456 0.126 -0.978 0.169 163 108 85 0 0
3.3754 8.9194 -1.9999 0.394 -0.863 -0.315 120 73 57 0 0
3.4656 8.9601 -2.0149 0.360 -0.737 -0.572 117 76 59 0 0
3.5044 8.9852 -2.0207 0.387 -0.726 -0.569 109 70 52 0 0
3.5420 9.0084 -2.0265 0.426 -0.700 -0.573 117 76 58 0 0
3.6294 9.0710 -2.0392 0.354 -0.692 -0.629 113 72 54 0 0
2.9051 7.8937 -1.9876 0.099 -0.908 0.408 219 195 162 0 0
3.1454 7.5620 -2.0635 -0.389 -0.595 0.703 231 211 184 0 0
3.2729 7.5101 -2.0936 -0.405 -0.533 0.742 231 210 182 0 0
3.5158 7.3218 -2.1583 -0.088 -0.793 0.602 235 217 189 0 0
3.5261 7.2897 -2.1630 -0.433 -0.561 0.706 229 212 184 0 0
4.2671 6.6723 -2.3639 -0.275 -0.718 0.640 228 211 183 0 0
4.5973 6.3669 -2.4558 -0.424 -0.857 0.292 232 212 185 0 0
4.7780 6.1821 -2.5076 -0.190 -0.619 0.762 231 213 186 0 0
4.7764 6.1450 -2.5103 -0.186 -0.941 0.284 225 208 180 0 0
7.6831 7.6048 -2.9826 -0.296 -0.470 0.832 223 223 221 0 0
7.8373 7.6666 -3.0089 0.277 -0.960 0.045 224 224 222 0 0
7.9618 7.7070 -3.0309 -0.352 -0.884 -0.309 225 225 223 0 0
7.9342 7.6653 -3.0287 -0.037 -0.847 0.530 225 225 223 0 0
8.0218 7.7025 -3.0435 0.131 -0.955 0.266 226 226 224 0 0
8.0120 7.6503 -3.0457 -0.364 -0.931 0.023 228 228 226 0 0
8.2322 7.7768 -3.0802 0.137 -0.942 0.306 228 228 226 0 0
7.9851 7.5198 -3.0509 0.035 -0.941 0.338 230 230 228 0 0
8.0282 7.5262 -3.0591 -0.069 -0.909 -0.410 230 230 228 0 0
0.6103 10.8495 -1.2973 -0.381 -0.894 -0.235 242 242 240 0 0
0.7805 10.5319 -1.3575 -0.377 -0.599 0.706 182 139 123 0 0
0.7914 10.5189 -1.3608 -0.487 -0.442 0.754 182 139 123 0 0
1.0264 10.3068 -1.4258 -0.387 -0.706 0.593 173 127 111 0 0
1.0386 10.2974 -1.4291 -0.387 -0.706 0.593 199 153 137 0 0
1.0508 10.2880 -1.4323 -0.387 -0.706 0.593 169 123 108 0 0
1.0642 10.2815 -1.4355 -0.323 -0.828 0.459 192 146 130 0 0
1.3386 10.0485 -1.5103 -0.167 -0.853 0.494 193 146 128 0 0
1.4361 9.9722 -1.5363 -0.254 -0.542 0.801 182 133 116 0 0
1.5630 9.8873 -1.5691 -0.569 -0.528 0.631 166 114 97 0 0
1.6731 9.7660 -1.6013 -0.331 -0.796 0.507 177 132 115 0 0
1.6771 9.7395 -1.6042 -0.759 -0.526 0.383 194 150 131 0 0
1.9123 9.5646 -1.6663 -0.435 -0.664 0.608 174 118 98 0 0
2.0348 9.4692 -1.6990 -0.714 -0.339 0.612 191 136 116 0 0
2.2244 9.3358 -1.7484 -0.361 -0.657 0.661 162 110 89 0 0
2.2365 9.3258 -1.7516 -0.361 -0.657 0.661 163 114 93 0 0
2.5353 9.0418 -1.8354 -0.593 -0.438 0.675 194 142 121 0 0
2.5436 9.0259 -1.8384 -0.593 -0.438 0.675 181 130 110 0 0
2.5481 9.0038 -1.8411 -0.638 -0.344 0.689 170 119 100 0 0
2.7247 8.9058 -1.8851 -0.484 -0.467 0.740 200 151 132 0 0
3.3441 8.8819 -2.0135 0.501 -0.865 0.009 113 66 50 0 0
3.4747 8.9784 -2.0325 0.403 -0.746 -0.530 118 79 62 0 0
3.5165 9.0075 -2.0387 0.414 -0.729 -0.545 108 69 51 0 0
3.5537 9.0303 -2.0445 0.426 -0.700 -0.573 118 77 59 0 0
3.6422 9.0941 -2.0575 0.369 -0.714 -0.595 108 67 49 0 0
2.8172 7.7828 -1.9939 -0.649 -0.428 0.629 220 195 162 0 0
2.9163 7.6983 -2.0209 -0.357 -0.625 0.694 234 216 188 0 0
3.1314 7.5499 -2.0768 -0.456 -0.672 0.583 233 213 186 0 0
3.2431 7.4797 -2.1052 -0.319 -0.864 0.390 232 213 183 0 0
3.4265 7.3359 -2.1542 -0.460 -0.430 0.777 231 214 186 0 0
3.4919 7.2998 -2.1704 -0.285 -0.913 0.291 233 214 187 0 0
3.5273 7.2523 -2.1815 -0.169 -0.859 0.483 234 217 189 0 0
3.6264 7.1879 -2.2069 -0.191 -0.681 0.707 233 214 185 0 0
3.7144 7.1326 -2.2293 -0.309 -0.741 0.595 231 214 186 0 0
3.7135 7.1106 -2.2309 -0.211 -0.746 0.631 228 211 183 0 0
3.7302 7.1070 -2.2346 -0.089 -0.850 0.519 226 209 182 0 0
3.7491 7.0847 -2.2402 -0.343 -0.817 0.464 241 225 199 0 0
4.5177 6.4353 -2.4493 -0.371 -0.502 0.782 234 215 188 0 0
4.5269 6.4242 -2.4521 -0.371 -0.502 0.782 232 215 187 0 0
4.5363 6.3762 -2.4579 -0.631 -0.380 0.676 227 210 182 0 0
4.7270 6.1642 -2.5138 -0.278 -0.713 0.643 229 211 185 0 0
4.7384 6.1551 -2.5169 -0.136 -0.895 0.426 230 210 183 0 0
4.7545 6.1496 -2.5206 -0.212 -0.859 0.466 230 210 183 0 0
4.7673 6.1416 -2.5238 -0.184 -0.904 0.385 227 207 180 0 0
4.8284 6.1170 -2.5383 -0.269 -0.963 -0.018 226 208 183 0 0
8.1456 8.0258 -3.0633 -0.582 -0.175 0.794 220 220 218 0 0
8.1847 8.0295 -3.0710 -0.653 -0.366 0.663 221 221 219 0 0
7.7948 7.6417 -3.0224 -0.931 -0.126 -0.343 224 224 222 0 0
7.8721 7.6272 -3.0393 -0.208 -0.680 0.703 227 227 225 0 0
8.1022 7.7161 -3.0792 -0.309 -0.908 0.283 227 227 225 0 0
0.5993 10.8734 -1.3097 -0.329 -0.858 0.395 243 242 239 0 0
0.7954 10.4531 -1.3832 -0.324 -0.546 0.772 178 134 117 0 0
1.0196 10.2982 -1.4414 -0.489 -0.526 0.696 178 133 115 0 0
1.0359 10.2994 -1.4447 -0.290 -0.686 0.668 168 122 106 0 0
1.0826 10.2162 -1.4608 -0.542 -0.383 0.748 194 150 132 0 0
1.4635 9.9310 -1.5615 -0.379 -0.464 0.801 171 120 101 0 0
1.4719 9.9131 -1.5647 -0.328 -0.632 0.702 179 128 108 0 0
1.4848 9.9051 -1.5680 -0.401 -0.583 0.707 181 130 109 0 0
1.4965 9.8947 -1.5712 -0.172 -0.714 0.678 175 126 109 0 0
1.5063 9.8799 -1.5744 -0.322 -0.601 0.732 163 112 94 0 0
1.5758 9.8151 -1.5938 -0.473 -0.673 0.569 180 132 115 0 0
1.7941 9.6414 -1.6523 -0.525 -0.493 0.694 188 141 125 0 0
1.9324 9.5112 -1.6910 -0.331 -0.664 0.670 172 120 99 0 0
2.0153 9.4722 -1.7111 -0.653 -0.399 0.644 198 144 123 0 0
2.0261 9.4599 -1.7143 -0.714 -0.339 0.612 186 132 112 0 0
2.0494 9.4386 -1.7207 -0.464 -0.467 0.753 191 139 121 0 0
2.1902 9.3444 -1.7571 -0.300 -0.645 0.703 171 119 98 0 0
2.2014 9.3331 -1.7603 -0.398 -0.579 0.711 146 93 72 0 0
2.2150 9.3257 -1.7636 -0.248 -0.647 0.721 165 113 93 0 0
2.2270 9.3157 -1.7669 -0.361 -0.657 0.661 157 107 88 0 0
2.5235 9.0289 -1.8504 -0.642 -0.335 0.690 178 126 105 0 0
2.6412 8.9544 -1.8805 -0.108 -0.647 0.755 192 141 123 0 0
2.7094 8.9168 -1.8974 -0.061 -0.801 0.595 191 142 125 0 0
2.9659 8.7943 -1.9598 -0.119 -0.874 0.472 154 105 83 0 0
3.1556 8.7898 -1.9991 0.062 -0.825 0.562 129 78 57 0 0
3.4440 8.9700 -2.0441 0.405 -0.740 -0.537 105 63 47 0 0
3.4832 8.9958 -2.0501 0.377 -0.736 -0.563 127 86 69 0 0
3.4975 8.9875 -2.0537 0.106 -0.559 -0.822 117 76 59 0 0
3.5657 9.0526 -2.0626 0.433 -0.691 -0.579 112 71 53 0 0
3.6519 9.1133 -2.0755 0.457 -0.766 -0.452 117 75 59 0 0
2.8086 7.7764 -2.0077 -0.640 -0.480 0.599 224 201 169 0 0
2.9055 7.6894 -2.0345 -0.357 -0.625 0.694 230 210 183 0 0
3.4294 7.3219 -2.1711 -0.435 -0.620 0.653 230 213 185 0 0
3.4387 7.3105 -2.1739 -0.185 -0.889 0.419 232 213 185 0 0
3.4735 7.3057 -2.1814 -0.055 -0.969 0.239 235 215 190 0 0
3.4913 7.3037 -2.1853 -0.055 -0.969 0.239 234 214 187 0 0
3.4899 7.2589 -2.1885 -0.190 -0.880 0.436 233 215 185 0 0
3.5073 7.2564 -2.1923 -0.292 -0.845 0.449 232 214 186 0 0
3.5210 7.2498 -2.1956 -0.292 -0.845 0.449 234 217 189 0 0
3.5335 7.2205 -2.2005 -0.422 -0.648 0.634 219 201 174 0 0
3.5923 7.1772 -2.2160 -0.198 -0.639 0.743 233 212 184 0 0
3.6902 7.1537 -2.2379 -0.662 -0.418 0.622 234 215 188 0 0
3.6993 7.1001 -2.2440 -0.227 -0.680 0.697 234 217 190 0 0
3.8193 7.0152 -2.2754 -0.351 -0.781 0.517 234 217 189 0 0
3.8788 6.9721 -2.2910 -0.285 -0.615 0.735 230 212 182 0 0
4.7140 6.1576 -2.5268 -0.278 -0.713 0.643 230 210 184 0 0
4.7290 6.1514 -2.5303 -0.222 -0.822 0.524 228 208 181 0 0
4.7682 6.1280 -2.5402 -0.214 -0.874 0.435 232 213 187 0 0
4.7870 6.1246 -2.5444 -0.191 -0.878 0.438 230 213 187 0 0
4.8024 6.1186 -2.5480 -0.227 -0.861 0.454 228 211 185 0 0
4.8186 6.1131 -2.5518 -0.239 -0.919 0.313 230 213 187 0 0
7.8054 7.6309 -3.0455 -0.948 -0.241 -0.210 225 225 223 0 0
7.9003 7.5834 -3.0687 -0.299 -0.756 0.582 228 228 226 0 0
0.5948 10.9650 -1.3183 0.029 -0.532 0.846 242 242 240 0 0
0.5939 10.8673 -1.3257 -0.284 -0.844 0.455 242 243 238 0 0
0.7968 10.4236 -1.4020 -0.322 -0.556 0.766 178 135 116 0 0
0.8449 10.3850 -1.4149 -0.287 -0.567 0.772 186 142 125 0 0
0.8717 10.3732 -1.4214 -0.220 -0.661 0.718 169 126 109 0 0
0.9186 10.3314 -1.4343 -0.086 -0.918 0.387 195 152 136 0 0
0.9460 10.3209 -1.4408 -0.537 -0.442 0.718 193 150 133 0 0
0.9961 10.2873 -1.4537 -0.087 -0.742 0.665 184 140 121 0 0
1.0505 10.2241 -1.4699 -0.429 -0.533 0.729 186 143 126 0 0
1.0728 10.2003 -1.4763 -0.518 -0.416 0.748 185 142 125 0 0
1.1323 10.1899 -1.4894 -0.156 -0.627 0.764 193 145 125 0 0
1.1731 10.1329 -1.5023 -0.057 -0.842 0.536 175 127 110 0 0
1.3449 9.9669 -1.5506 -0.280 -0.602 0.748 186 137 119 0 0
1.4282 9.9336 -1.5704 -0.377 -0.625 0.684 174 125 106 0 0
1.4515 9.9123 -1.5769 -0.380 -0.572 0.727 180 129 110 0 0
1.4734 9.8879 -1.5833 -0.384 -0.548 0.743 180 129 110 0 0
1.4848 9.8767 -1.5865 -0.322 -0.601 0.732 158 109 92 0 0
1.6736 9.7472 -1.6355 -0.308 -0.708 0.636 185 143 127 0 0
1.7549 9.6379 -1.6608 -0.488 -0.375 0.788 191 148 131 0 0
2.0062 9.4620 -1.7263 -0.492 -0.551 0.673 182 125 105 0 0
2.1800 9.3330 -1.7722 -0.375 -0.586 0.718 195 142 122 0 0
2.1915 9.3220 -1.7755 -0.458 -0.503 0.733 173 118 98 0 0
2.2041 9.3131 -1.7787 -0.248 -0.647 0.721 174 120 101 0 0
2.2169 9.3045 -1.7821 -0.248 -0.647 0.721 168 113 96 0 0
2.5130 9.0182 -1.8654 -0.642 -0.335 0.690 180 128 107 0 0
2.7405 8.8283 -1.9271 -0.551 -0.784 0.287 187 139 120 0 0
2.7546 8.8215 -1.9305 -0.354 -0.934 0.059 171 123 105 0 0
2.9555 8.7849 -1.9749 -0.073 -0.808 0.584 161 110 89 0 0
2.9795 8.7922 -1.9793 -0.098 -0.889 0.447 169 118 97 0 0
3.1498 8.7874 -2.0148 0.115 -0.890 0.441 123 72 51 0 0
3.4138 8.9622 -2.0557 0.414 -0.898 -0.148 107 64 47 0 0
3.4446 8.9767 -2.0609 0.434 -0.723 -0.538 108 66 49 0 0
3.4869 9.0068 -2.0673 0.434 -0.723 -0.538 113 71 54 0 0
3.5105 9.0111 -2.0719 0.190 -0.615 -0.766 118 77 59 0 0
3.5530 9.0411 -2.0783 0.145 -0.513 -0.846 105 64 46 0 0
3.6613 9.1320 -2.0936 0.447 -0.781 -0.435 114 72 56 0 0
2.8047 7.7763 -2.0221 -0.652 -0.425 0.628 227 204 172 0 0
2.8603 7.7066 -2.0390 -0.131 -0.850 0.510 229 207 183 0 0
3.4462 7.3016 -2.1913 0.055 -0.887 0.458 232 212 185 0 0
3.4591 7.2943 -2.1946 0.015 -0.861 0.509 232 212 187 0 0
3.4931 7.2453 -2.2054 -0.210 -0.786 0.582 231 214 185 0 0
3.5084 7.2405 -2.2089 -0.169 -0.859 0.483 230 213 186 0 0
3.6878 7.0925 -2.2574 -0.221 -0.702 0.677 231 214 188 0 0
3.7676 7.0290 -2.2788 -0.239 -0.676 0.697 232 215 187 0 0
3.8392 6.9777 -2.2976 -0.262 -0.779 0.569 233 216 188 0 0
4.1260 6.7120 -2.3774 -0.100 -0.814 0.573 230 210 183 0 0
4.7019 6.1518 -2.5398 -0.110 -0.850 0.515 232 212 185 0 0
4.7175 6.1461 -2.5435 -0.222 -0.822 0.524 229 209 181 0 0
4.8801 5.9865 -2.5894 -0.356 -0.532 0.768 226 209 181 0 0
8.0108 7.9401 -3.0840 -0.431 -0.259 0.865 222 222 220 0 0
8.0372 7.9118 -3.0916 -0.360 -0.275 0.892 223 223 221 0 0
8.0135 7.8719 -3.0898 -0.443 -0.324 0.836 223 223 221 0 0
7.7666 7.6087 -3.0593 0.079 -0.994 -0.072 226 226 224 0 0
7.8044 7.6122 -3.0668 0.079 -0.994 -0.072 226 226 224 0 0
7.8430 7.6162 -3.0745 0.166 -0.929 -0.331 226 226 224 0 0
7.8420 7.5706 -3.0778 -0.966 -0.113 0.234 228 228 226 0 0
0.8237 10.3789 -1.4273 -0.287 -0.567 0.772 180 135 117 0 0
0.8354 10.3686 -1.4305 -0.287 -0.567 0.772 166 123 106 0 0
1.1756 10.1084 -1.5209 -0.086 -0.863 0.498 186 141 122 0 0
1.2299 10.0462 -1.5370 -0.326 -0.601 0.730 183 134 117 0 0
1.2418 10.0363 -1.5402 -0.287 -0.645 0.709 180 130 113 0 0
1.2541 10.0273 -1.5434 -0.287 -0.645 0.709 190 139 122 0 0
1.3151 9.9811 -1.5596 -0.609 -0.521 0.598 179 132 116 0 0
1.3248 9.9661 -1.5628 -0.609 -0.521 0.598 175 126 110 0 0
1.3334 9.9485 -1.5659 -0.440 -0.619 0.651 176 130 112 0 0
1.5585 9.7933 -1.6245 -0.326 -0.865 0.382 175 126 111 0 0
1.7864 9.5729 -1.6886 -0.100 -0.898 0.428 179 130 113 0 0
1.8179 9.5682 -1.6955 -0.060 -0.895 0.441 187 135 117 0 0
1.8282 9.5550 -1.6986 -0.009 -0.859 0.512 184 134 115 0 0
2.1078 9.3041 -1.7758 -0.645 -0.703 0.301 178 121 102 0 0
2.6170 8.8998 -1.9124 -0.390 -0.736 0.554 177 124 106 0 0
2.6959 8.8794 -1.9303 -0.437 -0.709 0.553 190 135 116 0 0
2.7002 8.8292 -1.9350 -0.141 -0.882 0.450 180 127 109 0 0
2.7344 8.8251 -1.9424 -0.680 -0.626 0.381 168 117 97 0 0
2.9447 8.7750 -1.9899 -0.073 -0.808 0.584 183 131 109 0 0
3.0978 8.7745 -2.0217 0.159 -0.930 0.331 140 88 67 0 0
3.3114 8.8817 -2.0578 0.218 -0.761 -0.611 105 64 46 0 0
3.4161 8.9713 -2.0727 0.397 -0.822 -0.409 111 68 51 0 0
3.4515 8.9921 -2.0784 0.468 -0.759 -0.452 109 64 48 0 0
3.4928 9.0208 -2.0848 0.471 -0.769 -0.433 110 67 51 0 0
3.5377 9.0544 -2.0916 0.466 -0.744 -0.479 123 80 64 0 0
3.5808 9.0851 -2.0981 0.490 -0.740 -0.461 112 70 54 0 0
2.7650 7.8488 -2.0234 -0.327 -0.546 0.772 116 78 59 0 0
2.9309 7.6148 -2.0757 -0.147 -0.765 0.627 234 214 187 0 0
3.0746 7.5405 -2.1112 -0.157 -0.725 0.670 231 214 186 0 0
3.0831 7.5281 -2.1139 -0.544 -0.486 0.684 232 215 187 0 0
3.1213 7.4388 -2.1286 -0.304 -0.844 0.443 231 211 184 0 0
3.4825 7.2381 -2.2189 -0.140 -0.816 0.560 234 216 188 0 0
3.5000 7.2358 -2.2227 -0.403 -0.537 0.741 231 214 186 0 0
3.5093 7.2031 -2.2271 -0.411 -0.511 0.755 235 218 190 0 0
3.5132 7.1859 -2.2293 -0.457 -0.371 0.808 233 214 187 0 0
3.6275 7.1176 -2.2582 -0.388 -0.659 0.644 234 217 189 0 0
3.8378 6.9601 -2.3139 -0.618 -0.416 0.667 232 215 185 0 0
3.8752 6.9157 -2.3250 -0.713 -0.510 0.481 229 208 183 0 0
4.5962 6.1981 -2.5294 -0.494 -0.621 0.608 230 213 185 0 0
4.6979 6.1345 -2.5554 -0.138 -0.675 0.725 229 212 186 0 0
4.7947 6.0313 -2.5834 -0.300 -0.673 0.677 229 212 184 0 0
4.8827 5.9397 -2.6086 -0.521 -0.422 0.742 228 211 183 0 0
4.8965 5.9325 -2.6120 -0.309 -0.642 0.702 227 210 181 0 0
7.7823 7.5566 -3.0866 -0.868 -0.472 -0.155 227 227 225 0 0
7.8392 7.5508 -3.0988 -0.966 -0.113 0.234 228 228 226 0 0
7.8850 7.5595 -3.1077 -0.299 -0.756 0.582 229 229 227 0 0
0.5787 10.7950 -1.3611 0.148 -0.861 0.486 243 241 237 0 0
0.7890 10.3780 -1.4363 -0.366 -0.600 0.711 152 105 85 0 0
0.8260 10.3523 -1.4460 -0.287 -0.567 0.772 165 119 103 0 0
1.2208 10.0329 -1.5523 -0.384 -0.630 0.675 169 120 101 0 0
1.2464 10.0173 -1.5588 -0.370 -0.661 0.653 182 132 115 0 0
1.5691 9.7883 -1.6433 -0.671 -0.288 0.683 160 109 94 0 0
1.8086 9.5570 -1.7107 0.026 -0.883 0.469 183 134 117 0 0
1.8192 9.5445 -1.7138 -0.148 -0.823 0.548 198 152 134 0 0
1.8328 9.5380 -1.7171 -0.278 -0.729 0.626 189 145 125 0 0
2.3960 9.0755 -1.8693 -0.168 -0.695 0.699 186 134 115 0 0
2.3994 9.0512 -1.8719 -0.441 -0.523 0.729 177 123 103 0 0
3.0681 8.7656 -2.0328 -0.127 -0.722 0.681 169 116 95 0 0
3.3186 8.8976 -2.0751 0.218 -0.761 -0.611 109 67 50 0 0
3.4105 8.9693 -2.0888 0.383 -0.880 0.282 112 69 52 0 0
3.4563 9.0046 -2.0957 0.471 -0.769 -0.433 108 65 48 0 0
3.4979 9.0338 -2.1022 0.471 -0.769 -0.433 112 69 52 0 0
3.5352 9.0568 -2.1083 0.478 -0.761 -0.438 117 74 58 0 0
3.5841 9.0955 -2.1156 0.509 -0.777 -0.370 116 74 58 0 0
3.6287 9.1279 -2.1224 0.509 -0.777 -0.370 112 70 54 0 0
3.6627 9.1457 -2.1282 0.495 -0.800 -0.340 126 84 68 0 0
2.7524 7.8370 -2.0368 -0.256 -0.597 0.760 120 82 63 0 0
3.1271 7.4504 -2.1440 -0.739 -0.542 0.399 231 211 184 0 0
3.2557 7.3571 -2.1778 -0.110 -0.701 0.705 233 216 187 0 0
3.7351 7.0043 -2.3043 -0.289 -0.846 0.448 231 214 186 0 0
4.0347 6.7333 -2.3871 -0.346 -0.770 0.536 230 210 183 0 0
4.2048 6.5975 -2.4328 -0.667 -0.308 0.678 231 212 185 0 0
4.2147 6.5870 -2.4357 -0.403 -0.508 0.762 229 209 182 0 0
4.2319 6.5450 -2.4424 -0.705 -0.697 0.132 229 209 182 0 0
4.2395 6.5326 -2.4449 -0.842 -0.535 -0.065 226 206 179 0 0
4.2556 6.5278 -2.4487 -0.777 -0.576 0.254 231 211 184 0 0
4.4809 6.3638 -2.5080 -0.761 -0.252 0.597 229 212 184 0 0
4.5858 6.1934 -2.5427 -0.494 -0.621 0.608 231 214 187 0 0
4.6045 6.1903 -2.5468 -0.129 -0.866 0.484 228 210 183 0 0
4.6213 6.1856 -2.5507 -0.129 -0.866 0.484 230 210 183 0 0
4.6782 6.1406 -2.5659 -0.600 -0.336 0.726 231 214 188 0 0
4.6792 6.1235 -2.5674 -0.122 -0.634 0.764 230 213 186 0 0
4.7705 6.0342 -2.5931 -0.436 -0.675 0.596 226 209 181 0 0
4.7812 6.0247 -2.5961 -0.436 -0.675 0.596 228 211 184 0 0
4.7942 6.0170 -2.5994 -0.467 -0.791 0.395 230 213 187 0 0
4.8688 5.9330 -2.6212 -0.609 -0.387 0.692 228 211 183 0 0
7.6926 7.6113 -3.0838 0.243 -0.735 0.633 225 225 223 0 0
7.6639 7.4578 -3.0893 -0.926 -0.366 0.094 228 228 226 0 0
0.4836 10.8427 -1.3542 0.065 -0.406 0.912 242 242 240 0 0
0.4997 10.8453 -1.3573 0.044 -0.400 0.916 242 243 239 0 0
0.5132 10.8397 -1.3606 0.025 -0.400 0.916 241 242 240 0 0
0.5366 10.8647 -1.3636 -0.125 -0.282 0.951 241 242 240 0 0
0.5468 10.8490 -1.3669 -0.125 -0.282 0.951 242 242 240 0 0
0.5720 10.7849 -1.3769 0.063 -0.775 0.629 212 198 192 0 0
0.7807 10.3647 -1.4518 -0.366 -0.600 0.711 180 132 112 0 0
0.7926 10.3549 -1.4550 -0.370 -0.733 0.570 164 116 96 0 0
1.1239 10.1163 -1.5421 -0.461 -0.440 0.770 188 141 122 0 0
1.1332 10.1000 -1.5452 -0.553 -0.391 0.736 176 130 110 0 0
1.2093 10.0139 -1.5675 -0.201 -0.654 0.730 186 135 116 0 0
1.2230 10.0083 -1.5708 -0.224 -0.703 0.675 190 140 122 0 0
1.2357 10.0005 -1.5741 -0.384 -0.630 0.675 191 143 126 0 0
1.8895 9.4568 -1.7513 -0.375 -0.580 0.723 173 121 102 0 0
1.9043 9.4198 -1.7571 -0.795 -0.338 0.504 190 133 112 0 0
1.9775 9.3964 -1.7742 -0.608 -0.660 0.441 179 124 99 0 0
2.1968 9.1957 -1.8350 -0.436 -0.711 0.552 172 122 101 0 0
2.3897 9.0713 -1.8846 -0.047 -0.793 0.608 190 139 120 0 0
2.3873 9.0374 -1.8866 -0.585 -0.524 0.619 188 136 117 0 0
2.5091 8.9137 -1.9213 -0.360 -0.859 0.365 188 136 115 0 0
2.5722 8.8988 -1.9356 -0.220 -0.921 0.322 181 128 110 0 0
2.5873 8.8939 -1.9391 -0.220 -0.921 0.322 168 113 95 0 0
2.6025 8.8891 -1.9427 -0.220 -0.921 0.322 167 113 92 0 0
2.7947 8.7596 -1.9925 -0.662 -0.624 0.415 157 104 86 0 0
3.3269 8.9150 -2.0925 0.191 -0.776 -0.601 94 52 36 0 0
3.3897 8.9744 -2.1013 0.295 -0.795 -0.531 104 62 46 0 0
3.4976 9.0393 -2.1191 0.495 -0.867 -0.060 110 67 50 0 0
3.5339 9.0610 -2.1251 0.493 -0.867 -0.073 106 63 47 0 0
3.5899 9.1093 -2.1333 0.518 -0.813 -0.266 123 81 65 0 0
3.6260 9.1303 -2.1393 0.501 -0.824 -0.265 120 78 62 0 0
3.6725 9.1651 -2.1464 0.478 -0.790 -0.384 119 77 61 0 0
2.6544 7.7339 -2.0390 -0.017 -0.974 0.226 109 68 48 0 0
2.7499 7.8386 -2.0513 -0.677 -0.229 0.699 106 66 48 0 0
2.7539 7.8198 -2.0535 -0.677 -0.229 0.699 126 87 68 0 0
3.0140 7.5213 -2.1301 -0.717 -0.474 0.511 233 216 188 0 0
3.0184 7.5039 -2.1323 -0.717 -0.505 0.481 233 216 188 0 0
3.0264 7.4910 -2.1349 -0.560 -0.607 0.564 230 213 185 0 0
3.0337 7.4773 -2.1375 -0.717 -0.505 0.481 232 215 187 0 0
3.0413 7.4640 -2.1400 -0.717 -0.505 0.481 235 216 187 0 0
3.0548 7.4579 -2.1433 -0.333 -0.732 0.594 235 216 187 0 0
3.2427 7.3466 -2.1909 -0.242 -0.636 0.733 235 218 190 0 0
3.4721 7.1714 -2.2520 -0.181 -0.729 0.660 232 215 187 0 0
4.0405 6.7232 -2.4042 -0.525 -0.400 0.751 237 217 190 0 0
4.1607 6.6194 -2.4371 -0.196 -0.644 0.739 232 212 185 0 0
4.2208 6.5390 -2.4556 -0.359 -0.910 0.206 226 206 179 0 0
4.2361 6.5335 -2.4592 -0.796 -0.545 0.265 229 209 183 0 0
4.3592 6.3954 -2.4953 -0.401 -0.586 0.705 228 211 183 0 0
4.3999 6.3740 -2.5054 -0.260 -0.677 0.688 225 205 178 0 0
4.5711 6.2033 -2.5538 -0.375 -0.569 0.732 230 213 186 0 0
4.5922 6.1841 -2.5597 -0.187 -0.837 0.514 228 210 182 0 0
4.6088 6.1793 -2.5635 -0.154 -0.847 0.508 230 210 183 0 0
4.6622 6.1675 -2.5756 -0.127 -0.835 0.536 232 214 190 0 0
4.6627 6.1321 -2.5783 -0.662 -0.453 0.597 229 212 186 0 0
4.7487 6.0388 -2.6032 -0.364 -0.647 0.670 227 210 184 0 0
4.7604 6.0301 -2.6063 -0.386 -0.669 0.635 226 209 183 0 0
4.7665 6.0171 -2.6086 -0.360 -0.605 0.711 229 212 186 0 0
7.6095 7.5579 -3.0903 0.234 -0.683 0.692 225 225 223 0 0
0.5024 10.8167 -1.3764 0.115 -0.406 0.906 242 242 242 0 0
0.7975 10.3352 -1.4736 -0.335 -0.665 0.668 171 127 108 0 0
1.1222 10.0815 -1.5604 -0.528 -0.300 0.795 199 153 136 0 0
1.1998 9.9995 -1.5828 -0.146 -0.624 0.768 193 142 122 0 0
1.9021 9.3902 -1.7750 -0.748 -0.452 0.486 167 110 87 0 0
1.9257 9.4026 -1.7790 -0.338 -0.732 0.592 165 108 85 0 0
2.3959 8.9988 -1.9074 -0.214 -0.732 0.647 161 108 86 0 0
2.5195 8.9076 -1.9401 -0.574 -0.802 -0.164 187 136 115 0 0
2.5904 8.8762 -1.9573 -0.464 -0.601 0.651 168 116 95 0 0
2.7449 8.7745 -1.9972 -0.477 -0.616 0.627 176 124 103 0 0
2.7511 8.7559 -1.9999 -0.409 -0.737 0.538 162 110 90 0 0
3.4741 9.0409 -2.1314 0.452 -0.793 -0.409 107 65 47 0 0
3.5131 9.0665 -2.1377 0.452 -0.793 -0.409 110 67 50 0 0
3.5459 9.0834 -2.1434 0.411 -0.893 -0.182 113 70 53 0 0
3.5894 9.1146 -2.1503 0.518 -0.813 -0.266 122 79 63 0 0
3.6231 9.1322 -2.1561 0.521 -0.854 -0.008 122 79 63 0 0
3.6745 9.1737 -2.1639 0.431 -0.783 -0.449 113 70 53 0 0
2.6551 7.7399 -2.0536 -0.119 -0.898 -0.423 113 70 51 0 0
2.8421 7.6090 -2.1025 -0.177 -0.721 0.670 231 211 186 0 0
3.0175 7.4848 -2.1485 -0.327 -0.602 0.728 230 213 185 0 0
3.0284 7.4756 -2.1515 -0.497 -0.573 0.652 234 217 189 0 0
3.0344 7.4603 -2.1538 -0.281 -0.731 0.622 228 209 181 0 0
3.2220 7.3492 -2.2014 -0.302 -0.734 0.609 231 214 186 0 0
3.3702 7.2347 -2.2409 -0.134 -0.713 0.688 236 216 189 0 0
3.3840 7.2072 -2.2459 -0.421 -0.513 0.748 234 215 188 0 0
3.3990 7.2024 -2.2494 -0.508 -0.550 0.663 231 213 187 0 0
3.4976 7.1186 -2.2762 -0.197 -0.662 0.723 229 212 184 0 0
3.5107 7.1116 -2.2795 -0.171 -0.700 0.694 232 213 186 0 0
4.1310 6.6158 -2.4462 -0.270 -0.674 0.688 233 213 186 0 0
4.1433 6.6077 -2.4494 -0.270 -0.674 0.688 229 209 182 0 0
4.7848 5.9645 -2.6312 -0.300 -0.715 0.631 227 207 180 0 0
7.6672 7.5801 -3.1206 -0.590 -0.509 0.626 226 226 224 0 0
7.6299 7.4654 -3.1211 -0.696 -0.144 0.703 229 229 227 0 0
1.6217 9.6074 -1.7162 -0.080 -0.743 0.664 188 142 126 0 0
2.4962 8.9054 -1.9515 -0.371 -0.824 0.428 176 122 102 0 0
2.7077 8.7800 -2.0052 -0.246 -0.767 0.593 164 112 90 0 0
2.7224 8.7743 -2.0088 -0.231 -0.866 0.443 168 117 97 0 0
2.7340 8.7638 -2.0120 -0.624 -0.712 0.323 168 117 96 0 0
2.7546 8.7391 -2.0181 -0.492 -0.855 0.167 167 115 94 0 0
3.0316 8.7583 -2.0753 0.070 -0.988 0.136 134 82 61 0 0
3.0559 8.7655 -2.0799 0.214 -0.938 -0.272 129 77 58 0 0
3.4748 9.0479 -2.1484 0.301 -0.807 -0.508 102 61 43 0 0
3.5089 9.0666 -2.1543 0.361 -0.773 -0.522 109 66 50 0 0
3.5435 9.0859 -2.1602 0.334 -0.922 -0.196 108 65 49 0 0
3.5597 9.0799 -2.1641 0.532 -0.841 -0.105 112 69 52 0 0
3.6006 9.1075 -2.1707 0.539 -0.836 -0.104 120 77 60 0 0
2.6597 7.7511 -2.0687 -0.086 -0.641 -0.762 110 67 48 0 0
2.8284 7.5963 -2.1155 -0.252 -0.686 0.682 232 212 185 0 0
2.8879 7.5336 -2.1325 -0.290 -0.760 0.581 229 212 184 0 0
2.8994 7.5251 -2.1356 -0.037 -0.918 0.395 231 211 184 0 0
2.9206 7.5289 -2.1398 0.061 -0.845 0.531 236 216 189 0 0
2.9748 7.5050 -2.1530 -0.116 -0.665 0.738 231 211 182 0 0
3.0058 7.4753 -2.1617 -0.459 -0.709 0.536 232 215 189 0 0
3.0097 7.4574 -2.1638 -0.401 -0.731 0.552 228 211 183 0 0
3.0236 7.4519 -2.1671 -0.407 -0.708 0.577 232 212 185 0 0
3.0335 7.4414 -2.1700 -0.447 -0.819 0.360 226 206 179 0 0
3.5086 7.0926 -2.2954 -0.175 -0.684 0.708 231 211 183 0 0
3.5770 7.0607 -2.3122 -0.438 -0.498 0.748 230 213 185 0 0
4.1178 6.6078 -2.4590 -0.223 -0.669 0.709 231 211 184 0 0
4.1348 6.6039 -2.4629 -0.175 -0.774 0.608 229 209 182 0 0
4.1492 6.5976 -2.4664 -0.198 -0.823 0.533 229 209 182 0 0
4.3690 6.3555 -2.5302 -0.480 -0.796 0.369 228 211 183 0 0
4.5439 6.1709 -2.5805 -0.535 -0.389 0.750 230 213 187 0 0
4.7665 5.9544 -2.6430 -0.557 -0.532 0.638 230 211 185 0 0
4.7862 5.9344 -2.6487 -0.428 -0.660 0.617 231 211 184 0 0
4.8491 5.8602 -2.6673 -0.399 -0.511 0.762 228 209 181 0 0
7.6156 7.4821 -3.1366 -0.261 -0.548 0.795 229 229 227 0 0
7.6680 7.4738 -3.1483 -0.809 -0.337 0.482 229 229 227 0 0
7.6033 7.3857 -3.1409 -0.910 -0.389 -0.145 231 231 229 0 0
1.1114 10.0332 -1.5939 -0.265 -0.674 0.689 195 148 131 0 0
1.6122 9.5952 -1.7312 -0.161 -0.699 0.697 189 143 127 0 0
1.7144 9.4985 -1.7597 -0.237 -0.700 0.674 181 131 115 0 0
2.0870 9.2062 -1.8595 -0.698 -0.391 0.600 183 128 108 0 0
2.1664 9.1620 -1.8795 -0.334 -0.663 0.670 163 112 96 0 0
2.1921 9.1458 -1.8861 -0.276 -0.685 0.675 199 151 135 0 0
2.4366 8.9022 -1.9552 -0.278 -0.653 0.705 192 141 121 0 0
2.4424 8.8827 -1.9578 -0.604 -0.347 0.718 173 122 103 0 0
2.4733 8.9036 -1.9629 -0.289 -0.768 0.571 182 129 111 0 0
2.4869 8.8966 -1.9663 -0.318 -0.753 0.576 175 121 103 0 0
2.5055 8.8975 -1.9702 -0.278 -0.772 0.571 189 137 118 0 0
2.5725 8.8031 -1.9911 -0.453 -0.641 0.619 192 141 123 0 0
2.5849 8.7941 -1.9944 -0.401 -0.679 0.615 186 136 116 0 0
2.5984 8.7868 -1.9977 -0.272 -0.882 0.385 185 133 113 0 0
2.7223 8.7521 -2.0265 -0.627 -0.663 0.409 186 135 113 0 0
3.4464 9.0427 -2.1601 0.302 -0.807 -0.508 109 67 48 0 0
3.4649 9.0401 -2.1642 -0.159 -0.683 -0.713 112 69 52 0 0
3.5030 9.0644 -2.1706 0.198 -0.841 -0.504 110 67 51 0 0
3.5303 9.0738 -2.1757 0.224 -0.923 -0.311 116 72 57 0 0
2.8115 7.6025 -2.1263 -0.377 -0.549 0.746 230 211 182 0 0
2.8175 7.5871 -2.1287 -0.252 -0.686 0.682 233 213 184 0 0
2.8599 7.5719 -2.1388 -0.183 -0.745 0.641 229 211 183 0 0
2.9849 7.4543 -2.1736 -0.291 -0.566 0.771 233 215 188 0 0
3.0024 7.4532 -2.1774 -0.362 -0.699 0.617 234 215 188 0 0
3.0140 7.4448 -2.1805 -0.357 -0.826 0.437 234 214 187 0 0
3.0266 7.4377 -2.1837 -0.357 -0.826 0.437 229 209 182 0 0
3.2026 7.2919 -2.2313 -0.449 -0.596 0.666 233 214 189 0 0
3.2041 7.2719 -2.2331 -0.715 -0.434 0.548 235 217 191 0 0
3.2244 7.2518 -2.2388 -0.747 -0.531 0.400 233 215 189 0 0
3.4730 7.1008 -2.3023 -0.187 -0.738 0.649 229 211 184 0 0
3.4830 7.0905 -2.3051 -0.239 -0.735 0.635 235 216 189 0 0
3.4947 7.0821 -2.3082 -0.381 -0.720 0.580 231 211 183 0 0
3.5220 7.0694 -2.3149 -0.200 -0.687 0.698 234 216 188 0 0
3.8651 6.7858 -2.4078 -0.071 -0.756 0.651 234 215 187 0 0
3.8941 6.7741 -2.4148 -0.160 -0.677 0.719 230 213 185 0 0
4.1062 6.5819 -2.4734 -0.729 -0.451 0.515 234 214 187 0 0
4.2990 6.3740 -2.5290 -0.015 -0.824 0.567 232 212 185 0 0
4.3923 6.3051 -2.5537 -0.218 -0.975 -0.047 229 209 182 0 0
4.5004 6.1936 -2.5846 -0.280 -0.578 0.766 229 210 183 0 0
4.5067 6.1807 -2.5868 -0.447 -0.529 0.722 230 211 184 0 0
4.7764 5.9479 -2.6605 -0.388 -0.876 0.285 233 215 187 0 0
7.5924 7.4705 -3.1522 -0.261 -0.548 0.795 229 229 227 0 0
7.6341 7.4550 -3.1622 0.080 -0.842 0.533 231 231 229 0 0
7.6219 7.4246 -3.1617 -0.722 -0.005 0.692 230 230 228 0 0
0.4752 10.6692 -1.4301 0.169 -0.680 0.714 153 108 93 0 0
0.4904 10.6695 -1.4333 0.021 -0.591 0.806 170 124 104 0 0
0.8435 10.1955 -1.5416 -0.294 -0.588 0.754 174 125 108 0 0
0.9748 10.0929 -1.5767 -0.259 -0.674 0.692 182 136 118 0 0
0.9996 10.0768 -1.5831 -0.259 -0.674 0.692 199 159 140 0 0
1.0096 10.0624 -1.5862 -0.473 -0.531 0.703 184 143 124 0 0
1.0751 10.0301 -1.6025 -0.270 -0.612 0.744 190 147 130 0 0
1.0876 10.0220 -1.6057 -0.403 -0.517 0.756 183 138 121 0 0
1.1000 10.0138 -1.6089 -0.071 -0.785 0.615 181 135 117 0 0
1.3591 9.7975 -1.6792 -0.389 -0.541 0.746 190 140 121 0 0
1.4645 9.7075 -1.7080 -0.456 -0.542 0.705 157 112 99 0 0
1.5571 9.6253 -1.7334 -0.514 -0.353 0.782 201 157 143 0 0
1.5683 9.6143 -1.7366 -0.492 -0.518 0.700 191 148 134 0 0
1.5782 9.6006 -1.7397 -0.314 -0.668 0.675 192 148 133 0 0
1.7984 9.4068 -1.8001 -0.306 -0.672 0.675 186 134 113 0 0
1.9678 9.2777 -1.8452 -0.121 -0.702 0.702 184 129 108 0 0
2.0046 9.2510 -1.8549 -0.390 -0.707 0.591 184 127 107 0 0
2.0161 9.2404 -1.8581 -0.150 -0.830 0.538 173 117 94 0 0
2.0306 9.2356 -1.8615 -0.150 -0.830 0.538 171 116 94 0 0
2.0445 9.2295 -1.8649 -0.206 -0.748 0.631 179 124 103 0 0
2.0768 9.1944 -1.8743 -0.698 -0.417 0.582 176 122 102 0 0
2.1804 9.1318 -1.9007 -0.374 -0.532 0.759 203 154 138 0 0
2.1874 9.1136 -1.9035 -0.630 -0.328 0.704 201 152 135 0 0
2.2201 9.1096 -1.9107 -0.549 -0.438 0.712 198 150 131 0 0
2.2377 9.0493 -1.9187 -0.503 -0.481 0.718 177 121 104 0 0
2.3526 8.9753 -1.9483 -0.416 -0.619 0.666 156 101 82 0 0
2.4025 8.9401 -1.9614 -0.416 -0.479 0.773 186 134 114 0 0
2.4259 8.8910 -1.9698 -0.278 -0.653 0.705 172 121 102 0 0
2.4316 8.8713 -1.9724 -0.604 -0.347 0.718 128 75 56 0 0
2.4967 8.8894 -1.9850 -0.291 -0.740 0.606 190 138 120 0 0
2.5612 8.7914 -2.0056 -0.545 -0.613 0.572 176 127 109 0 0
2.5716 8.7793 -2.0087 -0.545 -0.613 0.572 182 131 111 0 0
2.5869 8.7750 -2.0122 -0.481 -0.813 0.327 193 142 121 0 0
2.7450 8.7365 -2.0487 -0.197 -0.968 0.154 171 119 98 0 0
3.4613 9.0693 -2.1787 0.124 -0.953 0.276 120 77 60 0 0
3.4818 9.0694 -2.1831 0.071 -0.983 0.169 100 57 41 0 0
3.5069 9.0758 -2.1880 0.198 -0.841 -0.504 110 67 51 0 0
3.5276 9.0761 -2.1924 0.119 -0.840 -0.530 105 62 46 0 0
3.5417 9.0670 -2.1961 0.405 -0.686 -0.604 117 75 59 0 0
3.5880 9.1021 -2.2035 0.395 -0.694 -0.602 116 75 57 0 0
3.6544 9.1643 -2.2134 0.534 -0.779 -0.328 115 74 55 0 0
2.6834 7.7933 -2.1007 0.040 -0.445 -0.895 120 77 58 0 0
3.0012 7.4339 -2.1934 -0.154 -0.779 0.607 227 207 180 0 0
3.0114 7.4238 -2.1963 -0.274 -0.775 0.570 230 210 183 0 0
3.1890 7.2808 -2.2442 -0.446 -0.727 0.522 232 212 186 0 0
3.2033 7.2537 -2.2491 -0.677 -0.454 0.579 227 210 184 0 0
3.2154 7.2459 -2.2522 -0.733 -0.500 0.462 229 212 186 0 0
3.2309 7.2420 -2.2558 -0.462 -0.884 0.066 231 214 187 0 0
3.2417 7.2327 -2.2587 -0.193 -0.961 0.196 231 214 186 0 0
3.2562 7.2276 -2.2622 -0.046 -0.979 0.200 236 219 191 0 0
3.8357 6.7812 -2.4169 -0.083 -0.787 0.611 231 211 184 0 0
3.8939 6.7383 -2.4322 -0.336 -0.591 0.734 235 215 188 0 0
4.0671 6.5887 -2.4796 -0.394 -0.483 0.782 234 214 188 0 0
4.0985 6.5788 -2.4870 -0.729 -0.451 0.515 232 212 185 0 0
4.5217 6.1247 -2.6088 -0.793 -0.259 0.551 230 213 185 0 0
5.0797 5.8779 -2.7451 0.382 -0.825 0.416 225 224 220 0 0
7.5738 7.4621 -3.1685 -0.083 -0.602 0.794 228 228 226 0 0
7.5953 7.4548 -3.1736 -0.137 -0.667 0.733 230 230 228 0 0
7.6113 7.4437 -3.1778 0.038 -0.875 0.483 231 231 229 0 0
0.5244 10.5990 -1.4617 -0.571 -0.408 0.712 188 140 118 0 0
0.8073 10.2311 -1.5474 -0.207 -0.813 0.544 184 136 115 0 0
0.9580 10.0985 -1.5887 -0.185 -0.703 0.686 200 153 133 0 0
0.9921 10.0663 -1.5983 -0.589 -0.595 0.547 198 155 136 0 0
1.4397 9.6967 -1.7195 -0.413 -0.571 0.710 184 138 125 0 0
1.4558 9.6964 -1.7229 -0.529 -0.471 0.706 181 134 121 0 0
1.4665 9.6842 -1.7261 -0.439 -0.590 0.678 186 139 124 0 0
1.5479 9.6134 -1.7483 -0.400 -0.446 0.800 184 141 127 0 0
1.5564 9.5967 -1.7513 -0.346 -0.647 0.680 171 129 115 0 0
1.7890 9.3956 -1.8149 -0.392 -0.642 0.659 192 141 120 0 0
2.4151 8.8796 -1.9844 -0.237 -0.731 0.640 184 128 109 0 0
2.4219 8.8617 -1.9870 -0.853 -0.304 0.424 168 111 91 0 0
2.5740 8.7608 -2.0265 -0.416 -0.580 0.700 177 126 105 0 0
2.8539 8.7104 -2.0901 -0.253 -0.923 0.289 170 121 96 0 0
3.4512 9.0613 -2.1945 0.280 -0.910 0.306 124 81 64 0 0
3.4770 9.0688 -2.1995 0.166 -0.944 0.287 106 63 46 0 0
3.5110 9.0874 -2.2055 0.358 -0.933 0.028 112 69 53 0 0
3.5421 9.1020 -2.2112 0.369 -0.907 -0.205 109 66 49 0 0
3.5551 9.0914 -2.2147 0.405 -0.686 -0.604 116 74 57 0 0
3.6043 9.1305 -2.2227 0.495 -0.793 -0.356 119 78 60 0 0
3.6471 9.1603 -2.2298 0.495 -0.793 -0.356 115 74 56 0 0
3.7333 9.2490 -2.2423 0.467 -0.773 -0.430 110 69 50 0 0
2.6789 7.7442 -2.1181 -0.348 -0.651 0.674 108 66 49 0 0
2.6906 7.7361 -2.1211 -0.244 -0.670 0.701 115 78 58 0 0
3.1780 7.2725 -2.2573 -0.377 -0.551 0.744 230 210 183 0 0
3.1980 7.2521 -2.2629 -0.501 -0.413 0.761 230 213 185 0 0
3.2094 7.2435 -2.2660 -0.640 -0.403 0.654 231 214 186 0 0
3.2277 7.2429 -2.2699 -0.544 -0.796 0.265 233 216 188 0 0
3.2485 7.2234 -2.2757 -0.113 -0.981 0.161 231 214 186 0 0
3.4560 7.0702 -2.3307 -0.537 -0.373 0.757 223 204 177 0 0
3.4834 7.0787 -2.3360 -0.379 -0.762 0.525 233 213 186 0 0
3.4954 7.0706 -2.3391 -0.379 -0.762 0.525 234 214 187 0 0
3.8690 6.7382 -2.4419 -0.125 -0.762 0.635 228 210 182 0 0
3.8808 6.7299 -2.4450 -0.336 -0.591 0.734 230 210 183 0 0
4.0476 6.5940 -2.4900 -0.386 -0.651 0.654 233 213 186 0 0
4.2123 6.4373 -2.5360 -0.326 -0.547 0.771 233 213 187 0 0
4.4162 6.2228 -2.5944 -0.826 -0.249 0.505 231 214 187 0 0
4.4463 6.2112 -2.6016 -0.191 -0.558 0.808 230 213 185 0 0
4.4684 6.1751 -2.6088 -0.208 -0.706 0.677 231 211 184 0 0
4.5017 6.1481 -2.6178 -0.544 -0.473 0.693 227 208 181 0 0
4.5133 6.1395 -2.6209 -0.484 -0.672 0.561 229 210 182 0 0
4.5140 6.1222 -2.6222 -0.644 -0.572 0.508 230 211 183 0 0
4.5225 6.1111 -2.6248 -0.804 -0.448 0.390 233 214 186 0 0
4.5757 6.0644 -2.6394 -0.279 -0.843 0.459 228 211 185 0 0
4.6056 6.0348 -2.6478 -0.418 -0.561 0.715 232 215 190 0 0
4.7149 5.9435 -2.6774 -0.201 -0.736 0.646 231 212 185 0 0
5.0550 5.8638 -2.7559 0.357 -0.832 0.425 226 225 222 0 0
7.5875 7.4318 -3.1932 -0.008 -0.926 0.376 231 231 229 0 0
0.5375 10.5122 -1.4865 -0.714 -0.662 0.227 166 120 97 0 0
0.5484 10.4994 -1.4897 -0.714 -0.662 0.227 158 110 88 0 0
0.7214 10.2987 -1.5404 -0.342 -0.887 0.309 194 146 126 0 0
0.7879 10.2293 -1.5594 -0.666 -0.558 0.496 164 115 93 0 0
1.0048 10.0283 -1.6196 -0.687 -0.574 0.446 182 136 117 0 0
1.3854 9.7275 -1.7217 -0.177 -0.688 0.704 164 116 101 0 0
1.4307 9.6847 -1.7344 -0.413 -0.571 0.710 174 126 110 0 0
1.7493 9.4232 -1.8205 -0.614 -0.444 0.653 163 105 84 0 0
1.7586 9.4086 -1.8235 -0.680 -0.343 0.648 168 115 93 0 0
1.8557 9.3363 -1.8493 -0.208 -0.600 0.772 173 118 97 0 0
1.9896 9.2367 -1.8848 -0.454 -0.673 0.584 185 129 109 0 0
2.3854 8.8953 -1.9929 -0.310 -0.486 0.817 160 109 88 0 0
2.4052 8.8696 -1.9989 -0.320 -0.727 0.607 192 133 112 0 0
2.4835 8.7944 -2.0208 -0.171 -0.623 0.763 183 136 117 0 0
3.4413 9.0535 -2.2102 0.351 -0.892 0.283 108 66 50 0 0
3.4681 9.0624 -2.2154 0.166 -0.944 0.287 111 69 53 0 0
3.5136 9.0970 -2.2229 0.341 -0.918 -0.202 125 82 66 0 0
3.5458 9.1130 -2.2288 0.345 -0.840 -0.418 107 63 47 0 0
3.5593 9.1031 -2.2324 0.288 -0.572 -0.768 108 67 49 0 0
3.6132 9.1485 -2.2410 0.365 -0.652 -0.665 113 72 54 0 0
3.7304 9.2511 -2.2594 0.422 -0.819 -0.389 109 68 50 0 0
3.7858 9.2975 -2.2683 0.507 -0.846 -0.165 118 77 59 0 0
2.6578 7.7447 -2.1284 -0.423 -0.686 0.593 107 65 49 0 0
2.6699 7.7371 -2.1315 -0.331 -0.755 0.566 115 73 57 0 0
2.6820 7.7295 -2.1347 -0.331 -0.755 0.566 109 72 52 0 0
2.7076 7.7400 -2.1395 -0.797 -0.209 0.567 179 148 122 0 0
2.7046 7.7122 -2.1407 -0.856 0.078 0.512 216 187 157 0 0
2.7752 7.5240 -2.1685 -0.331 -0.849 0.412 231 210 181 0 0
2.9458 7.3980 -2.2137 -0.367 -0.651 0.664 232 213 186 0 0
2.9607 7.3938 -2.2172 -0.206 -0.757 0.620 232 212 185 0 0
2.9710 7.3840 -2.2200 -0.125 -0.808 0.576 233 213 186 0 0
3.0503 7.3023 -2.2426 -0.433 -0.766 0.476 232 215 187 0 0
3.0832 7.2973 -2.2500 -0.183 -0.852 0.490 233 213 186 0 0
3.1007 7.2960 -2.2539 -0.180 -0.774 0.607 232 215 187 0 0
3.1073 7.2819 -2.2563 -0.355 -0.739 0.573 233 216 188 0 0
3.1642 7.2611 -2.2699 -0.409 -0.908 0.092 231 211 184 0 0
3.1850 7.2633 -2.2743 -0.196 -0.927 0.321 236 217 190 0 0
3.1938 7.2518 -2.2769 -0.576 -0.802 0.159 235 218 190 0 0
3.2075 7.2459 -2.2803 -0.505 -0.804 0.313 233 216 188 0 0
3.2191 7.2374 -2.2833 -0.505 -0.804 0.313 230 213 184 0 0
3.4663 7.0646 -2.3482 -0.287 -0.861 0.420 234 214 187 0 0
3.4758 7.0539 -2.3510 -0.605 -0.448 0.658 230 212 184 0 0
3.6010 6.9374 -2.3857 -0.159 -0.639 0.752 227 208 178 0 0
4.2627 6.3543 -2.5674 0.058 -0.984 0.170 229 212 184 0 0
4.5006 6.1330 -2.6335 -0.463 -0.512 0.723 227 207 180 0 0
4.5083 6.1212 -2.6359 -0.439 -0.530 0.725 229 209 182 0 0
4.5136 6.1077 -2.6379 -0.716 -0.366 0.595 230 210 183 0 0
4.5350 6.1068 -2.6426 -0.877 -0.199 0.437 229 209 182 0 0
4.5401 6.0931 -2.6446 -0.430 -0.560 0.708 229 209 182 0 0
4.5574 6.0713 -2.6498 -0.530 -0.567 0.631 230 211 184 0 0
0.4138 10.6491 -1.4668 -0.782 -0.624 -0.008 175 139 130 0 0
0.5237 10.5258 -1.4987 -0.733 -0.607 0.306 172 122 100 0 0
0.5335 10.5099 -1.5019 -0.664 -0.713 0.226 164 115 92 0 0
0.7267 10.2805 -1.5588 -0.719 -0.690 -0.087 196 148 128 0 0
0.8999 10.0862 -1.6090 -0.410 -0.730 0.548 171 124 106 0 0
1.0289 9.9801 -1.6439 -0.255 -0.601 0.757 188 143 127 0 0
1.0874 9.9314 -1.6598 -0.300 -0.671 0.677 174 129 111 0 0
1.1958 9.8138 -1.6910 -0.370 -0.634 0.680 196 152 136 0 0
1.5920 9.5146 -1.7965 -0.208 -0.570 0.795 167 116 97 0 0
1.6914 9.4478 -1.8224 -0.482 -0.782 0.396 194 140 120 0 0
2.1956 9.0261 -1.9593 -0.395 -0.647 0.653 184 135 112 0 0
2.2074 9.0164 -1.9625 -0.332 -0.651 0.683 190 141 119 0 0
2.2166 9.0023 -1.9654 -0.386 -0.524 0.759 201 154 130 0 0
2.3920 8.8543 -2.0131 -0.283 -0.593 0.754 195 137 114 0 0
2.5533 8.7405 -2.0555 -0.300 -0.866 0.400 190 139 120 0 0
3.4440 9.0632 -2.2275 0.318 -0.929 -0.191 104 62 46 0 0
3.4757 9.0788 -2.2333 -0.030 -0.945 -0.325 115 73 57 0 0
3.5153 9.1053 -2.2402 0.333 -0.896 -0.293 124 81 65 0 0
3.5478 9.1216 -2.2462 0.264 -0.799 -0.540 120 75 59 0 0
3.5760 9.1320 -2.2516 0.470 -0.727 -0.501 124 82 64 0 0
3.6380 9.1884 -2.2613 0.487 -0.729 -0.481 109 68 50 0 0
3.6867 9.2264 -2.2694 0.476 -0.753 -0.454 120 79 61 0 0
3.7322 9.2597 -2.2771 0.399 -0.788 -0.469 108 67 50 0 0
3.7676 9.2788 -2.2835 0.406 -0.816 -0.412 115 73 57 0 0
2.6683 7.7639 -2.1444 -0.799 -0.374 0.470 113 71 54 0 0
2.6743 7.7481 -2.1467 -0.799 -0.374 0.470 110 68 52 0 0
2.6829 7.7358 -2.1494 -0.802 -0.397 0.446 108 70 50 0 0
2.7063 7.7432 -2.1540 -0.551 -0.690 0.470 147 115 90 0 0
2.6714 7.6023 -2.1556 -0.374 -0.585 0.719 227 204 170 0 0
2.7684 7.5201 -2.1820 -0.331 -0.849 0.412 228 207 178 0 0
2.7673 7.4958 -2.1834 -0.373 -0.824 0.426 226 207 177 0 0
2.7795 7.4886 -2.1865 -0.373 -0.824 0.426 227 209 180 0 0
2.7918 7.4815 -2.1896 -0.265 -0.685 0.679 231 214 186 0 0
2.9357 7.3903 -2.2268 -0.367 -0.651 0.664 235 218 190 0 0
2.9509 7.3864 -2.2303 -0.278 -0.664 0.694 235 215 189 0 0
2.9625 7.3784 -2.2334 -0.278 -0.664 0.694 232 212 187 0 0
3.0187 7.3131 -2.2498 -0.257 -0.943 0.211 233 216 188 0 0
3.0443 7.2997 -2.2563 -0.420 -0.782 0.462 234 217 189 0 0
3.0766 7.2940 -2.2636 -0.303 -0.734 0.608 236 218 191 0 0
3.1379 7.2568 -2.2794 -0.311 -0.890 0.334 231 211 184 0 0
3.2652 7.1653 -2.3129 -0.414 -0.496 0.763 234 214 187 0 0
3.4905 6.9908 -2.3732 -0.148 -0.675 0.723 232 215 187 0 0
3.5871 6.9273 -2.3983 -0.096 -0.680 0.727 229 210 180 0 0
3.8942 6.6333 -2.4841 -0.607 -0.337 0.720 235 216 190 0 0
4.1344 6.4517 -2.5481 -0.048 -0.886 0.461 231 214 186 0 0
4.1762 6.4134 -2.5596 -0.463 -0.569 0.680 232 214 186 0 0
4.1853 6.4027 -2.5623 -0.463 -0.569 0.680 230 213 185 0 0
4.1946 6.3921 -2.5650 -0.834 -0.424 0.352 232 215 189 0 0
4.1876 6.3675 -2.5651 -0.848 -0.334 0.411 233 216 190 0 0
4.2062 6.3651 -2.5693 -0.198 -0.944 0.265 233 216 190 0 0
4.2560 6.3523 -2.5809 -0.197 -0.923 0.331 229 212 184 0 0
4.4948 6.1141 -2.6483 -0.531 -0.418 0.737 228 208 181 0 0
4.5011 6.1013 -2.6505 -0.435 -0.578 0.691 230 210 183 0 0
4.5209 6.0992 -2.6549 -0.628 -0.452 0.634 229 209 182 0 0
4.6083 5.9740 -2.6821 -0.337 -0.613 0.714 229 212 185 0 0
4.6189 5.9647 -2.6850 -0.337 -0.613 0.714 230 213 188 0 0
4.6524 5.9208 -2.6951 -0.241 -0.603 0.760 230 210 183 0 0
4.9943 5.8277 -2.7753 0.353 -0.865 0.358 226 225 223 0 0
7.4724 7.5376 -3.2006 -0.357 -0.758 -0.545 226 226 224 0 0
0.7026 10.3075 -1.5678 -0.668 -0.737 0.101 186 138 119 0 0
0.9885 10.0043 -1.6495 -0.398 -0.562 0.725 198 147 127 0 0
1.2075 9.7751 -1.7120 -0.475 -0.504 0.721 195 150 134 0 0
1.4646 9.5976 -1.7794 -0.780 -0.419 0.465 179 133 118 0 0
1.4725 9.5798 -1.7822 -0.889 -0.237 0.393 164 118 103 0 0
1.6858 9.4436 -1.8374 -0.482 -0.782 0.396 184 131 110 0 0
2.2126 9.0017 -1.9806 -0.666 -0.405 0.626 180 125 103 0 0
2.2281 8.9687 -1.9861 -0.596 -0.519 0.613 197 141 119 0 0
2.2377 8.9553 -1.9890 -0.766 -0.330 0.552 182 127 104 0 0
2.2428 8.9343 -1.9915 -0.402 -0.801 0.444 190 134 114 0 0
2.8556 8.7027 -2.1398 0.107 -0.939 0.327 113 85 67 0 0
2.8737 8.7018 -2.1438 0.082 -0.952 0.295 127 101 84 0 0
2.8980 8.7098 -2.1486 0.244 -0.968 -0.063 128 87 73 0 0
3.4432 9.0680 -2.2444 0.165 -0.919 -0.358 115 74 57 0 0
3.4875 9.1011 -2.2519 0.181 -0.894 -0.409 111 70 54 0 0
3.5201 9.1179 -2.2579 0.334 -0.722 -0.606 113 71 55 0 0
3.5640 9.1500 -2.2654 0.343 -0.766 -0.544 121 77 61 0 0
3.6467 9.2065 -2.2798 0.487 -0.729 -0.481 115 74 56 0 0
3.6944 9.2429 -2.2878 0.461 -0.736 -0.495 106 66 47 0 0
3.7299 9.2625 -2.2943 0.410 -0.810 -0.419 106 65 49 0 0
3.7633 9.2790 -2.3005 0.411 -0.764 -0.496 118 77 61 0 0
2.6672 7.7674 -2.1589 -0.888 -0.311 0.340 116 75 57 0 0
2.6766 7.7323 -2.1632 -0.741 -0.572 0.352 105 67 48 0 0
2.8150 7.8938 -2.1829 0.147 -0.725 -0.673 146 114 88 0 0
2.6607 7.5931 -2.1686 -0.374 -0.585 0.719 227 203 169 0 0
2.7580 7.4887 -2.1965 -0.240 -0.741 0.627 230 211 181 0 0
2.7708 7.4822 -2.1997 -0.188 -0.757 0.626 226 209 179 0 0
2.7812 7.4727 -2.2026 -0.265 -0.685 0.679 229 211 183 0 0
2.7931 7.4651 -2.2057 -0.265 -0.685 0.679 230 212 184 0 0
2.8743 7.4087 -2.2270 -0.294 -0.615 0.732 233 213 186 0 0
2.9365 7.3735 -2.2428 -0.473 -0.548 0.690 233 214 188 0 0
2.9564 7.3533 -2.2485 -0.386 -0.597 0.703 231 211 185 0 0
2.9886 7.3258 -2.2572 -0.285 -0.826 0.487 231 214 186 0 0
3.0129 7.3108 -2.2635 -0.228 -0.936 0.268 228 210 182 0 0
3.0256 7.3040 -2.2667 -0.185 -0.936 0.301 231 213 185 0 0
3.0369 7.2955 -2.2697 -0.467 -0.756 0.458 232 214 187 0 0
3.0520 7.2914 -2.2732 -0.302 -0.885 0.353 230 212 185 0 0
3.2942 7.1170 -2.3372 -0.497 -0.401 0.770 234 214 187 0 0
3.5582 6.9221 -2.4072 -0.082 -0.651 0.755 230 212 183 0 0
3.6678 6.8315 -2.4369 -0.534 -0.561 0.633 234 214 185 0 0
3.7156 6.7990 -2.4494 -0.166 -0.772 0.614 230 213 184 0 0
3.7253 6.7887 -2.4522 -0.225 -0.674 0.703 232 213 185 0 0
4.1019 6.4642 -2.5550 -0.104 -0.760 0.641 232 212 184 0 0
4.1100 6.4527 -2.5576 -0.137 -0.726 0.674 233 215 187 0 0
4.1979 6.3617 -2.5826 -0.397 -0.780 0.484 233 216 190 0 0
4.2374 6.3402 -2.5925 -0.166 -0.601 0.782 233 216 188 0 0
4.2500 6.3325 -2.5958 -0.166 -0.601 0.782 228 212 183 0 0
4.4094 6.1921 -2.6395 -0.395 -0.650 0.649 227 210 182 0 0
4.4187 6.1817 -2.6422 -0.420 -0.547 0.724 228 211 184 0 0
4.4271 6.1527 -2.6459 -0.143 -0.842 0.520 230 211 184 0 0
4.5658 5.9971 -2.6861 -0.548 -0.594 0.589 231 213 186 0 0
4.5833 5.9757 -2.6913 -0.485 -0.691 0.535 231 213 186 0 0
4.6027 5.9558 -2.6968 -0.249 -0.769 0.589 228 209 184 0 0
4.6329 5.9268 -2.7052 -0.137 -0.771 0.622 230 212 185 0 0
4.9840 5.8238 -2.7883 0.313 -0.873 0.374 226 226 224 0 0
0.4114 10.8537 -1.4857 -0.955 0.052 -0.290 242 242 240 0 0
0.4074 10.7927 -1.4887 -0.984 -0.086 -0.153 241 241 239 0 0
0.6118 10.4045 -1.5579 -0.648 -0.647 0.401 185 130 107 0 0
0.8515 10.0982 -1.6296 -0.482 -0.802 0.352 188 139 119 0 0
0.8851 10.0655 -1.6390 -0.716 -0.551 0.428 165 117 99 0 0
1.2057 9.7423 -1.7296 -0.375 -0.648 0.663 175 127 110 0 0
1.4648 9.5709 -1.7971 -0.542 -0.509 0.668 193 147 131 0 0
1.6299 9.4381 -1.8415 -0.074 -0.738 0.671 173 121 99 0 0
2.1415 9.0052 -1.9808 -0.091 -0.747 0.658 184 132 113 0 0
2.1548 8.9984 -1.9841 -0.027 -0.754 0.656 181 126 106 0 0
2.2256 8.9410 -2.0032 -0.622 -0.468 0.628 187 131 108 0 0
2.2418 8.9095 -2.0088 -0.443 -0.706 0.553 181 127 108 0 0
2.2535 8.8997 -2.0119 -0.443 -0.706 0.553 188 137 119 0 0
2.2669 8.8929 -2.0153 -0.258 -0.814 0.519 194 146 128 0 0
2.2787 8.8833 -2.0185 -0.313 -0.778 0.544 152 106 85 0 0
2.8643 8.6937 -2.1586 0.187 -0.908 0.374 117 81 65 0 0
3.4436 9.0745 -2.2614 0.231 -0.724 -0.650 118 77 59 0 0
3.5246 9.1301 -2.2756 0.397 -0.725 -0.563 115 73 56 0 0
3.5597 9.1501 -2.2821 0.382 -0.729 -0.568 113 71 55 0 0
3.6074 9.1871 -2.2901 0.451 -0.722 -0.525 115 76 59 0 0
3.6556 9.2246 -2.2983 0.487 -0.729 -0.481 120 81 62 0 0
3.7030 9.2607 -2.3064 0.474 -0.760 -0.446 113 74 55 0 0
3.7329 9.2726 -2.3122 0.444 -0.821 -0.359 109 70 53 0 0
3.7719 9.2967 -2.3192 0.444 -0.821 -0.359 108 69 52 0 0
2.6598 7.7385 -2.1740 -0.901 -0.366 0.234 101 59 43 0 0
2.6689 7.7270 -2.1768 -0.514 -0.833 0.204 107 70 50 0 0
2.8236 7.9106 -2.1990 0.147 -0.725 -0.673 134 101 75 0 0
2.7639 7.4781 -2.2132 -0.381 -0.700 0.604 228 209 179 0 0
2.7750 7.4696 -2.2162 -0.537 -0.574 0.618 229 210 180 0 0
2.7828 7.4567 -2.2187 -0.714 -0.451 0.536 228 208 180 0 0
2.8627 7.3990 -2.2398 -0.294 -0.615 0.732 229 209 182 0 0
2.8791 7.3969 -2.2435 -0.608 -0.475 0.637 229 210 183 0 0
3.0165 7.2977 -2.2799 -0.136 -0.880 0.455 232 212 185 0 0
3.2827 7.1086 -2.3500 -0.191 -0.680 0.708 237 217 190 0 0
3.3063 7.0925 -2.3562 -0.307 -0.597 0.742 234 215 184 0 0
3.4210 6.9874 -2.3879 -0.296 -0.609 0.736 230 213 185 0 0
