ply
format ascii 1.0
element vertex 827
property float x
property float y
property float z
property float nx
property float ny
property float nz
property uchar diffuse_red
property uchar diffuse_green
property uchar diffuse_blue
property uchar class
property uchar detection
end_header
2.3058 8.6569 -2.1709 -0.131 -0.784 0.607 193 145 125 0 0
2.7147 8.6546 -2.2052 0.111 -0.917 0.383 163 110 88 0 0
2.8322 8.6963 -2.2166 0.286 -0.952 -0.111 108 60 45 0 0
2.8919 8.7600 -2.2241 -0.145 -0.785 -0.602 111 65 50 0 0
2.9098 8.7620 -2.2256 -0.134 -0.889 -0.438 114 69 53 0 0
2.9254 8.7581 -2.2268 0.013 -0.947 -0.322 115 71 55 0 0
3.0444 8.8368 -2.2398 0.260 -0.922 -0.288 109 63 48 0 0
3.0634 8.8406 -2.2415 0.043 -0.910 -0.413 110 62 48 0 0
3.0863 8.8534 -2.2439 0.375 -0.870 -0.321 102 54 40 0 0
2.6772 7.6596 -2.1649 -0.307 -0.530 0.791 220 199 169 0 0
2.7025 7.5753 -2.1639 -0.574 -0.464 0.674 225 203 171 0 0
2.8865 7.4666 -2.1753 -0.217 -0.652 0.726 225 206 176 0 0
2.9790 7.4630 -2.1829 -0.240 -0.593 0.769 229 210 180 0 0
3.1481 7.3868 -2.1943 -0.157 -0.732 0.663 227 207 180 0 0
3.2576 7.3190 -2.2010 -0.248 -0.687 0.683 232 212 183 0 0
3.2688 7.3096 -2.2016 -0.159 -0.701 0.695 232 212 183 0 0
3.2854 7.3106 -2.2031 -0.071 -0.788 0.612 231 211 181 0 0
3.4059 7.2632 -2.2114 -0.551 -0.391 0.737 230 209 180 0 0
3.6722 7.1524 -2.2297 -0.487 -0.613 0.622 227 207 180 0 0
3.6855 7.1468 -2.2306 -0.252 -0.706 0.662 230 209 182 0 0
3.6952 7.1350 -2.2310 -0.398 -0.631 0.666 231 210 183 0 0
4.0604 6.9361 -2.2543 -0.715 -0.660 -0.229 232 213 183 0 0
4.2074 6.8478 -2.2634 -0.371 -0.521 0.769 231 208 180 0 0
4.3305 6.8004 -2.2720 -0.472 -0.542 0.695 230 210 183 0 0
4.4014 6.7525 -2.2762 -0.191 -0.847 0.495 232 212 182 0 0
4.4138 6.7454 -2.2770 -0.171 -0.740 0.650 231 212 182 0 0
4.5296 6.6394 -2.2828 -0.326 -0.662 0.675 230 211 181 0 0
4.7295 6.5291 -2.2955 -0.334 -0.670 0.663 230 211 184 0 0
4.8206 6.4631 -2.3007 -0.275 -0.890 0.365 229 210 184 0 0
4.8841 6.4524 -2.3056 -0.152 -0.802 0.578 230 210 184 0 0
4.9598 6.4120 -2.3105 -0.704 -0.385 0.597 230 213 187 0 0
5.2498 6.2566 -2.3291 0.147 -0.831 0.537 227 206 179 0 0
5.2772 6.2666 -2.3318 -0.005 -0.886 0.464 222 202 173 0 0
5.3196 6.2095 -2.3332 -0.971 -0.200 0.130 136 138 138 0 0
7.1366 8.2071 -2.5608 0.091 -0.706 -0.702 137 137 139 0 0
7.1655 8.1859 -2.5625 -0.960 0.146 -0.238 134 134 136 0 0
7.4091 8.1080 -2.5801 -0.027 -0.286 -0.958 138 138 138 0 0
7.4112 8.0843 -2.5794 0.078 -0.380 -0.922 139 140 140 0 0
7.4558 8.0796 -2.5829 0.248 -0.548 -0.799 143 143 145 0 0
7.6012 8.1544 -2.5980 0.613 -0.775 -0.155 149 150 148 0 0
7.7964 8.3052 -2.6200 0.587 -0.800 -0.124 154 155 153 0 0
8.0756 8.2498 -2.6415 -0.019 -0.742 0.670 189 189 188 0 0
8.0992 8.2475 -2.6434 -0.019 -0.742 0.670 192 192 190 0 0
8.1705 8.2925 -2.6511 -0.703 -0.026 0.711 194 194 192 0 0
8.6535 7.8247 -2.6743 0.367 -0.698 0.615 233 233 231 0 0
0.5681 11.1321 -2.1345 -0.900 -0.198 -0.389 241 241 237 0 0
1.0636 9.5023 -2.1135 -0.757 -0.654 0.005 193 146 130 0 0
1.3038 9.2684 -2.1249 -0.381 -0.908 0.173 163 107 84 0 0
1.4853 9.0665 -2.1325 -0.365 -0.592 0.718 198 145 125 0 0
1.4989 9.0596 -2.1334 -0.579 -0.479 0.660 193 140 120 0 0
2.1072 8.7341 -2.1724 -0.120 -0.709 0.695 169 116 95 0 0
2.2435 8.6650 -2.1813 -0.028 -0.983 -0.182 185 135 116 0 0
2.2601 8.6667 -2.1828 0.060 -0.963 -0.262 164 114 95 0 0
2.2737 8.6595 -2.1837 -0.184 -0.967 -0.177 168 117 98 0 0
2.2874 8.6526 -2.1846 -0.436 -0.885 0.165 184 133 113 0 0
2.3016 8.6474 -2.1856 -0.206 -0.976 0.074 158 107 88 0 0
2.3173 8.6462 -2.1869 -0.678 -0.719 0.152 175 124 105 0 0
2.8319 8.6980 -2.2326 0.286 -0.952 -0.111 119 72 56 0 0
2.8665 8.7419 -2.2372 0.255 -0.963 0.087 121 74 58 0 0
2.8952 8.7707 -2.2408 -0.151 -0.792 -0.591 115 70 54 0 0
2.9121 8.7700 -2.2422 0.157 -0.874 -0.459 109 66 50 0 0
3.0694 8.8573 -2.2589 -0.075 -0.660 -0.747 113 66 51 0 0
3.0876 8.8590 -2.2605 0.055 -0.706 -0.706 114 67 52 0 0
2.6697 7.6444 -2.1780 -0.307 -0.530 0.791 225 204 173 0 0
2.7215 7.5502 -2.1788 -0.312 -0.592 0.743 228 207 179 0 0
2.8874 7.4370 -2.1885 -0.126 -0.864 0.487 228 209 179 0 0
2.9061 7.4436 -2.1903 -0.332 -0.818 0.470 227 207 178 0 0
2.9190 7.4379 -2.1912 -0.332 -0.818 0.470 227 207 177 0 0
2.9851 7.4447 -2.1971 -0.162 -0.667 0.727 227 207 180 0 0
3.3429 7.2683 -2.2206 -0.279 -0.615 0.738 229 210 180 0 0
3.3978 7.2499 -2.2246 -0.551 -0.391 0.737 230 210 180 0 0
3.6773 7.1344 -2.2439 -0.543 -0.549 0.635 234 214 187 0 0
4.0153 6.9468 -2.2653 -0.120 -0.778 0.616 235 215 186 0 0
4.0412 6.9343 -2.2670 -0.400 -0.561 0.725 230 210 183 0 0
4.0577 6.9334 -2.2684 -0.357 -0.534 0.767 227 207 179 0 0
4.0762 6.9096 -2.2690 -0.543 -0.695 -0.471 232 212 185 0 0
4.0814 6.8915 -2.2688 -0.005 -0.924 0.383 231 211 184 0 0
4.1004 6.8944 -2.2705 0.330 -0.919 0.218 226 206 179 0 0
4.3604 6.7452 -2.2868 -0.128 -0.897 0.424 226 209 181 0 0
4.3818 6.7508 -2.2888 -0.330 -0.846 0.419 229 209 181 0 0
4.5729 6.6042 -2.2994 -0.221 -0.729 0.648 227 207 180 0 0
4.5784 6.5881 -2.2992 -0.448 -0.889 0.099 230 210 183 0 0
4.6026 6.5733 -2.3007 -0.672 -0.654 0.348 229 209 182 0 0
4.6293 6.5852 -2.3035 -0.396 -0.610 0.687 230 211 182 0 0
4.7072 6.5247 -2.3077 -0.213 -0.771 0.600 228 209 181 0 0
4.7214 6.5200 -2.3088 -0.334 -0.670 0.663 228 208 181 0 0
4.7343 6.5138 -2.3096 -0.527 -0.590 0.612 229 209 182 0 0
4.8022 6.4638 -2.3134 -0.360 -0.690 0.628 227 207 180 0 0
5.0273 6.3196 -2.3270 -0.060 -0.733 0.678 229 209 182 0 0
5.0686 6.3038 -2.3299 -0.185 -0.616 0.766 228 209 183 0 0
5.1943 6.2158 -2.3371 -0.437 -0.525 0.730 229 209 181 0 0
5.2835 6.2538 -2.3462 -0.323 -0.701 0.636 222 202 171 0 0
5.2988 6.2291 -2.3465 -0.042 -0.584 0.811 175 165 152 0 0
5.3165 6.2281 -2.3480 -0.119 -0.540 0.834 146 145 140 0 0
5.3131 6.2035 -2.3468 -0.578 -0.254 0.775 142 143 143 0 0
7.1863 8.2370 -2.5846 -0.528 -0.265 -0.807 140 140 141 0 0
7.1718 8.1943 -2.5817 -0.936 0.174 -0.305 138 138 140 0 0
7.1850 8.1823 -2.5824 -0.912 0.020 -0.411 136 137 138 0 0
7.3306 8.2354 -2.5968 -0.181 -0.214 -0.960 135 136 140 0 0
7.3223 8.1471 -2.5927 -0.238 -0.223 -0.945 136 137 138 0 0
7.3359 8.1356 -2.5934 -0.238 -0.223 -0.945 138 139 138 0 0
7.4243 8.1779 -2.6026 0.137 -0.467 -0.873 139 139 138 0 0
7.4476 8.1765 -2.6045 0.318 -0.591 -0.741 141 140 139 0 0
7.5396 8.2481 -2.6151 0.353 -0.621 -0.700 142 141 140 0 0
7.6147 8.3014 -2.6235 0.379 -0.613 -0.693 143 143 142 0 0
7.6231 8.2310 -2.6215 0.272 -0.531 -0.802 149 149 151 0 0
7.4486 7.9709 -2.5966 0.567 -0.739 -0.364 153 154 154 0 0
8.2069 8.2781 -2.6729 0.023 -0.555 0.831 198 198 196 0 0
8.6646 8.2311 -2.7100 0.603 -0.753 0.264 223 223 223 0 0
8.5686 7.7977 -2.6850 -0.568 -0.253 0.783 232 232 230 0 0
0.7929 10.3428 -2.1397 -0.874 -0.401 -0.276 185 134 113 0 0
1.2200 9.3070 -2.1348 -0.450 -0.810 0.375 167 112 91 0 0
1.4053 9.1176 -2.1430 -0.633 -0.685 0.361 160 108 91 0 0
1.4188 9.1103 -2.1439 -0.146 -0.945 0.291 150 96 77 0 0
1.4808 9.0518 -2.1469 -0.365 -0.592 0.718 198 143 123 0 0
2.1026 8.7226 -2.1870 -0.183 -0.752 0.633 165 110 89 0 0
2.1308 8.7117 -2.1889 -0.361 -0.662 0.657 173 125 105 0 0
2.2436 8.6678 -2.1969 -0.028 -0.983 -0.182 172 123 105 0 0
2.2738 8.6623 -2.1992 -0.184 -0.967 -0.177 193 142 122 0 0
2.2889 8.6597 -2.2004 -0.184 -0.967 -0.177 178 127 106 0 0
2.3040 8.6570 -2.2016 -0.184 -0.967 -0.177 187 135 116 0 0
2.3157 8.6444 -2.2021 -0.678 -0.719 0.152 169 117 98 0 0
2.3347 8.6527 -2.2041 -0.160 -0.987 0.009 163 113 93 0 0
2.3473 8.6427 -2.2047 -0.250 -0.968 0.035 165 114 93 0 0
2.7955 8.6939 -2.2452 0.254 -0.857 -0.449 122 74 57 0 0
2.8616 8.7320 -2.2524 0.369 -0.869 -0.330 113 68 50 0 0
2.9143 8.7779 -2.2587 0.078 -0.927 -0.366 102 58 41 0 0
3.0565 8.8707 -2.2746 0.055 -0.706 -0.706 101 54 39 0 0
3.0757 8.8747 -2.2765 0.037 -0.721 -0.691 110 64 48 0 0
3.1008 8.8927 -2.2793 0.283 -0.629 -0.724 104 58 42 0 0
2.6336 7.5625 -2.1860 -0.666 -0.497 0.556 222 202 170 0 0
2.6433 7.5494 -2.1863 -0.383 -0.617 0.687 217 193 159 0 0
2.8099 7.4732 -2.1975 -0.660 -0.328 0.675 228 208 181 0 0
2.8832 7.4300 -2.2020 -0.126 -0.864 0.487 230 210 180 0 0
2.9426 7.4234 -2.2069 -0.091 -0.831 0.549 227 207 179 0 0
2.9602 7.3945 -2.2072 -0.420 -0.569 0.707 227 207 180 0 0
3.4835 7.2001 -2.2442 0.130 -0.846 0.517 231 211 186 0 0
3.5027 7.1760 -2.2449 -0.118 -0.673 0.730 232 212 185 0 0
3.5747 7.1297 -2.2492 -0.006 -0.958 0.286 230 211 181 0 0
3.6620 7.1097 -2.2559 0.118 -0.788 0.604 231 211 184 0 0
3.9984 6.9219 -2.2772 0.211 -0.842 0.496 232 213 185 0 0
4.0609 6.9137 -2.2822 -0.441 -0.505 0.742 231 211 182 0 0
4.0727 6.9057 -2.2829 -0.364 -0.605 0.708 229 210 180 0 0
4.0909 6.8815 -2.2835 -0.182 -0.708 0.683 227 207 180 0 0
4.1778 6.8323 -2.2890 -0.640 -0.721 0.264 228 208 181 0 0
4.5653 6.5953 -2.3127 -0.141 -0.805 0.577 230 210 183 0 0
4.6632 6.5381 -2.3188 -0.184 -0.670 0.720 228 209 179 0 0
4.7260 6.5044 -2.3228 -0.401 -0.613 0.681 230 210 183 0 0
5.0642 6.2783 -2.3427 -0.503 -0.476 0.721 225 208 182 0 0
5.1036 6.2604 -2.3454 -0.092 -0.906 0.414 228 208 181 0 0
5.2612 6.2089 -2.3568 0.133 -0.736 0.664 214 195 167 0 0
5.2837 6.2133 -2.3589 -0.336 -0.444 0.831 196 183 164 0 0
5.3013 6.2123 -2.3604 -0.119 -0.540 0.834 153 150 142 0 0
5.3014 6.1916 -2.3596 -0.630 -0.200 0.751 146 146 146 0 0
7.3468 8.1751 -2.6144 -0.038 -0.333 -0.942 140 140 141 0 0
7.5802 8.2400 -2.6370 0.208 -0.518 -0.830 146 147 148 0 0
7.6378 8.2743 -2.6433 0.212 -0.502 -0.838 147 148 148 0 0
7.8338 8.3206 -2.6620 0.450 -0.882 -0.139 160 161 160 0 0
7.9729 8.4112 -2.6775 0.493 -0.868 -0.062 165 165 164 0 0
8.0486 8.4623 -2.6861 0.460 -0.883 -0.091 167 167 165 0 0
0.6763 10.7427 -2.1628 -0.834 -0.549 -0.055 174 123 103 0 0
1.2170 9.2970 -2.1496 -0.480 -0.871 0.105 159 108 86 0 0
1.4374 9.0651 -2.1591 -0.751 -0.655 0.088 191 132 110 0 0
1.6304 8.9222 -2.1698 -0.216 -0.708 0.672 194 144 123 0 0
1.8367 8.8307 -2.1838 -0.287 -0.562 0.776 170 113 94 0 0
1.8505 8.8249 -2.1848 -0.394 -0.649 0.651 176 119 99 0 0
1.8638 8.8171 -2.1856 -0.472 -0.597 0.649 177 121 98 0 0
2.0826 8.7123 -2.2002 -0.104 -0.777 0.621 166 110 87 0 0
2.0976 8.7098 -2.2014 -0.052 -0.820 0.570 166 111 90 0 0
2.1260 8.6999 -2.2034 -0.361 -0.662 0.657 178 127 108 0 0
2.2730 8.6629 -2.2146 -0.326 -0.943 0.070 184 136 115 0 0
2.2828 8.6445 -2.2147 -0.394 -0.864 0.313 169 117 96 0 0
2.2967 8.6385 -2.2156 -0.448 -0.884 0.132 182 129 110 0 0
2.3142 8.6426 -2.2173 -0.678 -0.719 0.152 167 115 96 0 0
2.4364 8.6227 -2.2271 -0.531 -0.806 0.261 165 113 92 0 0
2.5654 8.6183 -2.2380 -0.297 -0.767 0.569 167 116 96 0 0
2.7779 8.6945 -2.2596 0.286 -0.879 -0.382 127 77 60 0 0
2.7975 8.7013 -2.2615 0.249 -0.842 -0.479 114 65 48 0 0
2.8181 8.7107 -2.2637 0.278 -0.839 -0.468 115 68 50 0 0
2.8980 8.7824 -2.2736 0.078 -0.927 -0.366 109 64 46 0 0
2.9161 8.7846 -2.2752 0.078 -0.927 -0.366 111 65 49 0 0
2.9244 8.7629 -2.2751 0.261 -0.954 -0.150 103 57 42 0 0
3.0626 8.8877 -2.2922 0.104 -0.709 -0.698 109 63 48 0 0
3.0818 8.8918 -2.2940 -0.058 -0.619 -0.783 108 64 48 0 0
3.1051 8.9052 -2.2966 0.238 -0.594 -0.768 109 66 49 0 0
2.6193 7.5670 -2.1991 -0.666 -0.497 0.556 221 197 171 0 0
2.6290 7.5538 -2.1994 -0.666 -0.497 0.556 216 196 164 0 0
2.6376 7.5383 -2.1995 -0.383 -0.617 0.687 215 191 157 0 0
2.6659 7.5329 -2.2017 -0.337 -0.501 0.797 225 201 168 0 0
2.6885 7.5143 -2.2029 -0.165 -0.656 0.737 227 206 178 0 0
2.8556 7.4394 -2.2142 -0.152 -0.768 0.622 231 212 182 0 0
2.8945 7.4227 -2.2169 -0.278 -0.752 0.598 228 207 178 0 0
2.9072 7.4166 -2.2177 -0.214 -0.887 0.410 229 208 179 0 0
2.9423 7.3917 -2.2197 -0.577 -0.474 0.665 231 211 184 0 0
3.5554 7.1262 -2.2617 -0.136 -0.893 0.428 234 217 189 0 0
3.5684 7.1204 -2.2626 -0.257 -0.849 0.462 227 210 181 0 0
3.7669 7.0092 -2.2751 0.151 -0.770 0.620 228 211 181 0 0
4.0012 6.9278 -2.2920 -0.154 -0.811 0.565 229 210 182 0 0
4.0641 6.8939 -2.2961 -0.363 -0.582 0.727 230 210 181 0 0
4.0829 6.8708 -2.2967 -0.182 -0.708 0.683 229 208 179 0 0
4.1623 6.8361 -2.3021 -0.386 -0.897 0.215 230 210 183 0 0
4.1740 6.8281 -2.3028 -0.672 -0.570 0.473 226 206 179 0 0
4.2891 6.7452 -2.3093 -0.522 -0.568 0.637 227 207 180 0 0
4.6169 6.5481 -2.3295 -0.375 -0.716 0.588 229 210 183 0 0
4.6280 6.5396 -2.3301 -0.297 -0.639 0.709 229 210 182 0 0
4.8896 6.3742 -2.3459 -0.361 -0.796 0.486 226 209 181 0 0
5.0023 6.2923 -2.3522 -0.257 -0.688 0.678 228 208 183 0 0
5.0168 6.2880 -2.3533 -0.197 -0.804 0.560 228 208 183 0 0
5.0906 6.2465 -2.3579 -0.386 -0.727 0.568 229 209 182 0 0
5.1045 6.2414 -2.3589 0.039 -0.934 0.355 227 207 180 0 0
5.1194 6.2374 -2.3600 -0.137 -0.907 0.399 231 210 183 0 0
5.2663 6.1950 -2.3710 0.015 -0.693 0.721 205 190 167 0 0
5.2819 6.1917 -2.3722 0.130 -0.743 0.657 161 156 144 0 0
5.3022 6.1936 -2.3740 0.130 -0.743 0.657 152 150 151 0 0
5.3218 6.1946 -2.3758 0.168 -0.749 0.641 150 150 150 0 0
7.4155 8.3847 -2.6476 0.074 -0.788 0.611 147 147 147 0 0
7.5487 8.3674 -2.6584 -0.974 -0.213 -0.076 144 145 146 0 0
7.5515 8.3436 -2.6576 -0.902 -0.431 0.002 146 146 147 0 0
8.6885 8.2309 -2.7512 0.603 -0.715 0.354 225 225 223 0 0
8.3459 7.6701 -2.6984 -0.854 -0.406 -0.327 231 231 231 0 0
0.6895 10.7285 -2.1805 -0.781 -0.485 -0.394 179 129 108 0 0
1.1508 9.3465 -2.1615 -0.555 -0.805 0.210 198 154 134 0 0
1.1637 9.3358 -2.1622 -0.567 -0.775 0.278 179 131 111 0 0
1.4229 9.0716 -2.1734 -0.575 -0.815 -0.078 188 129 105 0 0
2.4342 8.6192 -2.2422 -0.531 -0.806 0.261 158 106 85 0 0
2.4822 8.6170 -2.2463 -0.142 -0.864 0.484 161 105 85 0 0
2.8691 8.7555 -2.2860 0.360 -0.706 -0.610 116 69 52 0 0
2.9394 8.8022 -2.2941 0.222 -0.788 -0.574 111 66 50 0 0
3.0660 8.8983 -2.3093 0.277 -0.816 -0.506 116 70 55 0 0
3.1131 8.9266 -2.3146 0.295 -0.643 -0.707 112 66 51 0 0
2.5644 7.5837 -2.2092 0.219 -0.822 0.525 116 71 56 0 0
2.5805 7.5856 -2.2107 0.199 -0.802 0.563 105 62 46 0 0
2.6223 7.5402 -2.2124 -0.497 -0.467 0.731 219 197 167 0 0
2.6711 7.5117 -2.2154 -0.279 -0.556 0.783 224 202 171 0 0
2.7088 7.4928 -2.2179 -0.044 -0.772 0.634 231 212 183 0 0
2.8895 7.4140 -2.2303 -0.215 -0.673 0.708 228 207 178 0 0
2.9269 7.3941 -2.2327 -0.504 -0.484 0.715 231 211 184 0 0
2.9380 7.3846 -2.2332 -0.353 -0.541 0.763 231 211 184 0 0
3.0947 7.2878 -2.2428 -0.256 -0.746 0.615 228 209 180 0 0
3.1213 7.2780 -2.2447 0.076 -0.839 0.539 227 208 179 0 0
3.2743 7.2354 -2.2562 -0.197 -0.978 0.066 232 213 187 0 0
3.2901 7.2348 -2.2575 -0.431 -0.847 -0.311 229 209 182 0 0
3.5506 7.1195 -2.2753 -0.190 -0.702 0.686 229 211 182 0 0
3.8001 6.9834 -2.2912 -0.369 -0.703 0.609 228 209 182 0 0
4.0750 6.8602 -2.3099 -0.487 -0.629 0.606 228 207 177 0 0
4.0984 6.8442 -2.3112 -0.233 -0.646 0.727 231 211 182 0 0
4.1680 6.8206 -2.3163 -0.541 -0.642 0.543 228 207 179 0 0
4.3878 6.6417 -2.3278 -0.472 -0.577 0.667 228 209 181 0 0
4.6995 6.4958 -2.3487 -0.178 -0.953 0.245 227 207 180 0 0
4.7104 6.4869 -2.3493 -0.431 -0.758 0.490 228 209 182 0 0
4.7439 6.4615 -2.3511 -0.308 -0.537 0.786 226 209 182 0 0
4.7570 6.4556 -2.3520 -0.313 -0.739 0.597 229 212 185 0 0
4.7637 6.4415 -2.3520 -0.427 -0.639 0.640 230 212 185 0 0
4.7748 6.4330 -2.3526 -0.404 -0.582 0.705 230 210 183 0 0
4.7923 6.4326 -2.3541 -0.306 -0.702 0.644 228 208 180 0 0
4.7994 6.4191 -2.3542 -0.328 -0.733 0.596 231 211 184 0 0
5.0131 6.2849 -2.3670 -0.283 -0.790 0.545 228 210 184 0 0
5.0267 6.2794 -2.3680 -0.283 -0.790 0.545 229 210 184 0 0
5.0484 6.2622 -2.3691 -0.527 -0.488 0.696 228 208 182 0 0
5.0575 6.2515 -2.3695 -0.472 -0.557 0.683 228 208 183 0 0
5.0709 6.2460 -2.3704 -0.570 -0.444 0.692 228 208 183 0 0
5.0883 6.2450 -2.3719 -0.387 -0.805 0.449 227 207 181 0 0
5.2503 6.1783 -2.3831 0.086 -0.718 0.691 217 198 172 0 0
5.2694 6.1789 -2.3848 0.086 -0.718 0.691 179 169 154 0 0
5.2859 6.1766 -2.3862 0.004 -0.665 0.747 158 155 152 0 0
5.3078 6.1803 -2.3882 0.086 -0.718 0.691 154 154 153 0 0
7.3755 8.3424 -2.6612 0.019 -0.979 -0.205 149 150 150 0 0
7.7208 8.3647 -2.6922 0.324 -0.918 -0.226 154 154 154 0 0
7.7718 8.3651 -2.6967 -0.168 -0.816 -0.553 157 158 158 0 0
7.8044 8.3725 -2.6998 -0.339 -0.650 -0.680 159 159 159 0 0
7.8419 8.3850 -2.7037 -0.254 -0.611 -0.750 159 159 159 0 0
8.0399 7.7214 -2.6925 -0.184 -0.682 0.708 218 218 217 0 0
8.0785 7.7338 -2.6964 -0.051 -0.916 0.397 221 221 221 0 0
8.5667 8.1436 -2.7565 0.628 -0.778 0.012 223 223 223 0 0
8.2678 7.8391 -2.7174 -0.385 -0.702 0.599 225 225 223 0 0
8.2604 7.8079 -2.7154 -0.202 -0.919 0.339 225 225 222 0 0
8.2863 7.8078 -2.7177 0.085 -0.853 0.516 226 226 224 0 0
8.3401 7.7374 -2.7193 -0.870 -0.421 -0.256 229 229 229 0 0
0.5739 11.3368 -2.2143 -0.920 -0.132 -0.368 242 241 238 0 0
0.9241 10.0140 -2.1866 -0.816 -0.498 -0.293 177 129 109 0 0
1.0133 9.7360 -2.1822 -0.858 -0.339 -0.385 194 146 130 0 0
1.1635 9.3389 -2.1778 -0.723 -0.679 0.125 197 149 131 0 0
1.1764 9.3283 -2.1785 -0.722 -0.651 0.235 198 151 133 0 0
1.2252 9.2730 -2.1803 -0.477 -0.827 0.299 178 128 107 0 0
1.3605 9.1324 -2.1860 -0.488 -0.737 0.468 170 115 95 0 0
1.3740 9.1251 -2.1869 -0.476 -0.879 0.011 111 56 38 0 0
1.4113 9.0902 -2.1886 -0.634 -0.746 0.205 152 95 74 0 0
1.6243 8.9061 -2.1992 -0.225 -0.888 0.402 198 148 129 0 0
1.7040 8.8601 -2.2041 -0.246 -0.563 0.789 177 123 104 0 0
2.3666 8.6136 -2.2515 -0.432 -0.872 0.229 156 104 82 0 0
2.4321 8.6160 -2.2574 -0.478 -0.841 0.253 153 101 79 0 0
2.8707 8.7618 -2.3024 0.205 -0.753 -0.625 108 62 46 0 0
3.0883 8.9121 -2.3282 0.305 -0.931 -0.199 110 64 49 0 0
3.1165 8.9373 -2.3318 0.497 -0.800 -0.335 110 64 49 0 0
2.5721 7.5678 -2.2233 0.138 -0.754 0.643 110 66 50 0 0
2.6218 7.5768 -2.2281 -0.404 -0.520 0.752 220 200 172 0 0
3.3470 7.1927 -2.2749 -0.367 -0.640 0.675 225 206 176 0 0
3.7438 6.9742 -2.3001 -0.033 -0.998 -0.054 230 210 182 0 0
3.7686 6.9878 -2.3029 -0.808 -0.443 0.388 228 209 178 0 0
3.7838 6.9854 -2.3041 -0.245 -0.767 0.593 227 207 178 0 0
3.7885 6.9661 -2.3037 -0.673 -0.563 0.480 228 209 181 0 0
4.8185 6.3773 -2.3682 -0.623 -0.639 0.451 226 209 181 0 0
4.8420 6.3843 -2.3706 -0.692 -0.534 0.486 227 211 183 0 0
5.0272 6.2598 -2.3814 -0.172 -0.804 0.570 230 211 184 0 0
5.2367 6.1642 -2.3956 0.107 -0.714 0.691 214 193 164 0 0
5.2722 6.1625 -2.3986 0.004 -0.665 0.747 164 159 154 0 0
5.2893 6.1608 -2.4000 0.022 -0.639 0.769 157 157 156 0 0
7.3778 8.3465 -2.6803 0.019 -0.979 -0.205 155 155 155 0 0
7.4054 8.3497 -2.6829 0.249 -0.889 0.383 154 154 154 0 0
7.4779 8.3746 -2.6904 -0.345 -0.917 0.198 152 152 152 0 0
7.4961 8.3675 -2.6917 -0.345 -0.917 0.198 152 152 152 0 0
7.7784 8.3734 -2.7168 0.081 -0.890 -0.448 160 160 160 0 0
7.8140 8.3841 -2.7204 -0.281 -0.686 -0.671 162 162 162 0 0
7.8535 8.3986 -2.7245 -0.152 -0.704 -0.694 162 162 162 0 0
7.8946 8.3615 -2.7264 -0.528 -0.816 -0.235 167 167 167 0 0
7.9074 8.3217 -2.7258 -0.598 -0.772 -0.216 170 170 170 0 0
7.9065 8.2945 -2.7245 -0.346 -0.916 -0.202 173 173 173 0 0
7.7450 8.0522 -2.6996 0.505 -0.862 0.042 181 181 181 0 0
8.0012 8.1824 -2.7279 0.275 -0.919 0.283 189 189 188 0 0
8.0364 8.1919 -2.7314 0.275 -0.919 0.283 192 192 192 0 0
8.1014 8.2309 -2.7388 -0.497 -0.656 0.568 194 194 194 0 0
8.0729 8.1512 -2.7328 -0.226 -0.828 0.513 197 197 197 0 0
8.1289 8.1810 -2.7391 -0.248 -0.636 0.731 199 199 199 0 0
8.0309 7.7142 -2.7098 -0.022 -0.717 0.697 218 218 218 0 0
8.2396 7.8140 -2.7326 -0.063 -0.699 0.712 224 224 223 0 0
8.2581 7.8070 -2.7339 -0.468 -0.728 0.500 225 225 223 0 0
8.2657 7.7900 -2.7338 -0.234 -0.701 0.674 226 226 224 0 0
8.5296 7.8157 -2.7581 -0.875 -0.426 -0.231 231 231 230 0 0
1.0151 9.7504 -2.1989 -0.858 -0.339 -0.385 198 148 132 0 0
1.3720 9.1204 -2.2019 -0.514 -0.829 0.218 146 88 70 0 0
1.4049 9.0672 -2.2024 -0.722 -0.675 0.148 137 79 60 0 0
1.4909 8.9841 -2.2062 -0.293 -0.851 0.437 172 117 93 0 0
1.5918 8.9022 -2.2114 -0.350 -0.735 0.581 192 145 127 0 0
1.6487 8.8861 -2.2157 -0.219 -0.787 0.577 188 137 116 0 0
1.8702 8.7426 -2.2288 -0.370 -0.579 0.726 172 124 102 0 0
2.3393 8.5845 -2.2632 -0.526 -0.851 -0.003 160 108 86 0 0
2.8058 8.7296 -2.3112 0.071 -0.870 -0.489 106 60 44 0 0
2.8937 8.7790 -2.3212 0.461 -0.837 -0.294 102 58 42 0 0
2.9135 8.7855 -2.3233 0.329 -0.866 -0.377 99 54 39 0 0
2.9422 8.8136 -2.3271 -0.013 -0.787 -0.617 103 57 42 0 0
2.9614 8.8185 -2.3290 0.617 -0.776 -0.131 102 56 41 0 0
2.6709 7.4456 -2.2407 -0.508 -0.582 0.634 227 206 177 0 0
3.0831 7.2683 -2.2691 -0.121 -0.943 0.311 229 209 180 0 0
3.5289 7.0846 -2.3003 -0.348 -0.556 0.755 229 208 179 0 0
3.6416 7.0532 -2.3088 -0.400 -0.618 0.677 232 212 184 0 0
3.6626 7.0330 -2.3098 -0.551 -0.538 0.638 230 211 182 0 0
3.7508 6.9873 -2.3155 -0.514 -0.855 0.065 230 211 183 0 0
3.7647 6.9830 -2.3166 -0.808 -0.443 0.388 230 211 180 0 0
3.9483 6.8761 -2.3280 -0.163 -0.773 0.613 228 208 178 0 0
4.5201 6.5401 -2.3634 -0.169 -0.703 0.691 229 209 182 0 0
4.8003 6.3560 -2.3798 -0.507 -0.600 0.619 228 211 183 0 0
4.8291 6.3476 -2.3820 -0.153 -0.790 0.593 228 211 183 0 0
4.8453 6.3455 -2.3833 0.017 -0.823 0.568 229 211 183 0 0
4.9264 6.3132 -2.3890 -0.606 -0.629 0.487 227 209 180 0 0
4.9766 6.2654 -2.3913 -0.283 -0.615 0.736 228 211 185 0 0
5.2215 6.1482 -2.4077 0.148 -0.764 0.628 209 188 158 0 0
5.2423 6.1509 -2.4096 0.095 -0.757 0.646 202 188 166 0 0
5.2616 6.1518 -2.4114 0.095 -0.757 0.646 171 166 156 0 0
5.2809 6.1527 -2.4132 0.095 -0.757 0.646 162 162 159 0 0
7.3833 8.3540 -2.7000 -0.026 -0.995 -0.096 157 156 157 0 0
7.8382 8.4645 -2.7453 -0.153 -0.423 -0.893 161 161 161 0 0
7.8422 8.3617 -2.7410 -0.121 -0.433 -0.893 167 167 167 0 0
7.9156 8.3846 -2.7486 -0.433 -0.644 -0.631 170 170 170 0 0
7.8939 8.3357 -2.7444 -0.652 -0.639 -0.408 171 171 171 0 0
7.9069 8.3227 -2.7450 -0.652 -0.639 -0.408 173 173 173 0 0
7.9152 8.3049 -2.7449 -0.763 -0.584 -0.278 176 176 176 0 0
7.9740 8.1567 -2.7434 0.266 -0.894 0.360 190 190 189 0 0
8.0085 8.1655 -2.7468 0.194 -0.950 0.247 192 192 192 0 0
8.0065 8.1379 -2.7454 -0.599 -0.360 0.715 194 194 194 0 0
8.0520 8.1320 -2.7491 -0.588 -0.565 0.579 197 197 197 0 0
8.1093 8.1630 -2.7556 -0.150 -0.946 0.288 200 200 200 0 0
8.3007 7.6565 -2.7495 -0.967 -0.117 0.225 230 230 229 0 0
1.3311 9.1439 -2.2147 -0.582 -0.741 0.336 181 138 117 0 0
1.3560 9.1205 -2.2158 -0.379 -0.815 0.439 168 107 89 0 0
1.4715 8.9708 -2.2191 -0.510 -0.860 -0.007 170 114 91 0 0
1.4884 8.9774 -2.2209 -0.293 -0.851 0.437 149 93 71 0 0
2.9137 8.7884 -2.3395 0.124 -0.789 -0.602 108 62 48 0 0
2.9531 8.8429 -2.3456 -0.047 -0.870 -0.490 116 69 55 0 0
2.9748 8.8535 -2.3480 0.429 -0.835 0.344 113 67 52 0 0
2.9962 8.8634 -2.3504 0.344 -0.836 0.428 110 64 49 0 0
2.6443 7.4564 -2.2528 -0.594 -0.497 0.632 228 206 175 0 0
2.6545 7.4449 -2.2532 -0.446 -0.651 0.615 227 206 177 0 0
2.6643 7.4327 -2.2535 -0.476 -0.534 0.699 226 205 176 0 0
2.6770 7.4269 -2.2544 -0.497 -0.524 0.692 230 210 183 0 0
3.0563 7.2792 -2.2814 -0.314 -0.946 0.079 226 206 178 0 0
3.0697 7.2748 -2.2824 -0.278 -0.927 0.250 231 210 181 0 0
3.5709 7.0458 -2.3164 -0.161 -0.674 0.721 230 210 182 0 0
3.6278 7.0033 -2.3195 -0.334 -0.832 0.442 231 211 184 0 0
3.6414 6.9987 -2.3205 -0.269 -0.833 0.483 233 213 186 0 0
4.3061 6.6523 -2.3637 -0.157 -0.707 0.690 229 209 180 0 0
4.3781 6.5844 -2.3669 -0.285 -0.944 0.164 229 209 184 0 0
4.4409 6.5757 -2.3721 -0.051 -0.817 0.574 231 211 184 0 0
4.4947 6.5308 -2.3748 -0.189 -0.747 0.638 228 207 178 0 0
4.9035 6.2868 -2.3999 0.012 -0.923 0.386 225 206 176 0 0
7.3460 8.3685 -2.7161 -0.204 -0.904 -0.375 163 163 163 0 0
7.3970 8.3704 -2.7208 -0.045 -0.854 -0.519 162 161 162 0 0
7.6032 8.5138 -2.7460 0.549 -0.834 -0.042 160 160 160 0 0
7.4493 8.2664 -2.7206 -0.724 -0.152 0.672 160 160 160 0 0
7.6370 8.3339 -2.7405 0.526 -0.741 0.417 162 162 162 0 0
7.7707 8.4218 -2.7566 0.507 -0.810 0.293 163 163 163 0 0
7.9272 8.5054 -2.7745 -0.013 -0.372 -0.928 167 167 167 0 0
7.8768 8.3991 -2.7650 -0.461 -0.342 -0.819 169 169 167 0 0
7.9102 8.3805 -2.7671 -0.355 -0.703 -0.616 171 171 171 0 0
7.9037 8.3473 -2.7650 -0.844 -0.532 -0.058 174 174 174 0 0
7.9468 8.3124 -2.7672 -0.677 -0.734 -0.055 179 179 179 0 0
7.9545 8.2679 -2.7658 0.169 -0.822 -0.544 182 182 180 0 0
8.0570 8.2933 -2.7762 -0.621 -0.129 0.773 187 187 185 0 0
7.9695 8.1536 -2.7618 0.194 -0.950 0.247 191 191 190 0 0
8.0000 8.1584 -2.7647 0.228 -0.972 0.047 193 193 193 0 0
8.0091 8.1164 -2.7636 -0.595 -0.405 0.695 196 196 196 0 0
8.0551 8.1364 -2.7686 -0.153 -0.837 0.526 198 198 198 0 0
8.0606 8.1164 -2.7682 -0.233 -0.725 0.648 199 199 199 0 0
7.7687 7.8037 -2.7274 -0.446 -0.444 0.777 201 201 201 0 0
7.7806 7.7909 -2.7279 -0.446 -0.444 0.777 202 202 200 0 0
7.9693 7.7065 -2.7408 -0.753 -0.464 0.467 217 217 215 0 0
8.1933 7.7254 -2.7617 0.221 -0.722 0.656 226 226 224 0 0
8.2858 7.6678 -2.7673 -0.986 -0.143 -0.084 228 228 226 0 0
8.3504 7.6794 -2.7736 -0.887 -0.320 0.333 230 230 230 0 0
0.5878 11.4690 -2.2755 -0.997 -0.066 -0.033 242 240 236 0 0
0.5951 11.3939 -2.2725 -0.987 -0.101 -0.123 240 241 236 0 0
0.6854 10.8389 -2.2538 -0.867 -0.340 -0.363 182 131 110 0 0
1.3288 9.1377 -2.2296 -0.637 -0.626 0.450 175 124 105 0 0
1.3535 9.1136 -2.2306 -0.379 -0.815 0.439 168 107 89 0 0
1.3671 9.1068 -2.2315 -0.379 -0.815 0.439 167 108 89 0 0
1.4713 8.9734 -2.2345 -0.497 -0.801 0.333 161 103 83 0 0
1.7925 8.7470 -2.2525 -0.134 -0.576 0.806 198 147 127 0 0
2.7854 8.7257 -2.3410 0.193 -0.860 -0.472 106 62 47 0 0
2.9004 8.8004 -2.3550 0.329 -0.830 -0.450 111 67 52 0 0
2.9592 8.8603 -2.3632 -0.228 -0.635 -0.738 112 64 51 0 0
2.9748 8.8561 -2.3644 -0.228 -0.635 -0.738 103 55 42 0 0
2.9905 8.8519 -2.3656 -0.228 -0.635 -0.738 112 66 51 0 0
3.0059 8.8471 -2.3667 -0.046 -0.658 -0.751 104 58 43 0 0
3.1066 7.2248 -2.2974 -0.100 -0.726 0.681 228 207 179 0 0
3.1244 7.2289 -2.2992 -0.298 -0.886 0.357 226 206 178 0 0
3.1351 7.2191 -2.2997 -0.203 -0.826 0.525 230 210 182 0 0
3.4982 7.0625 -2.3248 -0.079 -0.674 0.734 231 212 181 0 0
3.6093 7.0013 -2.3319 -0.485 -0.690 0.537 230 210 183 0 0
3.6207 6.9929 -2.3325 -0.485 -0.690 0.537 230 210 184 0 0
3.6350 6.9894 -2.3336 -0.249 -0.810 0.531 233 213 186 0 0
3.9170 6.8563 -2.3526 -0.143 -0.794 0.590 232 211 182 0 0
4.1116 6.7678 -2.3659 -0.486 -0.531 0.694 231 210 181 0 0
4.1229 6.7594 -2.3665 -0.306 -0.737 0.602 228 207 178 0 0
4.2995 6.6443 -2.3769 -0.173 -0.708 0.684 230 211 181 0 0
4.3645 6.5908 -2.3801 -0.264 -0.965 -0.007 229 209 182 0 0
4.3773 6.5847 -2.3810 -0.438 -0.898 -0.052 233 213 188 0 0
4.3899 6.5783 -2.3818 -0.497 -0.824 0.272 228 211 185 0 0
4.4203 6.5725 -2.3843 -0.085 -0.854 0.513 228 210 184 0 0
4.4337 6.5672 -2.3852 -0.079 -0.864 0.496 227 207 180 0 0
4.5366 6.4951 -2.3910 -0.233 -0.673 0.702 229 209 182 0 0
4.6584 6.4253 -2.3987 -0.739 -0.522 0.427 228 208 181 0 0
4.6650 6.4112 -2.3986 -0.770 -0.413 0.487 227 207 180 0 0
5.2571 6.1080 -2.4373 -0.354 -0.504 0.788 167 167 167 0 0
7.4080 8.4384 -2.7439 -0.042 -0.996 0.079 167 167 165 0 0
7.6759 8.3499 -2.7638 0.456 -0.677 0.578 166 166 166 0 0
7.8502 8.4801 -2.7858 -0.182 -0.709 -0.682 167 167 167 0 0
7.8669 8.4707 -2.7868 -0.302 -0.460 -0.835 168 168 168 0 0
7.9111 8.4631 -2.7905 -0.693 -0.090 -0.716 169 169 167 0 0
7.9148 8.4401 -2.7897 -0.701 -0.100 -0.706 171 171 169 0 0
7.9074 8.4057 -2.7874 -0.636 -0.169 -0.753 172 173 172 0 0
8.1086 8.4792 -2.8090 0.059 -0.507 -0.860 180 181 181 0 0
7.9765 8.2916 -2.7881 -0.353 -0.934 -0.059 183 183 181 0 0
8.0067 8.2700 -2.7898 -0.678 -0.532 0.507 187 187 185 0 0
7.7539 7.7905 -2.7438 -0.504 -0.621 0.601 202 202 202 0 0
7.7670 7.7789 -2.7444 -0.380 -0.578 0.722 203 203 201 0 0
7.7813 7.7685 -2.7452 -0.380 -0.578 0.722 204 204 202 0 0
8.1142 8.0691 -2.7897 -0.107 -0.994 -0.017 206 206 204 0 0
8.1376 8.0666 -2.7917 -0.107 -0.994 -0.017 207 207 205 0 0
8.1980 8.0749 -2.7976 0.101 -0.984 0.146 210 210 208 0 0
8.0871 7.8933 -2.7788 0.158 -0.971 -0.178 213 213 211 0 0
8.1929 7.7263 -2.7803 0.360 -0.769 0.528 226 226 226 0 0
8.3607 7.7376 -2.7959 -0.920 -0.317 0.230 228 228 226 0 0
0.6024 11.4584 -2.2943 -0.940 -0.072 -0.333 240 241 235 0 0
1.7314 8.7510 -2.2623 -0.242 -0.641 0.728 215 169 147 0 0
1.8552 8.7011 -2.2711 -0.301 -0.762 0.573 197 152 134 0 0
1.8681 8.6926 -2.2719 -0.315 -0.636 0.704 190 142 122 0 0
2.1288 8.5804 -2.2900 -0.397 -0.896 0.196 140 90 70 0 0
2.1435 8.5773 -2.2911 -0.043 -0.970 0.238 162 111 91 0 0
2.1577 8.5726 -2.2922 -0.159 -0.979 0.126 164 112 91 0 0
2.7879 8.7344 -2.3575 0.239 -0.799 -0.552 96 51 37 0 0
2.9030 8.8093 -2.3717 0.405 -0.840 -0.361 110 65 50 0 0
2.9395 8.8568 -2.3774 0.234 -0.893 -0.385 105 59 45 0 0
2.9575 8.8586 -2.3791 0.057 -0.880 -0.472 106 60 46 0 0
2.9758 8.8608 -2.3809 0.057 -0.880 -0.472 105 59 44 0 0
2.9935 8.8616 -2.3826 -0.168 -0.507 -0.845 117 70 56 0 0
3.0407 8.8914 -2.3883 0.499 -0.827 -0.260 106 63 47 0 0
3.1193 7.2207 -2.3124 -0.251 -0.781 0.572 229 209 182 0 0
3.5449 7.0322 -2.3417 -0.217 -0.718 0.662 228 208 181 0 0
3.5537 7.0192 -2.3419 -0.028 -0.903 0.429 228 209 180 0 0
3.5922 7.0016 -2.3445 -0.272 -0.762 0.588 226 206 178 0 0
3.5997 6.9866 -2.3444 -0.192 -0.905 0.378 227 207 181 0 0
3.6144 6.9838 -2.3456 -0.328 -0.588 0.739 227 209 183 0 0
4.3449 6.5889 -2.3924 -0.067 -0.998 0.016 230 211 182 0 0
4.3607 6.5869 -2.3938 -0.267 -0.964 -0.017 229 209 181 0 0
4.3774 6.5862 -2.3952 -0.564 -0.742 -0.363 229 210 184 0 0
4.3911 6.5575 -2.3950 -0.958 -0.282 0.045 229 211 185 0 0
4.6346 6.4185 -2.4103 -0.336 -0.816 0.470 230 210 183 0 0
4.7117 6.3598 -2.4144 -0.273 -0.764 0.585 237 220 192 0 0
4.7252 6.3546 -2.4153 -0.503 -0.791 0.348 232 214 186 0 0
4.9145 6.2808 -2.4289 0.141 -0.953 0.269 229 209 182 0 0
4.9520 6.2397 -2.4302 -0.305 -0.697 0.649 229 209 182 0 0
5.2338 6.0833 -2.4481 -0.465 -0.269 0.844 170 170 169 0 0
7.7066 8.3571 -2.7860 0.445 -0.692 0.568 168 169 168 0 0
7.8893 8.4956 -2.8095 -0.224 -0.464 -0.857 170 170 169 0 0
8.0009 8.5855 -2.8241 -0.844 0.003 -0.536 172 172 170 0 0
7.9292 8.4297 -2.8098 -0.470 -0.278 -0.838 175 176 174 0 0
7.9296 8.4035 -2.8085 -0.281 -0.727 -0.627 176 178 176 0 0
8.0158 8.3068 -2.8116 -0.685 -0.661 -0.306 186 186 185 0 0
7.9978 8.2625 -2.8077 -0.756 -0.471 0.455 188 188 186 0 0
8.0084 8.2471 -2.8079 -0.724 -0.432 0.538 190 190 188 0 0
8.0010 8.1880 -2.8043 -0.730 -0.665 0.158 192 192 192 0 0
7.7585 7.8209 -2.7640 -0.545 -0.484 0.684 201 201 201 0 0
7.7381 7.7763 -2.7599 -0.348 -0.604 0.717 203 203 203 0 0
7.7531 7.7666 -2.7608 -0.348 -0.604 0.717 205 205 203 0 0
7.7679 7.7567 -2.7617 -0.380 -0.578 0.722 205 205 203 0 0
8.1032 8.0095 -2.8047 0.103 -0.773 0.626 209 209 207 0 0
8.1736 8.0527 -2.8133 0.405 -0.910 -0.093 210 210 208 0 0
8.0703 7.8786 -2.7952 0.015 -0.990 0.141 214 214 213 0 0
8.0960 7.8787 -2.7976 0.015 -0.990 0.141 215 215 213 0 0
8.1615 7.7223 -2.7958 0.406 -0.842 0.354 225 225 224 0 0
8.1630 7.6998 -2.7948 0.402 -0.780 0.480 227 227 226 0 0
8.2355 7.7432 -2.8035 -0.052 -0.800 0.597 227 227 227 0 0
8.2722 7.7533 -2.8074 0.131 -0.790 0.598 227 227 225 0 0
8.3082 7.6673 -2.8064 -0.993 -0.115 -0.030 229 229 227 0 0
8.2945 7.6312 -2.8033 -0.994 -0.075 0.075 230 230 228 0 0
0.6066 11.4985 -2.3148 -0.940 -0.072 -0.333 239 240 235 0 0
1.4671 8.9636 -2.2641 -0.497 -0.801 0.333 169 117 98 0 0
1.7405 8.7325 -2.2774 -0.293 -0.576 0.763 190 143 124 0 0
2.0252 8.6015 -2.2968 -0.025 -0.879 0.476 175 122 101 0 0
2.0405 8.6004 -2.2981 -0.025 -0.879 0.476 184 130 110 0 0
2.1281 8.5811 -2.3052 -0.326 -0.937 0.127 158 109 91 0 0
2.1431 8.5789 -2.3064 -0.158 -0.981 0.109 158 108 89 0 0
2.1562 8.5709 -2.3072 -0.371 -0.928 0.032 174 122 103 0 0
2.7737 8.7436 -2.3726 0.176 -0.841 -0.511 106 61 46 0 0
2.7920 8.7473 -2.3745 0.239 -0.799 -0.552 106 60 46 0 0
2.8867 8.8138 -2.3866 0.174 -0.853 -0.492 110 62 48 0 0
2.9054 8.8175 -2.3885 0.344 -0.838 -0.423 102 56 42 0 0
2.9417 8.8646 -2.3942 0.234 -0.893 -0.385 108 64 49 0 0
2.9659 8.8815 -2.3973 -0.080 -0.586 -0.806 98 56 39 0 0
2.9842 8.8838 -2.3991 0.069 -0.597 -0.799 101 58 42 0 0
3.0028 8.8867 -2.4009 0.017 -0.512 -0.859 103 59 45 0 0
3.0477 8.9108 -2.4063 0.344 -0.684 -0.643 112 67 52 0 0
2.6903 7.3941 -2.2960 -0.488 -0.669 0.561 228 208 179 0 0
3.0109 7.2563 -2.3184 -0.123 -0.912 0.391 228 208 182 0 0
3.0852 7.2172 -2.3232 -0.266 -0.574 0.774 229 210 180 0 0
3.1097 7.2037 -2.3247 -0.197 -0.754 0.627 230 210 183 0 0
3.1241 7.2011 -2.3259 -0.116 -0.772 0.625 228 208 181 0 0
3.1336 7.1888 -2.3262 -0.366 -0.638 0.677 226 207 178 0 0
3.1456 7.1815 -2.3269 -0.427 -0.606 0.670 226 207 177 0 0
3.5864 6.9932 -2.3577 -0.233 -0.864 0.446 226 207 178 0 0
3.5954 6.9807 -2.3579 -0.217 -0.874 0.435 227 207 180 0 0
3.7696 6.8623 -2.3678 0.001 -0.948 0.319 231 211 182 0 0
3.8100 6.8742 -2.3721 -0.014 -0.700 0.714 228 208 180 0 0
3.9447 6.7983 -2.3805 -0.618 -0.505 0.603 228 208 178 0 0
3.9623 6.7997 -2.3822 -0.435 -0.718 0.542 228 207 178 0 0
3.9744 6.7926 -2.3830 -0.348 -0.669 0.657 230 209 180 0 0
3.9850 6.7831 -2.3835 -0.398 -0.719 0.569 227 206 177 0 0
4.0000 6.7805 -2.3847 0.004 -0.902 0.432 227 206 177 0 0
4.1365 6.6576 -2.3909 0.026 -0.950 0.311 228 208 181 0 0
4.4701 6.5017 -2.4136 -0.314 -0.681 0.661 230 210 183 0 0
5.1826 6.0887 -2.4578 -0.032 -0.658 0.753 212 195 167 0 0
5.2215 6.0707 -2.4604 -0.484 -0.273 0.832 174 174 171 0 0
7.5728 8.5127 -2.8007 -0.056 -0.831 -0.553 169 169 170 0 0
8.0123 8.4905 -2.8399 0.212 -0.474 -0.855 179 179 175 0 0
7.9702 8.2882 -2.8257 -0.519 -0.676 -0.524 186 186 186 0 0
8.0065 8.2989 -2.8295 -0.534 -0.829 -0.167 187 187 186 0 0
7.9907 8.2567 -2.8259 -0.723 -0.422 0.548 188 188 186 0 0
7.6523 7.7908 -2.7711 0.426 -0.803 0.416 196 196 196 0 0
8.1012 7.6912 -2.8072 0.402 -0.856 0.324 224 224 224 0 0
8.1464 7.7096 -2.8122 0.407 -0.864 0.296 225 225 225 0 0
8.2428 7.7274 -2.8220 -0.070 -0.694 0.716 227 227 225 0 0
8.1915 7.5621 -2.8088 -0.957 -0.220 0.187 229 229 227 0 0
0.5979 11.4387 -2.3289 -0.837 -0.133 -0.532 241 240 236 0 0
1.4162 9.0062 -2.2769 -0.588 -0.804 0.087 176 120 99 0 0
1.4385 8.9738 -2.2772 -0.512 -0.669 0.538 184 136 116 0 0
1.7227 8.7268 -2.2905 -0.285 -0.715 0.638 175 123 104 0 0
1.7360 8.7196 -2.2914 -0.329 -0.723 0.608 192 141 122 0 0
2.7554 8.7425 -2.3868 0.113 -0.867 -0.485 117 71 55 0 0
2.7973 8.7631 -2.3917 0.265 -0.781 -0.566 106 59 45 0 0
2.8194 8.7759 -2.3945 0.444 -0.786 -0.429 107 59 45 0 0
2.9062 8.8220 -2.4049 0.456 -0.833 -0.315 106 60 45 0 0
2.9451 8.8754 -2.4113 0.248 -0.790 -0.560 107 61 46 0 0
2.9746 8.9055 -2.4156 -0.080 -0.586 -0.806 107 63 45 0 0
2.9918 8.9049 -2.4172 -0.235 -0.637 -0.734 106 62 46 0 0
3.0065 8.8981 -2.4182 -0.155 -0.615 -0.773 111 65 50 0 0
3.0290 8.9104 -2.4209 0.083 -0.702 -0.708 107 61 46 0 0
2.5769 7.4840 -2.3043 -0.592 -0.601 0.537 227 204 175 0 0
2.5967 7.4596 -2.3048 -0.600 -0.604 0.525 218 195 163 0 0
3.1195 7.1937 -2.3392 -0.023 -0.877 0.479 230 210 183 0 0
3.5077 6.9988 -2.3648 -0.254 -0.580 0.774 228 208 181 0 0
3.5206 6.9933 -2.3657 -0.241 -0.651 0.720 228 208 181 0 0
3.5840 6.9628 -2.3700 -0.315 -0.607 0.729 229 209 182 0 0
3.6604 6.9269 -2.3751 -0.267 -0.526 0.807 228 211 181 0 0
3.7475 6.8813 -2.3808 -0.216 -0.772 0.598 231 210 181 0 0
3.7861 6.8638 -2.3834 0.155 -0.981 0.120 232 212 184 0 0
3.8070 6.8708 -2.3857 0.099 -0.897 0.432 230 210 182 0 0
3.8242 6.8719 -2.3874 0.099 -0.897 0.432 230 211 181 0 0
3.9368 6.7876 -2.3934 -0.661 -0.527 0.534 231 210 182 0 0
4.1110 6.6710 -2.4034 -0.262 -0.909 0.324 228 208 181 0 0
4.1173 6.6555 -2.4031 0.179 -0.959 0.219 227 207 180 0 0
4.1389 6.6625 -2.4055 -0.334 -0.905 0.264 227 208 178 0 0
4.2084 6.6404 -2.4107 -0.272 -0.704 0.656 226 206 179 0 0
4.3270 6.5666 -2.4178 -0.274 -0.645 0.713 230 210 183 0 0
4.5627 6.4186 -2.4318 -0.213 -0.640 0.738 228 210 185 0 0
4.6277 6.3896 -2.4363 -0.588 -0.462 0.664 229 209 182 0 0
4.6620 6.3662 -2.4383 -0.517 -0.541 0.663 231 211 185 0 0
4.7168 6.3243 -2.4411 -0.545 -0.528 0.651 231 211 181 0 0
4.7207 6.2852 -2.4394 -0.646 -0.663 0.379 231 210 183 0 0
4.7326 6.2782 -2.4402 -0.617 -0.714 0.332 229 209 182 0 0
4.9208 6.1838 -2.4526 -0.151 -0.988 0.036 227 207 178 0 0
5.1681 6.0735 -2.4697 0.081 -0.686 0.723 210 192 164 0 0
5.1875 6.0748 -2.4715 0.050 -0.671 0.740 204 190 169 0 0
5.2082 6.0572 -2.4725 -0.484 -0.273 0.832 177 176 172 0 0
5.2492 6.0822 -2.4776 0.112 -0.684 0.721 175 174 172 0 0
7.4739 8.2722 -2.7981 -0.064 -0.903 0.425 173 173 173 0 0
7.5002 8.2209 -2.7979 -0.726 -0.680 -0.100 173 173 173 0 0
7.5153 8.2107 -2.7987 -0.739 -0.602 -0.303 173 173 173 0 0
8.4549 8.8377 -2.9184 0.187 -0.430 -0.883 186 186 185 0 0
8.4898 8.8455 -2.9221 0.169 -0.399 -0.901 187 187 186 0 0
7.9577 8.1474 -2.8363 -0.833 0.017 0.552 195 195 195 0 0
8.1155 7.9247 -2.8392 0.541 -0.822 -0.177 215 215 215 0 0
9.0859 8.6672 -2.9678 -0.705 -0.212 -0.677 223 223 222 0 0
8.1321 7.6976 -2.8288 0.320 -0.947 0.035 225 225 223 0 0
8.1792 7.7176 -2.8342 0.355 -0.928 -0.118 226 226 224 0 0
2.2141 8.5607 -2.3425 -0.191 -0.981 0.017 162 110 88 0 0
2.5605 8.6275 -2.3783 -0.110 -0.959 -0.261 124 77 58 0 0
2.7393 8.7470 -2.4014 0.342 -0.831 -0.438 109 60 43 0 0
2.7801 8.7649 -2.4062 0.179 -0.796 -0.578 103 55 39 0 0
2.8013 8.7757 -2.4088 0.264 -0.778 -0.571 108 61 46 0 0
2.8224 8.7860 -2.4113 0.404 -0.763 -0.504 110 63 48 0 0
2.9108 8.8358 -2.4222 0.333 -0.840 -0.428 102 56 41 0 0
2.9993 8.9257 -2.4353 -0.115 -0.676 -0.728 103 56 41 0 0
3.0158 8.9232 -2.4367 -0.096 -0.642 -0.761 106 60 45 0 0
3.0583 8.9412 -2.4416 0.397 -0.734 -0.551 112 64 50 0 0
3.1066 8.9726 -2.4478 0.351 -0.667 -0.657 115 70 57 0 0
2.5727 7.4763 -2.3175 -0.592 -0.601 0.537 226 203 173 0 0
2.5829 7.4648 -2.3178 -0.785 -0.421 0.455 221 198 166 0 0
3.3231 7.0427 -2.3640 -0.093 -0.735 0.671 229 209 180 0 0
3.4485 7.0098 -2.3739 -0.684 -0.416 0.599 229 209 180 0 0
3.4853 6.9895 -2.3763 -0.239 -0.668 0.705 229 209 182 0 0
3.5028 6.9639 -2.3765 -0.361 -0.815 0.453 229 209 182 0 0
3.5180 6.9623 -2.3779 -0.687 -0.446 0.574 231 211 184 0 0
3.5301 6.9554 -2.3786 -0.348 -0.699 0.625 229 209 182 0 0
3.5422 6.9484 -2.3794 -0.093 -0.744 0.662 230 211 182 0 0
3.5588 6.9490 -2.3809 0.026 -0.825 0.565 228 208 180 0 0
3.7272 6.8765 -2.3927 -0.194 -0.755 0.626 233 212 183 0 0
3.7414 6.8728 -2.3939 -0.216 -0.772 0.598 230 209 180 0 0
3.7501 6.8603 -2.3940 -0.153 -0.930 0.334 231 210 181 0 0
3.7650 6.8579 -2.3952 0.017 -0.960 0.281 233 212 183 0 0
3.7812 6.8575 -2.3967 -0.041 -0.944 0.326 231 210 181 0 0
3.8017 6.8639 -2.3990 0.099 -0.897 0.432 230 210 182 0 0
3.8132 6.8558 -2.3996 -0.034 -0.825 0.564 230 211 181 0 0
3.8277 6.8261 -2.3994 -0.561 -0.420 0.713 231 211 184 0 0
4.1794 6.6488 -2.4226 -0.299 -0.815 0.497 224 205 175 0 0
4.3521 6.5316 -2.4324 0.152 -0.923 0.353 228 211 184 0 0
4.3711 6.5340 -2.4343 0.152 -0.923 0.353 230 211 184 0 0
4.3855 6.5302 -2.4354 -0.170 -0.760 0.627 228 209 181 0 0
4.4373 6.4835 -2.4377 -0.113 -0.737 0.667 228 204 176 0 0
4.5192 6.4085 -2.4413 -0.122 -0.741 0.661 228 209 183 0 0
4.5375 6.4097 -2.4431 -0.076 -0.739 0.669 228 211 185 0 0
4.5461 6.3982 -2.4433 -0.364 -0.656 0.661 230 210 185 0 0
4.5629 6.3974 -2.4448 -0.467 -0.583 0.665 229 209 184 0 0
4.6617 6.3447 -2.4511 -0.279 -0.655 0.702 232 212 187 0 0
5.1974 6.0667 -2.4861 0.129 -0.736 0.664 186 180 168 0 0
5.2119 6.0624 -2.4872 -0.035 -0.594 0.804 181 178 174 0 0
5.2342 6.0668 -2.4895 0.116 -0.678 0.726 179 178 175 0 0
7.7270 8.7399 -2.8657 -0.117 -0.259 -0.959 177 176 174 0 0
7.7736 8.7628 -2.8712 0.022 -0.326 -0.945 176 175 173 0 0
7.4976 8.3796 -2.8249 -0.728 -0.148 0.669 174 174 173 0 0
7.4787 8.3323 -2.8206 -0.742 -0.022 0.670 173 173 172 0 0
7.4851 8.2327 -2.8158 -0.453 -0.854 0.258 175 175 173 0 0
7.5015 8.2237 -2.8169 -0.453 -0.854 0.258 175 175 175 0 0
7.9355 8.1267 -2.8521 -0.804 0.012 0.595 196 196 195 0 0
8.1180 7.6856 -2.8453 0.434 -0.889 0.146 225 225 223 0 0
8.1843 7.7235 -2.8535 0.472 -0.823 -0.316 226 226 224 0 0
8.2398 7.7512 -2.8602 0.275 -0.943 0.185 227 227 225 0 0
0.9221 10.2253 -2.3283 -0.777 -0.440 -0.450 189 140 123 0 0
0.9342 10.2038 -2.3283 -0.777 -0.440 -0.450 177 128 111 0 0
0.9464 10.1823 -2.3283 -0.777 -0.440 -0.450 170 121 104 0 0
1.2728 9.1101 -2.2997 -0.880 -0.474 -0.006 183 131 110 0 0
1.9489 8.5643 -2.3330 -0.185 -0.670 0.719 175 118 100 0 0
1.9766 8.5544 -2.3351 -0.106 -0.766 0.634 182 124 105 0 0
2.3680 8.5477 -2.3715 -0.103 -0.960 0.260 182 133 111 0 0
2.7875 8.7861 -2.4240 0.275 -0.795 -0.541 114 66 51 0 0
2.8079 8.7948 -2.4264 0.275 -0.795 -0.541 110 63 47 0 0
2.8924 8.8354 -2.4366 0.435 -0.826 -0.359 103 57 42 0 0
2.9589 8.9146 -2.4472 0.426 -0.761 -0.490 103 55 40 0 0
3.0048 8.9415 -2.4530 0.239 -0.919 -0.313 108 60 46 0 0
3.0251 8.9482 -2.4553 0.319 -0.897 -0.305 104 57 44 0 0
3.0509 8.9683 -2.4588 0.420 -0.868 -0.264 100 54 39 0 0
3.0693 8.9702 -2.4606 0.296 -0.901 -0.318 110 63 48 0 0
3.1144 8.9935 -2.4662 0.324 -0.759 -0.564 110 64 51 0 0
2.6220 7.3485 -2.3291 -0.508 -0.572 0.644 228 208 178 0 0
2.8934 7.2112 -2.3470 -0.389 -0.645 0.658 227 208 181 0 0
2.9206 7.2038 -2.3491 -0.159 -0.884 0.439 229 209 182 0 0
2.9327 7.1971 -2.3499 -0.565 -0.613 0.552 225 205 178 0 0
3.0291 7.1731 -2.3576 -0.070 -0.806 0.588 226 206 179 0 0
3.3519 7.0100 -2.3789 -0.363 -0.507 0.782 228 208 181 0 0
3.3868 7.0155 -2.3825 -0.092 -0.657 0.748 232 212 184 0 0
3.4959 6.9535 -2.3893 -0.246 -0.786 0.567 229 209 182 0 0
3.5125 6.9544 -2.3909 -0.634 -0.714 0.299 227 207 180 0 0
3.7207 6.8674 -2.4057 -0.194 -0.755 0.626 229 208 179 0 0
3.7381 6.8689 -2.4074 -0.122 -0.906 0.405 229 208 179 0 0
3.8557 6.7935 -2.4143 -0.578 -0.669 0.467 230 210 182 0 0
3.8704 6.7647 -2.4141 -0.388 -0.608 0.692 233 214 184 0 0
4.0372 6.6890 -2.4255 -0.334 -0.768 0.547 227 208 178 0 0
4.0498 6.6828 -2.4264 -0.395 -0.732 0.555 225 205 178 0 0
4.0582 6.6704 -2.4265 -0.389 -0.725 0.568 226 206 179 0 0
4.0779 6.6498 -2.4272 -0.335 -0.840 0.426 232 213 185 0 0
4.1253 6.6453 -2.4314 -0.260 -0.787 0.560 231 210 181 0 0
4.1763 6.6213 -2.4349 -0.468 -0.482 0.741 228 208 179 0 0
4.4402 6.4655 -2.4510 -0.359 -0.598 0.716 229 208 180 0 0
4.4480 6.4529 -2.4511 -0.265 -0.616 0.742 230 209 181 0 0
4.5385 6.3895 -2.4561 -0.364 -0.656 0.661 227 210 184 0 0
4.7358 6.2846 -2.4688 -0.511 -0.474 0.717 232 212 185 0 0
4.9130 6.1769 -2.4795 -0.537 -0.628 0.563 228 209 180 0 0
5.1598 6.0462 -2.4954 0.110 -0.706 0.699 211 194 172 0 0
5.1853 6.0543 -2.4983 0.149 -0.765 0.627 190 182 169 0 0
5.2055 6.0564 -2.5003 0.155 -0.770 0.620 182 179 174 0 0
5.2260 6.0589 -2.5024 0.155 -0.770 0.620 180 179 175 0 0
7.4849 8.3673 -2.8420 -0.741 -0.244 0.626 179 179 177 0 0
7.4808 8.2295 -2.8340 -0.453 -0.854 0.258 178 178 176 0 0
7.5119 8.2100 -2.8358 -0.351 -0.901 0.254 178 178 176 0 0
7.4361 7.9748 -2.8157 0.240 -0.839 0.489 182 182 180 0 0
7.5750 8.0683 -2.8339 -0.056 -0.839 0.541 183 183 182 0 0
8.2245 8.0071 -2.8915 0.576 -0.812 0.091 217 217 215 0 0
8.1535 7.7201 -2.8690 0.442 -0.848 -0.293 226 226 224 0 0
1.3456 9.0374 -2.3178 -0.771 -0.626 0.117 183 131 110 0 0
1.4924 8.8971 -2.3237 -0.595 -0.677 0.433 187 131 110 0 0
1.7685 8.6294 -2.3347 -0.482 -0.622 0.617 192 135 115 0 0
1.7808 8.6193 -2.3353 -0.482 -0.622 0.617 185 128 109 0 0
1.7944 8.6138 -2.3363 -0.702 -0.545 0.458 186 132 111 0 0
1.9255 8.5414 -2.3446 -0.126 -0.900 0.418 173 122 103 0 0
1.9401 8.5388 -2.3458 -0.126 -0.900 0.418 184 130 111 0 0
1.9555 8.5390 -2.3473 0.035 -0.912 0.408 173 117 98 0 0
1.9673 8.5277 -2.3478 -0.262 -0.918 0.297 170 116 95 0 0
1.9844 8.5328 -2.3497 -0.092 -0.995 0.043 171 119 100 0 0
1.9999 8.5329 -2.3511 -0.035 -0.975 0.219 177 129 110 0 0
2.2966 8.5292 -2.3790 -0.229 -0.789 0.571 180 131 108 0 0
2.3124 8.5287 -2.3805 -0.125 -0.894 0.430 192 143 120 0 0
2.7377 8.7478 -2.4331 0.206 -0.977 0.056 113 64 47 0 0
2.8278 8.8046 -2.4449 0.317 -0.791 -0.523 114 67 51 0 0
2.8952 8.8448 -2.4535 0.361 -0.742 -0.565 104 59 44 0 0
2.9354 8.9016 -2.4605 0.250 -0.754 -0.608 101 55 43 0 0
2.9890 8.9481 -2.4682 0.374 -0.924 0.081 106 57 42 0 0
3.0055 8.9456 -2.4697 0.189 -0.982 -0.026 103 54 40 0 0
3.0241 8.9482 -2.4716 0.104 -0.994 0.016 101 53 41 0 0
3.0504 8.9696 -2.4753 0.453 -0.887 -0.085 110 63 49 0 0
3.0708 8.9763 -2.4776 0.333 -0.868 -0.368 96 50 35 0 0
3.0956 8.9935 -2.4809 0.476 -0.812 -0.338 102 56 42 0 0
3.1214 9.0127 -2.4844 0.468 -0.843 -0.266 105 59 46 0 0
2.5880 7.3414 -2.3393 -0.253 -0.656 0.711 228 206 175 0 0
2.5996 7.3337 -2.3400 0.054 -0.840 0.540 230 209 178 0 0
2.6595 7.3327 -2.3456 -0.184 -0.740 0.647 222 201 170 0 0
2.6727 7.3286 -2.3466 -0.184 -0.740 0.647 224 201 170 0 0
2.9168 7.1979 -2.3623 -0.159 -0.884 0.439 228 208 181 0 0
3.0069 7.1614 -2.3688 -0.241 -0.619 0.748 231 211 182 0 0
3.2729 7.0412 -2.3872 -0.333 -0.796 0.505 227 207 177 0 0
3.2838 7.0320 -2.3877 -0.009 -0.984 0.178 228 210 180 0 0
3.3471 7.0029 -2.3920 -0.380 -0.517 0.767 230 210 183 0 0
3.4949 6.9534 -2.4032 -0.383 -0.866 0.321 230 211 182 0 0
3.5064 6.9455 -2.4039 -0.474 -0.757 0.450 226 207 179 0 0
3.5292 6.9291 -2.4051 -0.272 -0.755 0.597 229 208 179 0 0
4.0301 6.6798 -2.4384 -0.259 -0.679 0.687 227 208 178 0 0
4.0442 6.6759 -2.4395 -0.395 -0.732 0.555 229 209 182 0 0
4.0613 6.6515 -2.4397 -0.603 -0.436 0.668 230 210 182 0 0
4.0846 6.6363 -2.4411 -0.155 -0.745 0.649 230 211 180 0 0
4.1827 6.5833 -2.4474 -0.672 -0.554 0.491 228 208 181 0 0
4.7210 6.2675 -2.4804 -0.403 -0.634 0.660 230 210 183 0 0
5.1495 6.0359 -2.5079 0.109 -0.730 0.675 211 194 171 0 0
7.4178 8.2694 -2.8490 0.055 -0.636 0.770 180 180 178 0 0
7.4526 8.2272 -2.8499 -0.854 0.021 0.521 180 181 179 0 0
7.4952 8.2200 -2.8535 -0.420 -0.907 0.038 180 180 178 0 0
7.5605 8.0546 -2.8503 0.307 -0.767 -0.563 187 187 185 0 0
7.9587 7.8515 -2.8765 0.128 -0.974 0.186 214 214 212 0 0
7.9828 7.8502 -2.8787 -0.068 -0.932 0.356 214 214 212 0 0
8.0301 7.7737 -2.8789 0.163 -0.944 0.286 220 220 218 0 0
8.1588 7.7264 -2.8884 0.346 -0.915 -0.210 226 226 224 0 0
1.4383 8.9257 -2.3354 -0.539 -0.737 0.408 175 124 103 0 0
1.7513 8.6257 -2.3478 -0.459 -0.625 0.631 190 135 113 0 0
1.7763 8.6071 -2.3492 -0.430 -0.628 0.648 176 125 103 0 0
1.8289 8.5788 -2.3525 -0.309 -0.736 0.603 196 151 132 0 0
1.9224 8.5341 -2.3589 -0.039 -0.903 0.429 156 107 90 0 0
1.9373 8.5329 -2.3602 -0.039 -0.903 0.429 180 129 110 0 0
1.9650 8.5230 -2.3623 -0.206 -0.966 0.157 172 123 103 0 0
1.9958 8.5230 -2.3652 -0.045 -0.924 -0.380 171 122 102 0 0
2.9007 8.8609 -2.4711 0.361 -0.742 -0.565 102 55 40 0 0
2.9375 8.9095 -2.4775 0.319 -0.865 -0.387 112 66 50 0 0
2.9567 8.9138 -2.4795 0.500 -0.794 -0.347 104 57 41 0 0
2.9867 8.9450 -2.4842 0.547 -0.836 0.045 106 58 44 0 0
3.0046 8.9459 -2.4860 0.189 -0.982 -0.026 106 58 46 0 0
3.0277 8.9596 -2.4890 0.261 -0.874 -0.409 104 58 44 0 0
3.0544 8.9816 -2.4928 0.330 -0.810 -0.484 106 60 45 0 0
3.0749 8.9885 -2.4951 0.355 -0.847 -0.396 112 66 53 0 0
3.0990 9.0040 -2.4983 0.321 -0.810 -0.491 113 65 52 0 0
3.1235 9.0203 -2.5016 0.393 -0.846 -0.361 106 58 44 0 0
3.1483 9.0369 -2.5049 0.524 -0.827 -0.202 112 65 50 0 0
2.8490 7.2182 -2.3709 0.066 -0.994 -0.081 226 206 179 0 0
2.8649 7.2194 -2.3725 0.066 -0.994 -0.081 229 209 184 0 0
2.8798 7.2184 -2.3739 0.001 -0.969 0.247 231 211 186 0 0
3.2655 7.0291 -2.3997 -0.132 -0.954 0.271 224 205 175 0 0
3.2777 7.0226 -2.4005 -0.104 -0.883 0.458 225 206 177 0 0
3.2915 7.0189 -2.4016 -0.330 -0.681 0.654 223 203 176 0 0
3.3394 6.9907 -2.4045 -0.385 -0.525 0.759 229 209 182 0 0
3.5354 6.9138 -2.4188 -0.308 -0.580 0.754 230 207 178 0 0
3.5474 6.9067 -2.4195 -0.186 -0.595 0.782 229 210 180 0 0
3.6258 6.8752 -2.4251 -0.554 -0.568 0.608 231 211 181 0 0
3.6714 6.8431 -2.4276 -0.011 -0.755 0.656 227 208 178 0 0
4.0265 6.6508 -2.4504 -0.655 -0.351 0.669 233 213 186 0 0
4.0905 6.6218 -2.4548 0.083 -0.894 0.440 229 208 178 0 0
4.1585 6.5984 -2.4599 -0.478 -0.513 0.712 228 208 180 0 0
4.6487 6.2878 -2.4887 -0.444 -0.529 0.723 228 208 181 0 0
4.7246 6.2513 -2.4938 -0.403 -0.634 0.660 231 211 184 0 0
4.9347 6.0999 -2.5051 -0.346 -0.618 0.706 231 211 184 0 0
4.9820 6.0719 -2.5079 -0.184 -0.608 0.772 228 209 181 0 0
5.2120 6.0456 -2.5284 0.205 -0.838 0.506 185 184 181 0 0
5.3112 6.1349 -2.5430 0.552 -0.832 -0.048 186 185 183 0 0
7.3882 8.2389 -2.8631 0.288 -0.843 0.455 185 183 182 0 0
7.4045 8.2300 -2.8641 0.002 -0.707 0.707 182 182 182 0 0
7.4231 8.2235 -2.8655 -0.083 -0.640 0.764 181 181 181 0 0
7.5687 8.2732 -2.8823 -0.503 -0.195 -0.842 183 183 181 0 0
7.5764 8.2549 -2.8820 -0.332 -0.324 -0.886 184 184 182 0 0
7.5629 8.0585 -2.8693 0.249 -0.669 -0.700 188 188 186 0 0
7.8337 8.2084 -2.9038 -0.152 -0.396 -0.906 192 192 190 0 0
7.6805 7.7764 -2.8642 -0.584 -0.799 -0.144 205 205 203 0 0
8.0168 7.8599 -2.9011 -0.178 -0.821 -0.543 215 215 213 0 0
7.9917 7.8112 -2.8959 -0.346 -0.915 0.206 216 216 214 0 0
7.9821 7.7777 -2.8930 -0.204 -0.609 0.767 218 218 216 0 0
