ply
format ascii 1.0
element vertex 818
property float x
property float y
property float z
property float nx
property float ny
property float nz
property uchar diffuse_red
property uchar diffuse_green
property uchar diffuse_blue
property uchar class
property uchar detection
end_header
5.1519 10.9644 0.1772 -0.301 -0.664 0.685 198 149 131 0 0
5.1656 10.9510 0.1702 -0.301 -0.664 0.685 198 149 132 0 0
5.2348 10.8584 0.1268 -0.414 -0.463 0.784 195 144 125 0 0
5.2400 10.8369 0.1188 -0.299 -0.557 0.775 188 140 119 0 0
5.6807 10.2511 -0.1563 -0.236 -0.540 0.808 202 154 133 0 0
5.7799 10.0826 -0.2301 -0.515 -0.472 0.716 196 146 124 0 0
5.7990 10.0733 -0.2368 -0.401 -0.579 0.710 184 132 111 0 0
5.8096 10.0570 -0.2441 -0.401 -0.579 0.710 167 115 93 0 0
5.8216 10.0420 -0.2513 -0.123 -0.840 0.528 163 112 89 0 0
6.3964 8.6176 -0.8253 -0.964 -0.129 -0.231 212 186 151 0 0
6.2028 7.9967 -0.9905 -0.797 -0.604 0.030 186 162 128 0 0
6.2180 7.7558 -1.0719 -0.909 -0.414 0.048 196 173 142 0 0
6.2684 7.7231 -1.0922 -0.797 -0.581 0.166 210 187 155 0 0
6.4794 7.2724 -1.2794 -0.890 -0.455 0.016 200 183 153 0 0
8.1068 7.0311 -1.6690 0.267 -0.953 -0.140 250 252 252 0 0
4.5278 12.1513 0.6610 -0.467 -0.176 0.866 245 246 242 0 0
4.7246 11.4613 0.3989 -0.298 -0.522 0.799 189 141 123 0 0
4.7551 11.4110 0.3767 -0.315 -0.657 0.685 194 147 129 0 0
4.8661 11.3083 0.3220 -0.315 -0.557 0.768 192 146 125 0 0
4.9287 11.2094 0.2778 -0.245 -0.572 0.783 181 133 110 0 0
4.9631 11.1631 0.2562 -0.244 -0.585 0.773 199 147 129 0 0
4.9744 11.1476 0.2490 -0.315 -0.555 0.770 186 135 114 0 0
4.9843 11.1306 0.2415 -0.356 -0.537 0.764 194 143 122 0 0
4.9797 11.0990 0.2322 -0.671 -0.370 0.643 187 139 117 0 0
5.1118 10.9889 0.1710 -0.338 -0.582 0.740 174 126 107 0 0
5.3123 10.6787 0.0316 -0.350 -0.590 0.728 194 143 122 0 0
5.4168 10.5150 -0.0417 -0.317 -0.534 0.784 211 165 146 0 0
5.4830 10.4457 -0.0769 -0.449 -0.412 0.793 194 143 122 0 0
5.4883 10.4248 -0.0848 -0.449 -0.412 0.793 179 131 112 0 0
5.4967 10.4066 -0.0923 -0.430 -0.434 0.792 201 156 137 0 0
5.7560 10.0723 -0.2508 -0.335 -0.590 0.735 193 141 119 0 0
5.9127 9.9016 -0.3364 -0.524 -0.276 0.805 199 151 131 0 0
5.9173 9.8806 -0.3441 -0.369 -0.586 0.721 204 155 136 0 0
6.7201 9.0696 -0.7620 -0.095 -0.988 0.122 253 254 251 0 0
6.7500 9.0661 -0.7690 -0.088 -0.984 0.155 252 254 250 0 0
6.3853 8.6187 -0.8441 -0.982 -0.178 0.065 192 166 131 0 0
6.2658 8.2780 -0.9317 -0.953 -0.056 0.299 201 175 140 0 0
6.2659 8.2564 -0.9388 -0.972 0.064 0.225 210 184 149 0 0
6.2613 8.2320 -0.9458 -0.987 0.050 0.150 205 180 144 0 0
6.1983 8.0017 -1.0085 -0.797 -0.604 0.030 213 189 157 0 0
6.4276 7.3520 -1.2637 -0.728 -0.653 0.211 203 186 156 0 0
6.4385 7.3378 -1.2704 -0.723 -0.691 0.021 202 185 155 0 0
6.4726 7.2760 -1.2970 -0.856 -0.467 0.220 203 185 153 0 0
6.5487 7.2558 -1.3182 -0.781 -0.596 0.185 195 178 150 0 0
7.9712 6.9793 -1.6818 0.156 -0.886 -0.436 250 252 251 0 0
8.0876 7.0093 -1.6945 0.172 -0.892 -0.419 250 252 251 0 0
5.2866 10.6649 0.0103 -0.369 -0.607 0.704 191 140 119 0 0
5.4656 10.3889 -0.1138 -0.341 -0.512 0.789 190 144 127 0 0
6.6534 9.0571 -0.7754 -0.232 -0.887 -0.399 253 253 252 0 0
6.7055 9.0686 -0.7817 -0.255 -0.951 0.177 252 253 251 0 0
6.7359 9.0654 -0.7887 -0.190 -0.978 0.088 252 254 250 0 0
6.7553 9.0548 -0.7959 -0.661 -0.749 -0.047 240 236 226 0 0
6.3881 8.6288 -0.8627 -0.980 -0.106 0.167 203 176 141 0 0
6.2598 8.2822 -0.9500 -0.953 -0.056 0.299 205 179 144 0 0
6.2513 8.2337 -0.9641 -0.954 0.063 0.292 209 183 148 0 0
6.1939 8.0067 -1.0265 -0.797 -0.604 0.030 219 194 163 0 0
6.1992 7.8634 -1.0740 -0.956 -0.081 0.282 208 185 153 0 0
6.2991 7.5511 -1.1945 -0.861 -0.482 0.161 203 181 150 0 0
6.3607 7.4839 -1.2282 -0.804 -0.594 0.017 205 186 154 0 0
6.4490 7.3306 -1.2949 -0.955 -0.282 -0.088 201 184 152 0 0
6.7624 7.0731 -1.4391 -0.646 -0.715 0.266 192 176 148 0 0
6.7907 7.0672 -1.4465 -0.780 -0.622 0.063 189 172 144 0 0
7.2432 6.9046 -1.5868 -0.632 -0.738 -0.236 191 176 147 0 0
7.9899 6.9948 -1.7023 0.163 -0.862 -0.480 252 252 252 0 0
8.1183 7.0300 -1.7158 0.167 -0.851 -0.498 250 252 251 0 0
8.1803 7.0360 -1.7259 0.147 -0.849 -0.508 250 252 251 0 0
4.4879 11.6412 0.4596 -0.326 -0.627 0.708 194 149 132 0 0
4.8275 11.2352 0.2622 -0.294 -0.433 0.852 192 144 122 0 0
5.7489 9.9610 -0.3291 -0.269 -0.600 0.753 188 138 118 0 0
5.8509 9.8955 -0.3701 -0.667 -0.293 0.684 195 146 131 0 0
6.6553 9.0672 -0.7946 -0.183 -0.892 -0.414 253 253 252 0 0
6.6954 9.0706 -0.8013 -0.184 -0.937 -0.297 252 253 250 0 0
6.7539 9.0626 -0.8153 -0.630 -0.763 -0.146 234 231 221 0 0
6.3796 8.6315 -0.8815 -0.962 -0.093 0.257 203 175 140 0 0
6.2479 8.3044 -0.9614 -0.950 -0.154 0.271 207 180 145 0 0
6.2493 8.2836 -0.9684 -0.950 -0.154 0.271 206 180 145 0 0
6.2398 8.2560 -0.9754 -0.848 -0.505 0.163 208 182 147 0 0
6.1838 8.0083 -1.0445 -0.913 -0.294 0.282 210 185 154 0 0
6.2817 7.6097 -1.1923 -0.798 -0.600 -0.059 193 172 141 0 0
6.3626 7.4720 -1.2526 -0.871 -0.461 -0.168 207 188 157 0 0
6.4459 7.3561 -1.3063 -0.933 -0.341 0.117 202 184 154 0 0
6.7671 7.0825 -1.4573 -0.685 -0.729 -0.013 191 175 149 0 0
7.2500 6.9147 -1.6057 -0.667 -0.593 -0.451 189 174 145 0 0
8.1388 7.0462 -1.7367 0.167 -0.851 -0.498 250 252 251 0 0
8.2600 7.0779 -1.7501 0.167 -0.851 -0.498 251 253 252 0 0
4.4044 11.7549 0.4910 -0.416 -0.553 0.721 201 157 141 0 0
4.4133 11.7368 0.4834 -0.409 -0.609 0.680 191 146 130 0 0
4.4261 11.7232 0.4765 -0.274 -0.761 0.588 190 143 126 0 0
4.4310 11.7006 0.4682 -0.504 -0.450 0.738 185 136 120 0 0
4.4371 11.6794 0.4602 -0.545 -0.326 0.773 198 150 133 0 0
4.4589 11.6478 0.4458 -0.316 -0.579 0.752 197 152 134 0 0
4.4649 11.6266 0.4378 -0.302 -0.680 0.668 190 145 127 0 0
4.5714 11.4942 0.3742 -0.317 -0.640 0.700 199 152 134 0 0
4.6107 11.4540 0.3536 -0.318 -0.533 0.784 198 151 133 0 0
4.7062 11.3368 0.2970 -0.312 -0.714 0.626 184 139 121 0 0
5.1777 10.6613 -0.0131 -0.358 -0.443 0.822 199 151 129 0 0
6.6615 9.0801 -0.8138 -0.226 -0.953 -0.203 253 253 252 0 0
6.7504 9.0690 -0.8348 -0.639 -0.741 -0.206 232 228 218 0 0
6.2489 8.3131 -0.9797 -0.979 -0.114 0.167 205 179 145 0 0
6.2588 8.2975 -0.9866 -0.975 -0.081 0.209 208 182 147 0 0
6.4273 7.3334 -1.3301 -0.873 -0.429 0.231 201 184 152 0 0
6.4454 7.3231 -1.3370 -0.754 -0.648 0.103 201 184 153 0 0
7.1276 6.9052 -1.6056 -0.563 -0.773 -0.293 191 174 144 0 0
8.1984 7.0585 -1.7666 0.128 -0.827 -0.547 250 252 251 0 0
4.4366 11.6059 0.4151 -0.489 -0.374 0.788 192 147 128 0 0
4.5497 11.4813 0.3527 -0.383 -0.578 0.721 199 153 135 0 0
4.5608 11.4659 0.3456 -0.389 -0.616 0.685 185 140 121 0 0
5.1020 10.7301 0.0023 -0.275 -0.526 0.805 187 138 122 0 0
5.1301 10.6526 -0.0281 -0.462 -0.477 0.748 192 141 120 0 0
5.1367 10.6329 -0.0358 -0.469 -0.532 0.705 190 141 119 0 0
5.5803 10.0383 -0.3144 -0.431 -0.464 0.774 191 147 130 0 0
6.7192 9.0805 -0.8472 -0.078 -0.992 -0.097 252 254 250 0 0
6.1812 8.0433 -1.0737 -0.994 -0.070 -0.086 202 176 141 0 0
6.1757 7.9139 -1.1142 -0.984 -0.177 -0.031 213 190 159 0 0
6.2113 7.8725 -1.1345 -0.718 -0.691 0.087 208 186 155 0 0
6.2150 7.8538 -1.1412 -0.863 -0.456 0.216 207 185 154 0 0
6.3397 7.5348 -1.2683 -0.746 -0.652 0.131 202 179 147 0 0
6.3532 7.5220 -1.2751 -0.824 -0.566 0.042 199 177 144 0 0
6.3771 7.4743 -1.2951 -0.781 -0.603 -0.159 204 185 155 0 0
8.2031 7.0680 -1.7868 0.150 -0.857 -0.493 250 252 251 0 0
4.3844 11.9831 0.5247 -0.286 -0.666 0.689 189 141 120 0 0
4.4889 11.4532 0.3342 -0.379 -0.486 0.788 182 136 118 0 0
4.5275 11.4680 0.3313 -0.408 -0.586 0.700 195 149 131 0 0
4.5932 11.3469 0.2794 -0.378 -0.429 0.821 195 152 131 0 0
5.1767 10.6027 -0.0750 -0.437 -0.607 0.663 181 133 113 0 0
5.1885 10.5879 -0.0821 -0.421 -0.681 0.599 216 167 146 0 0
5.2268 10.4433 -0.1360 -0.593 -0.362 0.719 189 138 120 0 0
5.5084 10.0865 -0.3063 -0.264 -0.668 0.696 188 137 116 0 0
5.5453 10.0680 -0.3195 -0.349 -0.561 0.750 215 170 152 0 0
5.5493 10.0465 -0.3272 -0.597 -0.157 0.787 221 177 159 0 0
6.6185 9.0685 -0.8532 -0.019 -0.993 0.118 253 254 251 0 0
7.0575 9.3411 -0.8534 -0.654 0.709 0.264 253 253 252 0 0
6.2460 8.3055 -1.0232 -0.997 -0.064 -0.035 204 178 143 0 0
6.2476 8.2848 -1.0302 -0.997 -0.064 -0.035 203 177 141 0 0
6.3333 7.5386 -1.2861 -0.746 -0.652 0.131 201 177 146 0 0
6.3418 7.5230 -1.2927 -0.831 -0.555 -0.045 201 179 146 0 0
6.3817 7.4237 -1.3325 -0.982 -0.180 0.053 200 179 150 0 0
4.2704 12.0913 0.5602 -0.945 -0.326 0.038 246 247 243 0 0
4.3421 11.9450 0.4991 -0.506 -0.393 0.768 203 156 136 0 0
4.3392 11.9130 0.4895 -0.516 -0.340 0.787 200 153 133 0 0
4.3390 11.6856 0.4169 -0.301 -0.529 0.794 199 154 135 0 0
4.3462 11.6658 0.4092 -0.202 -0.693 0.692 184 137 119 0 0
4.5276 11.4239 0.2956 -0.489 -0.487 0.724 196 149 131 0 0
4.5774 11.3134 0.2504 -0.365 -0.510 0.779 186 144 122 0 0
4.9721 10.7821 0.0017 -0.303 -0.528 0.794 194 145 127 0 0
5.0151 10.6932 -0.0353 -0.229 -0.565 0.792 202 153 135 0 0
5.1712 10.5046 -0.1268 -0.376 -0.411 0.830 197 147 126 0 0
5.1941 10.4488 -0.1492 -0.600 -0.236 0.764 195 143 123 0 0
5.2073 10.4353 -0.1561 -0.593 -0.362 0.719 189 137 120 0 0
5.4273 10.1762 -0.2829 -0.322 -0.555 0.767 187 139 117 0 0
5.5168 10.0286 -0.3480 -0.254 -0.574 0.778 201 155 136 0 0
7.0660 9.3559 -0.8733 -0.654 0.711 0.259 253 253 253 0 0
6.2349 8.3065 -1.0415 -0.998 -0.007 0.068 201 175 140 0 0
6.3588 7.5195 -1.3175 -0.771 -0.610 -0.185 202 181 150 0 0
6.5442 7.2765 -1.4322 -0.851 -0.522 0.061 196 181 153 0 0
6.9277 6.9709 -1.6067 -0.574 -0.810 0.118 193 178 151 0 0
4.3115 11.9206 0.4757 -0.461 -0.375 0.804 199 152 134 0 0
4.3159 11.8971 0.4674 -0.441 -0.369 0.818 206 161 140 0 0
4.5063 11.3566 0.2570 -0.508 -0.368 0.778 193 146 127 0 0
4.5460 11.2904 0.2279 -0.323 -0.605 0.728 201 157 135 0 0
4.6162 11.2027 0.1858 -0.274 -0.596 0.755 183 135 113 0 0
4.8151 10.9530 0.0662 -0.280 -0.726 0.628 194 146 129 0 0
4.8446 10.8769 0.0360 -0.483 -0.426 0.765 176 127 106 0 0
4.9497 10.7444 -0.0273 -0.331 -0.500 0.800 186 138 117 0 0
5.1191 10.5689 -0.1174 -0.340 -0.480 0.809 188 141 121 0 0
5.1597 10.5038 -0.1463 -0.365 -0.503 0.784 192 140 119 0 0
5.1701 10.4878 -0.1534 -0.423 -0.446 0.789 195 144 123 0 0
5.4840 10.0350 -0.3609 -0.244 -0.562 0.790 182 132 111 0 0
5.6115 9.8215 -0.4545 -0.514 -0.407 0.755 200 155 136 0 0
6.2266 8.3093 -1.0598 -0.928 -0.016 0.372 201 175 140 0 0
6.3537 7.5037 -1.3418 -0.928 -0.348 0.132 197 176 146 0 0
6.3662 7.4903 -1.3486 -0.770 -0.603 0.207 193 173 141 0 0
6.5397 7.2813 -1.4501 -0.925 -0.357 0.132 193 177 151 0 0
6.5535 7.2685 -1.4569 -0.711 -0.700 0.061 193 177 151 0 0
6.7451 7.1069 -1.5470 -0.707 -0.706 0.038 191 175 149 0 0
6.8883 6.9986 -1.6104 -0.742 -0.640 0.199 193 178 149 0 0
6.9196 6.9741 -1.6245 -0.662 -0.742 0.102 189 175 147 0 0
6.9318 6.9601 -1.6314 -0.581 -0.790 0.194 190 175 148 0 0
4.2254 12.0896 0.5251 -0.485 -0.591 0.645 247 246 244 0 0
4.3469 12.2069 0.5376 -0.328 -0.191 0.925 247 246 245 0 0
4.2932 11.9393 0.4636 -0.591 -0.240 0.770 190 150 134 0 0
4.4770 11.3630 0.2435 -0.232 -0.679 0.696 182 135 115 0 0
4.5028 11.3091 0.2211 -0.441 -0.506 0.741 199 152 133 0 0
4.5074 11.2868 0.2131 -0.403 -0.556 0.727 196 150 130 0 0
4.5235 11.2770 0.2068 -0.323 -0.605 0.728 191 146 124 0 0
4.5747 11.1963 0.1708 -0.127 -0.671 0.730 198 150 130 0 0
4.6899 11.0486 0.1005 -0.298 -0.559 0.774 199 148 126 0 0
4.8950 10.7533 -0.0348 -0.340 -0.559 0.757 193 141 122 0 0
4.9182 10.7239 -0.0489 -0.344 -0.468 0.814 190 141 120 0 0
6.1743 7.8810 -1.2059 -0.836 -0.349 0.423 195 169 139 0 0
6.5040 7.3500 -1.4414 -0.742 -0.662 -0.110 198 181 155 0 0
4.2895 12.2378 0.5371 -0.457 -0.003 0.890 246 245 243 0 0
4.2978 12.1596 0.5106 -0.315 -0.200 0.928 247 245 244 0 0
4.3053 11.5410 0.3135 -0.370 -0.524 0.767 194 149 128 0 0
4.3142 11.5233 0.3061 -0.447 -0.419 0.790 189 142 122 0 0
4.3200 11.5023 0.2982 -0.447 -0.419 0.790 190 141 123 0 0
4.3292 11.4850 0.2909 -0.360 -0.506 0.784 201 153 135 0 0
4.5046 11.2674 0.1862 -0.321 -0.656 0.683 197 151 129 0 0
4.7930 10.8460 -0.0061 -0.270 -0.701 0.659 181 131 113 0 0
4.8122 10.8389 -0.0123 -0.299 -0.699 0.650 192 141 123 0 0
4.8700 10.7391 -0.0556 -0.512 -0.577 0.636 175 123 103 0 0
5.1967 10.3029 -0.2604 -0.313 -0.587 0.746 176 126 112 0 0
5.2668 10.1896 -0.3106 -0.253 -0.649 0.717 187 136 116 0 0
5.2804 10.1767 -0.3174 -0.253 -0.649 0.717 187 136 115 0 0
5.4866 9.9082 -0.4445 -0.394 -0.675 0.624 189 139 118 0 0
5.4994 9.8943 -0.4515 -0.394 -0.675 0.624 194 146 124 0 0
6.1841 8.2121 -1.1236 -0.929 -0.278 0.245 204 178 144 0 0
6.1656 7.8835 -1.2237 -0.923 -0.320 0.211 193 166 134 0 0
6.2335 7.7988 -1.2644 -0.952 -0.261 0.162 200 177 146 0 0
6.5015 7.3559 -1.4593 -0.742 -0.662 -0.110 197 181 153 0 0
6.4725 7.2806 -1.4772 -0.716 -0.694 0.070 195 179 153 0 0
6.5308 7.2512 -1.4984 -0.745 -0.636 0.200 192 176 147 0 0
6.5407 7.2165 -1.5114 -0.832 -0.535 0.145 195 179 153 0 0
4.2136 11.5584 0.3165 -0.387 -0.435 0.813 203 158 141 0 0
4.4578 11.2547 0.1704 -0.401 -0.343 0.850 187 140 120 0 0
4.6592 10.9581 0.0355 -0.254 -0.822 0.510 180 128 108 0 0
4.8848 10.6857 -0.0969 -0.427 -0.674 0.602 191 143 126 0 0
4.8914 10.6662 -0.1044 -0.496 -0.572 0.653 198 152 135 0 0
4.8955 10.6443 -0.1121 -0.452 -0.396 0.799 204 160 142 0 0
4.9500 10.5678 -0.1475 -0.224 -0.557 0.800 185 134 113 0 0
6.2907 8.5282 -1.0666 -0.922 0.110 0.372 199 173 138 0 0
6.2273 8.3337 -1.1148 -0.957 -0.268 -0.115 197 168 134 0 0
6.1780 8.2162 -1.1418 -0.929 -0.278 0.245 205 178 145 0 0
6.2401 7.7894 -1.2891 -0.809 -0.588 -0.005 187 162 132 0 0
6.5423 7.2244 -1.5295 -0.819 -0.551 0.157 193 177 151 0 0
4.1521 11.7785 0.3771 -0.561 -0.044 0.827 203 154 132 0 0
4.8674 10.6789 -0.1168 -0.427 -0.674 0.602 188 139 122 0 0
4.8683 10.6538 -0.1248 -0.498 -0.515 0.698 192 143 126 0 0
4.8670 10.6268 -0.1331 -0.540 -0.367 0.757 193 145 127 0 0
4.8875 10.6208 -0.1392 -0.539 -0.320 0.779 193 144 128 0 0
5.1074 10.2919 -0.2881 -0.186 -0.718 0.671 172 120 103 0 0
5.1578 10.2621 -0.3080 -0.195 -0.736 0.648 196 147 132 0 0
5.1559 10.2353 -0.3160 -0.431 -0.489 0.758 176 124 110 0 0
5.1629 10.2165 -0.3233 -0.369 -0.458 0.809 189 137 121 0 0
7.0447 9.3625 -0.9817 -0.649 0.738 0.184 252 253 250 0 0
6.2671 8.4769 -1.0990 -0.995 0.102 -0.024 202 173 139 0 0
6.2123 8.3323 -1.1331 -0.723 -0.670 -0.167 199 170 136 0 0
6.2281 7.7900 -1.3068 -0.721 -0.689 0.070 185 160 129 0 0
6.2441 7.7373 -1.3267 -0.754 -0.653 0.074 191 168 139 0 0
6.3220 7.6378 -1.3741 -0.935 -0.353 0.022 196 172 138 0 0
6.3148 7.5116 -1.4123 -0.795 -0.604 -0.052 194 171 139 0 0
6.5279 7.2440 -1.5406 -0.485 -0.865 0.126 193 177 151 0 0
6.5711 7.2066 -1.5613 -0.750 -0.648 0.130 195 179 154 0 0
6.5858 7.1942 -1.5682 -0.583 -0.771 0.256 193 177 151 0 0
7.0718 6.9751 -1.7378 -0.576 -0.612 -0.542 194 178 152 0 0
8.2807 7.1752 -1.9254 0.151 -0.780 -0.607 251 251 251 0 0
4.1410 11.5525 0.2872 -0.329 -0.539 0.775 195 149 131 0 0
4.8459 10.6164 -0.1532 -0.540 -0.367 0.757 185 134 117 0 0
4.8603 10.5789 -0.1679 -0.364 -0.597 0.715 194 143 126 0 0
5.1286 10.1954 -0.3441 -0.259 -0.618 0.743 185 136 120 0 0
5.1705 10.1581 -0.3645 -0.233 -0.610 0.758 194 143 122 0 0
5.3714 9.9128 -0.4833 -0.452 -0.626 0.636 198 146 127 0 0
5.3753 9.8917 -0.4907 -0.469 -0.449 0.761 192 140 122 0 0
5.4560 9.7644 -0.5474 -0.510 -0.344 0.789 196 146 128 0 0
7.0578 9.3805 -1.0018 -0.653 0.739 0.166 253 253 250 0 0
6.9318 9.2709 -1.0099 -0.653 0.739 0.166 253 252 245 0 0
6.2635 8.4607 -1.1244 -0.894 -0.382 0.232 200 171 137 0 0
6.1939 8.2205 -1.1852 -0.864 -0.491 -0.108 200 175 144 0 0
6.2036 8.2050 -1.1921 -0.864 -0.491 -0.108 201 176 145 0 0
6.3650 7.4656 -1.4574 -0.652 -0.731 0.201 195 176 144 0 0
6.5017 7.2974 -1.5386 -0.835 -0.550 -0.008 189 173 147 0 0
4.0766 11.9678 0.4093 -0.238 -0.465 0.852 240 232 225 0 0
4.5267 10.9582 -0.0006 -0.241 -0.592 0.769 197 146 127 0 0
4.8339 10.5634 -0.1885 -0.398 -0.471 0.787 197 148 129 0 0
5.3184 9.9016 -0.4969 -0.382 -0.525 0.761 190 138 117 0 0
5.3351 9.8914 -0.5036 -0.481 -0.397 0.781 191 139 118 0 0
5.4228 9.7463 -0.5674 -0.619 -0.287 0.731 191 142 123 0 0
5.4653 9.6848 -0.5955 -0.409 -0.758 0.507 183 132 109 0 0
6.9513 9.2931 -1.0298 -0.660 0.736 0.148 253 253 246 0 0
6.2699 8.5394 -1.1223 -0.872 -0.098 0.480 198 170 136 0 0
6.2604 8.4889 -1.1360 -0.996 0.085 0.011 197 168 134 0 0
6.2174 7.7575 -1.3555 -0.761 -0.649 -0.015 192 167 136 0 0
6.2292 7.7437 -1.3623 -0.761 -0.649 -0.015 193 168 137 0 0
6.3100 7.5236 -1.4480 -0.920 -0.368 -0.136 191 168 136 0 0
6.5074 7.3477 -1.5444 -0.723 -0.598 0.347 187 172 143 0 0
6.5793 7.2251 -1.5978 -0.801 -0.522 0.292 193 177 151 0 0
7.0506 6.9991 -1.7674 -0.654 -0.641 -0.402 191 175 149 0 0
4.6176 10.7993 -0.0905 -0.509 -0.460 0.727 165 112 90 0 0
4.8448 10.4816 -0.2374 -0.395 -0.531 0.749 170 121 103 0 0
4.8605 10.4457 -0.2519 -0.429 -0.501 0.751 177 126 109 0 0
4.8945 10.4018 -0.2728 -0.415 -0.480 0.773 186 134 113 0 0
5.2801 9.9028 -0.5097 -0.300 -0.620 0.724 180 127 105 0 0
5.4024 9.7386 -0.5866 -0.580 -0.321 0.749 189 141 120 0 0
5.3952 9.7086 -0.5945 -0.382 -0.566 0.731 198 150 130 0 0
5.4444 9.6769 -0.6147 -0.378 -0.729 0.570 186 136 112 0 0
5.7609 9.6420 -0.6925 -0.044 -0.861 0.506 146 103 84 0 0
6.2535 8.4705 -1.1614 -0.993 -0.099 0.066 195 166 132 0 0
6.2040 8.2210 -1.2287 -0.795 -0.575 -0.192 200 173 140 0 0
6.2241 7.7483 -1.3802 -0.779 -0.625 -0.051 194 168 135 0 0
6.3351 7.6470 -1.4351 -0.927 -0.369 -0.070 194 171 139 0 0
7.0274 7.0151 -1.7782 -0.354 -0.921 -0.162 191 175 149 0 0
7.0565 7.0090 -1.7863 -0.629 -0.737 -0.246 195 179 153 0 0
7.0734 6.9970 -1.7936 -0.629 -0.737 -0.246 195 179 154 0 0
8.2103 7.1877 -1.9743 0.199 -0.891 -0.407 249 251 250 0 0
3.9854 11.5428 0.2537 -0.319 -0.615 0.721 197 149 129 0 0
3.9999 11.5321 0.2473 -0.330 -0.490 0.807 197 149 130 0 0
4.1615 11.3614 0.1599 -0.504 -0.314 0.804 180 132 111 0 0
4.3125 11.1505 0.0623 -0.552 -0.367 0.748 188 136 116 0 0
4.3167 11.1283 0.0545 -0.552 -0.367 0.748 193 140 121 0 0
4.3432 11.0767 0.0329 -0.427 -0.400 0.811 192 141 120 0 0
4.3697 10.9988 0.0031 -0.368 -0.670 0.645 200 149 127 0 0
4.3783 10.9815 -0.0041 -0.533 -0.636 0.559 189 138 117 0 0
4.8239 10.4462 -0.2651 -0.336 -0.452 0.826 190 141 124 0 0
4.8629 10.4072 -0.2855 -0.378 -0.555 0.741 188 137 118 0 0
4.8713 10.3898 -0.2927 -0.415 -0.480 0.773 199 148 128 0 0
4.8788 10.3716 -0.2999 -0.415 -0.480 0.773 190 140 122 0 0
4.9517 10.2635 -0.3490 -0.150 -0.796 0.587 191 138 120 0 0
5.1704 9.9643 -0.4884 -0.272 -0.527 0.805 193 136 114 0 0
5.2251 9.9383 -0.5081 -0.223 -0.812 0.539 185 130 109 0 0
5.2561 9.8917 -0.5292 -0.300 -0.620 0.724 187 133 112 0 0
6.2606 8.4832 -1.1801 -0.935 -0.075 0.347 195 165 131 0 0
6.2138 8.3872 -1.1999 -0.928 -0.297 0.224 189 157 119 0 0
6.1929 8.2005 -1.2534 -0.871 -0.468 0.151 194 165 132 0 0
6.2007 8.1839 -1.2603 -0.871 -0.468 0.151 197 168 136 0 0
6.1805 8.0435 -1.2996 -0.993 -0.119 0.022 194 169 138 0 0
6.1816 7.9388 -1.3323 -0.964 -0.252 0.078 192 169 137 0 0
6.2232 7.8382 -1.3724 -0.730 -0.677 0.096 190 164 133 0 0
6.3120 7.6619 -1.4460 -0.665 -0.616 0.422 194 171 140 0 0
7.9887 7.1176 -1.9715 0.067 -0.935 -0.349 250 251 252 0 0
8.2194 7.1993 -1.9952 0.199 -0.891 -0.407 250 251 250 0 0
3.7432 11.7925 0.3618 0.183 -0.966 -0.180 245 245 243 0 0
3.9676 11.5329 0.2334 -0.409 -0.593 0.694 187 140 122 0 0
3.9784 11.5180 0.2265 -0.457 -0.533 0.712 189 142 123 0 0
4.0136 11.5316 0.2232 -0.316 -0.511 0.800 180 133 113 0 0
4.0988 11.3829 0.1589 -0.288 -0.496 0.819 197 150 132 0 0
4.1077 11.3657 0.1517 -0.373 -0.430 0.822 196 151 132 0 0
4.1153 11.3472 0.1443 -0.356 -0.463 0.811 190 145 125 0 0
4.2729 11.1446 0.0479 -0.297 -0.556 0.776 184 133 112 0 0
4.2884 11.1349 0.0416 -0.285 -0.591 0.755 183 132 111 0 0
4.3274 11.0703 0.0133 -0.567 -0.263 0.781 187 135 114 0 0
4.3282 11.0445 0.0051 -0.567 -0.263 0.781 175 124 102 0 0
4.3327 11.0228 -0.0026 -0.531 -0.300 0.793 181 130 108 0 0
4.3398 11.0039 -0.0099 -0.348 -0.539 0.767 185 134 113 0 0
4.3513 10.9898 -0.0168 -0.368 -0.670 0.645 199 148 129 0 0
4.3554 10.9677 -0.0245 -0.400 -0.684 0.610 193 141 121 0 0
4.4547 10.9142 -0.0623 -0.385 -0.490 0.782 183 133 111 0 0
4.9224 10.2462 -0.3691 -0.226 -0.747 0.626 180 129 109 0 0
4.9357 10.2335 -0.3759 -0.091 -0.876 0.474 187 137 118 0 0
5.2717 9.7687 -0.5917 -0.303 -0.580 0.756 188 134 114 0 0
7.0088 9.3592 -1.0901 -0.666 0.729 0.160 253 252 248 0 0
6.3779 8.7475 -1.1444 -0.858 0.451 0.244 188 159 123 0 0
6.2527 8.4863 -1.1985 -0.927 -0.018 0.374 190 162 125 0 0
6.2220 8.4005 -1.2185 -0.919 -0.360 -0.158 192 161 125 0 0
6.1862 8.2258 -1.2650 -0.888 -0.460 -0.033 195 167 131 0 0
6.1786 7.9447 -1.3503 -0.964 -0.252 0.078 189 164 131 0 0
6.2216 7.8448 -1.3905 -0.939 -0.340 0.058 191 167 133 0 0
6.3065 7.6663 -1.4639 -0.595 -0.715 0.367 190 169 138 0 0
6.3187 7.6527 -1.4707 -0.595 -0.715 0.367 192 170 139 0 0
6.3268 7.6367 -1.4774 -0.637 -0.759 0.135 191 168 137 0 0
6.6989 7.1478 -1.7083 -0.700 -0.693 -0.172 188 172 147 0 0
7.3089 6.9808 -1.8905 -0.262 -0.959 -0.107 194 180 154 0 0
7.9198 7.1151 -1.9797 0.014 -0.888 -0.459 250 250 248 0 0
7.9815 7.1218 -1.9908 0.014 -0.888 -0.459 250 250 250 0 0
8.1988 7.1976 -2.0138 0.174 -0.867 -0.468 249 250 251 0 0
3.9496 11.5228 0.2132 -0.404 -0.682 0.610 194 148 129 0 0
4.0020 11.5015 0.1954 -0.482 -0.339 0.808 190 143 124 0 0
4.0640 11.3540 0.1365 -0.403 -0.436 0.805 197 152 133 0 0
4.2284 11.1602 0.0413 -0.209 -0.572 0.793 194 143 122 0 0
4.2837 11.0869 0.0068 -0.272 -0.677 0.684 190 139 118 0 0
4.2960 11.0736 0.0000 -0.392 -0.537 0.747 182 131 110 0 0
4.3331 10.9808 -0.0366 -0.368 -0.670 0.645 192 141 120 0 0
4.3385 10.9601 -0.0441 -0.400 -0.684 0.610 187 135 114 0 0
5.1892 9.8046 -0.5839 -0.204 -0.768 0.607 190 134 114 0 0
5.2411 9.7762 -0.6038 -0.194 -0.769 0.609 187 131 113 0 0
5.2465 9.7567 -0.6110 -0.303 -0.580 0.756 174 120 101 0 0
5.2541 9.7390 -0.6181 -0.379 -0.502 0.777 180 128 109 0 0
7.0298 9.3826 -1.1104 -0.661 0.726 0.191 253 253 249 0 0
6.4006 8.7938 -1.1566 -0.863 0.449 0.232 189 159 124 0 0
6.2040 8.2449 -1.2837 -0.964 -0.239 0.117 194 166 131 0 0
6.1979 8.1123 -1.3233 -0.722 -0.692 -0.012 192 166 134 0 0
6.2113 7.9510 -1.3759 -0.960 -0.174 0.219 191 165 131 0 0
6.2291 7.8568 -1.4088 -0.869 -0.488 0.082 188 163 128 0 0
6.2947 7.6671 -1.4815 -0.595 -0.715 0.367 190 168 138 0 0
6.3198 7.6402 -1.4952 -0.597 -0.793 -0.120 195 172 141 0 0
6.6730 7.2216 -1.7004 -0.794 -0.607 0.048 183 167 141 0 0
6.7069 7.1589 -1.7271 -0.808 -0.544 0.225 188 172 146 0 0
8.2164 7.2130 -2.0354 0.177 -0.858 -0.482 249 250 251 0 0
3.9176 11.7752 0.2769 -0.435 -0.416 0.799 217 167 145 0 0
3.8735 11.5819 0.2270 -0.254 -0.484 0.837 194 148 132 0 0
3.9014 11.5321 0.2056 -0.405 -0.564 0.720 188 143 127 0 0
4.0337 11.3574 0.1232 -0.403 -0.436 0.805 183 137 117 0 0
4.0402 11.3376 0.1157 -0.403 -0.436 0.805 194 149 130 0 0
4.0563 11.3017 0.1012 -0.305 -0.450 0.839 195 152 135 0 0
4.0673 11.2871 0.0943 -0.257 -0.544 0.799 184 138 119 0 0
4.1201 11.2387 0.0680 -0.233 -0.648 0.726 201 154 135 0 0
4.1946 11.1336 0.0195 -0.357 -0.530 0.769 188 137 117 0 0
4.2007 11.1135 0.0120 -0.423 -0.491 0.762 195 144 123 0 0
4.3233 10.9544 -0.0635 -0.387 -0.556 0.736 188 136 117 0 0
5.0915 9.9237 -0.5470 -0.308 -0.616 0.725 192 140 119 0 0
5.2223 9.7455 -0.6302 -0.421 -0.536 0.732 180 130 110 0 0
5.2298 9.7278 -0.6372 -0.379 -0.502 0.777 198 149 130 0 0
5.3573 9.6182 -0.6986 -0.070 -0.836 0.545 185 135 113 0 0
6.3995 8.8016 -1.1756 -0.863 0.449 0.232 194 164 132 0 0
6.3786 8.7649 -1.1823 -0.863 0.449 0.232 184 154 120 0 0
6.3281 8.6635 -1.2026 -0.929 0.299 0.216 184 155 121 0 0
6.2063 7.9557 -1.3940 -0.960 -0.174 0.219 188 162 127 0 0
6.2299 7.8858 -1.4206 -0.623 -0.780 0.055 180 154 120 0 0
6.3199 7.6477 -1.5133 -0.450 -0.869 -0.204 185 162 131 0 0
6.6782 7.2114 -1.7252 -0.816 -0.576 0.042 186 170 144 0 0
6.6891 7.1770 -1.7381 -0.710 -0.679 -0.187 180 165 136 0 0
8.0346 7.1604 -2.0347 0.005 -0.796 -0.605 249 250 250 0 0
3.8630 11.7202 0.2508 -0.478 -0.162 0.863 208 159 138 0 0
3.8512 11.6219 0.2232 -0.345 -0.311 0.886 204 160 142 0 0
3.8521 11.5952 0.2148 -0.493 -0.254 0.832 210 166 149 0 0
3.8502 11.5651 0.2060 -0.299 -0.757 0.581 186 140 125 0 0
3.8515 11.5390 0.1977 -0.553 -0.411 0.724 186 140 125 0 0
3.9605 11.3656 0.1208 -0.703 -0.150 0.695 190 143 123 0 0
4.0165 11.3213 0.0950 -0.403 -0.436 0.805 184 139 120 0 0
4.0237 11.3025 0.0876 -0.388 -0.446 0.807 195 151 132 0 0
4.0305 11.2832 0.0802 -0.388 -0.446 0.807 187 142 125 0 0
4.4073 10.7653 -0.1607 -0.338 -0.656 0.675 195 145 128 0 0
4.4262 10.7589 -0.1668 -0.224 -0.777 0.589 190 140 123 0 0
4.4645 10.7205 -0.1869 -0.304 -0.524 0.795 197 150 133 0 0
4.4666 10.6968 -0.1947 -0.430 -0.404 0.807 184 135 117 0 0
4.6620 10.4820 -0.3031 -0.613 -0.286 0.737 175 128 113 0 0
4.6792 10.3471 -0.3482 -0.660 -0.477 0.581 176 131 109 0 0
4.8969 10.1028 -0.4706 -0.270 -0.511 0.816 196 147 130 0 0
5.0590 9.8804 -0.5742 -0.588 -0.481 0.650 183 131 109 0 0
5.1104 9.8040 -0.6088 -0.331 -0.542 0.772 182 131 111 0 0
7.0394 9.4074 -1.1509 -0.655 0.706 0.268 252 252 249 0 0
6.9281 9.3072 -1.1574 -0.653 0.707 0.272 252 251 247 0 0
6.2061 8.3490 -1.2939 -0.845 -0.412 -0.342 190 162 125 0 0
6.1897 8.1016 -1.3662 -0.639 -0.754 0.153 190 164 134 0 0
6.2097 8.0925 -1.3733 -0.554 -0.653 0.517 185 159 126 0 0
6.2110 7.9241 -1.4252 -0.838 -0.470 0.276 186 160 125 0 0
6.2307 7.7898 -1.4707 -0.893 -0.380 -0.240 190 166 132 0 0
6.2387 7.7737 -1.4774 -0.904 -0.426 -0.036 186 161 128 0 0
6.2388 7.7324 -1.4901 -0.698 -0.706 -0.117 186 161 130 0 0
6.2845 7.6557 -1.5236 -0.706 -0.629 -0.326 191 168 136 0 0
6.3023 7.5838 -1.5495 -0.825 -0.502 -0.261 187 166 135 0 0
6.3175 7.5516 -1.5627 -0.614 -0.790 0.012 189 169 140 0 0
6.3537 7.5310 -1.5769 -0.821 -0.564 0.088 180 161 130 0 0
6.3716 7.4799 -1.5965 -0.721 -0.685 -0.107 180 160 127 0 0
8.3020 7.2663 -2.0828 0.212 -0.867 -0.451 248 251 251 0 0
3.8350 11.6695 0.2204 -0.576 -0.010 0.817 207 160 141 0 0
3.8172 11.5922 0.2007 -0.404 -0.317 0.858 203 159 143 0 0
3.8289 11.5785 0.1939 -0.383 -0.383 0.840 206 162 146 0 0
3.8321 11.5546 0.1859 -0.271 -0.628 0.729 191 146 131 0 0
3.9033 11.4190 0.1288 -0.682 -0.237 0.692 189 142 122 0 0
3.9427 11.3558 0.1009 -0.647 -0.278 0.710 198 150 128 0 0
4.0097 11.2431 0.0518 -0.339 -0.476 0.812 187 141 122 0 0
4.2498 10.9493 -0.0907 -0.226 -0.721 0.655 190 139 120 0 0
4.3884 10.7559 -0.1803 -0.481 -0.570 0.666 194 148 129 0 0
4.3983 10.7403 -0.1872 -0.334 -0.730 0.597 191 145 127 0 0
4.4502 10.6644 -0.2218 -0.452 -0.442 0.775 216 175 158 0 0
4.6452 10.4249 -0.3378 -0.516 -0.308 0.800 188 142 125 0 0
5.1606 9.7598 -0.6542 -0.648 -0.501 0.574 194 149 128 0 0
5.1711 9.7447 -0.6611 -0.602 -0.416 0.682 201 154 131 0 0
6.2624 8.5698 -1.2596 -0.918 0.343 0.199 183 153 117 0 0
6.2239 8.3903 -1.3061 -0.956 -0.100 -0.277 193 164 128 0 0
6.1940 8.0482 -1.4041 -0.878 -0.270 0.395 188 159 125 0 0
6.1835 8.0207 -1.4102 -0.674 -0.652 0.347 188 159 125 0 0
6.1990 7.9878 -1.4237 -0.843 -0.366 0.393 187 159 124 0 0
6.2105 7.9526 -1.4370 -0.834 -0.547 0.080 184 155 121 0 0
6.2048 7.9281 -1.4432 -0.835 -0.524 0.166 184 158 123 0 0
6.2296 7.7967 -1.4888 -0.856 -0.460 -0.236 192 168 134 0 0
6.2544 7.7077 -1.5215 -0.819 -0.518 -0.248 187 161 131 0 0
6.2714 7.6762 -1.5348 -0.706 -0.629 -0.326 185 162 130 0 0
6.3094 7.6567 -1.5491 -0.591 -0.768 -0.247 181 159 127 0 0
6.3113 7.5555 -1.5805 -0.637 -0.768 0.064 185 165 136 0 0
6.3848 7.4741 -1.6215 -0.759 -0.571 -0.314 173 152 119 0 0
6.5131 7.3210 -1.6964 -0.823 -0.567 -0.046 187 171 146 0 0
8.1503 7.2485 -2.0776 0.128 -0.728 -0.674 248 249 250 0 0
8.0843 7.1975 -2.0788 -0.063 -0.658 -0.750 249 251 250 0 0
4.3480 10.7761 -0.1860 -0.641 -0.448 0.623 197 148 130 0 0
4.3544 10.7568 -0.1933 -0.641 -0.448 0.623 209 161 145 0 0
4.3645 10.7414 -0.2002 -0.734 -0.475 0.485 215 169 150 0 0
4.3716 10.7229 -0.2074 -0.376 -0.812 0.447 217 171 151 0 0
4.3737 10.6993 -0.2151 -0.515 -0.557 0.652 203 157 137 0 0
4.4037 10.6786 -0.2280 -0.414 -0.581 0.701 210 170 152 0 0
4.4103 10.6595 -0.2353 -0.549 -0.457 0.699 195 156 139 0 0
4.8941 9.9965 -0.5441 -0.285 -0.559 0.779 187 132 109 0 0
6.2078 8.2791 -1.3574 -0.988 0.043 -0.148 190 161 128 0 0
6.1738 8.1075 -1.4022 -0.895 -0.307 0.324 185 156 123 0 0
6.1935 7.9922 -1.4417 -0.930 -0.344 0.126 183 156 122 0 0
6.2057 7.9574 -1.4550 -0.834 -0.547 0.080 182 155 120 0 0
6.2128 7.9406 -1.4617 -0.821 -0.569 0.053 181 155 120 0 0
6.3774 7.4572 -1.6453 -0.757 -0.642 -0.125 174 153 122 0 0
6.5024 7.3829 -1.6956 -0.838 -0.523 -0.160 178 161 133 0 0
8.2066 7.2815 -2.1025 0.128 -0.728 -0.674 249 249 250 0 0
8.1312 7.2261 -2.1028 -0.068 -0.624 -0.779 249 250 250 0 0
3.8461 11.3736 0.0862 -0.457 -0.423 0.782 191 141 121 0 0
3.8671 11.3438 0.0725 -0.350 -0.593 0.725 189 138 118 0 0
3.8883 11.3414 0.0670 -0.343 -0.508 0.790 196 148 128 0 0
4.2026 10.9194 -0.1310 -0.132 -0.756 0.641 192 143 121 0 0
4.4694 10.5249 -0.3101 -0.277 -0.518 0.809 196 148 127 0 0
4.5982 10.3487 -0.3922 -0.371 -0.553 0.746 191 142 126 0 0
6.9060 9.3193 -1.2173 -0.701 0.690 0.180 251 251 249 0 0
6.6664 9.0849 -1.2353 -0.697 0.699 0.159 195 175 152 0 0
6.2255 8.3418 -1.3632 -0.987 0.095 0.131 187 159 122 0 0
6.1557 8.0405 -1.4393 -0.655 -0.730 0.196 189 161 127 0 0
6.1685 8.0271 -1.4462 -0.655 -0.730 0.196 187 161 126 0 0
6.1840 8.0153 -1.4532 -0.912 -0.405 0.063 183 157 122 0 0
6.1828 7.9935 -1.4596 -0.914 -0.395 0.097 182 156 121 0 0
6.2060 7.9652 -1.4733 -0.764 -0.644 0.041 188 162 127 0 0
6.2938 7.6834 -1.5784 -0.708 -0.706 -0.026 180 156 122 0 0
6.6517 7.2267 -1.7966 -0.819 -0.571 0.060 183 167 141 0 0
6.6835 7.2228 -1.8049 -0.486 -0.871 -0.068 182 167 141 0 0
8.1247 7.2734 -2.1095 0.142 -0.755 -0.640 249 249 247 0 0
8.2641 7.3151 -2.1277 0.142 -0.755 -0.640 249 249 249 0 0
8.3372 7.3264 -2.1405 0.091 -0.704 -0.704 249 249 249 0 0
3.7390 11.9535 0.2650 -0.732 -0.190 0.654 245 244 242 0 0
3.8255 11.3331 0.0578 -0.523 -0.383 0.762 193 142 122 0 0
3.8319 11.3135 0.0505 -0.477 -0.465 0.746 197 148 128 0 0
3.8431 11.2996 0.0437 -0.257 -0.632 0.731 192 144 124 0 0
3.8498 11.2803 0.0364 -0.295 -0.697 0.653 196 148 128 0 0
4.2181 10.8418 -0.1787 -0.453 -0.370 0.811 180 132 110 0 0
4.2279 10.8262 -0.1856 -0.449 -0.355 0.820 180 131 110 0 0
4.5528 10.3897 -0.3903 -0.254 -0.679 0.688 196 147 130 0 0
4.5744 10.3856 -0.3964 -0.373 -0.530 0.762 192 142 124 0 0
4.5842 10.3199 -0.4185 -0.362 -0.514 0.778 187 137 120 0 0
4.9205 9.8206 -0.6448 -0.143 -0.831 0.537 178 126 104 0 0
6.5592 9.1390 -1.2173 -0.071 -0.879 0.472 251 251 248 0 0
6.1787 7.9987 -1.4776 -0.914 -0.395 0.097 185 159 124 0 0
6.6560 7.2561 -1.8092 -0.732 -0.647 0.214 183 167 141 0 0
6.6656 7.2409 -1.8159 -0.634 -0.478 0.608 183 167 141 0 0
8.2989 7.3384 -2.1512 0.124 -0.736 -0.666 249 249 249 0 0
8.3845 7.3554 -2.1651 0.161 -0.804 -0.573 249 249 249 0 0
3.7125 11.9604 0.2520 -0.476 -0.262 0.840 245 244 242 0 0
3.7232 11.9452 0.2450 -0.732 -0.190 0.654 246 245 242 0 0
4.1263 10.8840 -0.1660 -0.449 -0.364 0.816 187 138 115 0 0
4.2453 10.6737 -0.2562 -0.466 -0.436 0.770 195 143 122 0 0
4.5254 10.3727 -0.4100 -0.346 -0.556 0.756 184 135 117 0 0
4.7094 10.1012 -0.5333 -0.353 -0.553 0.755 195 146 128 0 0
4.7180 10.0846 -0.5403 -0.486 -0.465 0.740 196 148 129 0 0
4.7392 10.0307 -0.5613 -0.491 -0.426 0.760 174 124 104 0 0
4.8820 9.8200 -0.6570 -0.489 -0.364 0.793 191 137 116 0 0
4.9574 9.7900 -0.6830 -0.129 -0.743 0.657 196 144 123 0 0
5.3419 9.5412 -0.8445 -0.337 -0.572 0.748 184 129 107 0 0
6.5783 9.1610 -1.2371 -0.262 -0.851 0.455 250 251 247 0 0
6.1636 8.1675 -1.4439 -0.967 -0.222 -0.126 187 159 122 0 0
6.1994 8.1468 -1.4582 -0.753 -0.655 0.057 179 152 117 0 0
6.2083 7.9610 -1.5163 -0.841 -0.487 0.237 179 153 119 0 0
6.2126 7.8378 -1.5544 -0.963 -0.262 0.057 179 155 121 0 0
7.2965 7.0727 -2.0290 -0.237 -0.931 -0.277 200 185 162 0 0
3.8090 11.2544 -0.0034 -0.273 -0.777 0.567 189 141 119 0 0
3.8929 11.1635 -0.0497 -0.541 -0.492 0.682 187 137 116 0 0
3.9020 11.1472 -0.0567 -0.648 -0.417 0.637 186 138 116 0 0
4.2190 10.6821 -0.2683 -0.602 -0.355 0.715 193 142 122 0 0
4.2230 10.6605 -0.2757 -0.602 -0.355 0.715 199 147 128 0 0
4.2374 10.6499 -0.2821 -0.659 -0.401 0.637 196 145 126 0 0
4.2493 10.6367 -0.2888 -0.266 -0.737 0.621 188 139 119 0 0
4.3481 10.5342 -0.3420 -0.323 -0.629 0.707 194 142 121 0 0
4.6998 10.0528 -0.5664 -0.148 -0.837 0.526 180 132 114 0 0
4.7104 10.0381 -0.5732 -0.307 -0.602 0.737 191 143 125 0 0
4.7185 10.0211 -0.5801 -0.491 -0.426 0.760 191 142 124 0 0
4.9100 9.7580 -0.7026 -0.350 -0.536 0.769 187 135 114 0 0
5.0641 9.5809 -0.7907 -0.103 -0.600 0.793 175 120 98 0 0
5.3600 9.5175 -0.8767 -0.154 -0.884 0.441 183 136 114 0 0
6.5602 9.1100 -1.2706 0.099 -0.871 0.481 250 250 248 0 0
6.1743 8.0539 -1.5012 -0.658 -0.672 -0.340 181 155 120 0 0
6.2210 7.9763 -1.5351 -0.619 -0.662 -0.422 176 151 117 0 0
6.1954 7.8770 -1.5592 -0.841 -0.517 -0.157 184 159 124 0 0
6.2391 7.8193 -1.5865 -0.878 -0.390 -0.276 182 158 122 0 0
6.8938 7.1690 -1.9302 -0.795 -0.560 -0.233 191 175 149 0 0
3.6293 11.9066 0.2126 -0.192 -0.532 0.825 247 244 244 0 0
3.6470 11.7023 0.1473 -0.296 -0.574 0.764 193 146 128 0 0
3.6198 11.6405 0.1349 -0.446 -0.275 0.852 200 154 134 0 0
3.6134 11.5494 0.1090 -0.474 -0.334 0.815 203 158 139 0 0
3.6130 11.5213 0.1007 -0.460 -0.344 0.819 192 147 127 0 0
3.6157 11.4970 0.0928 -0.466 -0.348 0.814 199 155 136 0 0
3.8749 11.1535 -0.0692 -0.719 -0.528 0.452 197 147 126 0 0
3.8851 11.1386 -0.0760 -0.705 -0.468 0.534 179 131 110 0 0
3.8920 11.0932 -0.0912 -0.489 -0.289 0.823 198 150 130 0 0
4.2746 10.5963 -0.3272 -0.228 -0.877 0.422 184 133 113 0 0
4.2840 10.5805 -0.3341 -0.396 -0.708 0.584 184 133 112 0 0
4.4264 10.3703 -0.4295 -0.352 -0.517 0.780 180 132 116 0 0
4.4364 10.3302 -0.4439 -0.520 -0.403 0.753 197 150 133 0 0
4.4415 10.3102 -0.4510 -0.520 -0.403 0.753 170 120 103 0 0
4.4500 10.2937 -0.4579 -0.223 -0.712 0.666 182 130 111 0 0
4.9270 9.6865 -0.7485 -0.478 -0.477 0.737 188 137 115 0 0
5.0433 9.5490 -0.8162 -0.162 -0.571 0.804 183 131 110 0 0
6.5439 9.1076 -1.2898 -0.194 -0.774 0.602 250 250 248 0 0
6.9725 9.3766 -1.3066 -0.693 0.711 -0.120 251 251 246 0 0
6.8748 9.2856 -1.3117 -0.679 0.724 -0.118 250 250 245 0 0
6.2426 8.3411 -1.4513 -0.904 -0.392 -0.171 190 160 127 0 0
6.1841 8.1531 -1.4944 -0.882 -0.434 0.185 185 156 122 0 0
6.1812 7.8972 -1.5705 -0.927 -0.361 -0.099 180 155 121 0 0
6.1912 7.8822 -1.5772 -0.881 -0.443 -0.169 181 156 122 0 0
6.1976 7.8651 -1.5838 -0.877 -0.464 -0.127 177 152 118 0 0
6.4305 7.4619 -1.7578 -0.924 -0.362 -0.127 168 150 120 0 0
6.9076 7.1628 -1.9559 -0.783 -0.614 0.101 189 173 147 0 0
3.5514 11.8757 0.2002 -0.189 -0.543 0.818 245 245 243 0 0
3.6065 11.9177 0.2002 -0.673 -0.139 0.726 246 245 243 0 0
3.5928 11.8718 0.1896 -0.127 -0.673 0.729 248 243 245 0 0
3.6077 11.8622 0.1833 -0.127 -0.673 0.729 247 245 242 0 0
3.6193 11.8484 0.1766 -0.292 -0.508 0.810 248 243 239 0 0
3.6248 11.6860 0.1267 -0.301 -0.549 0.779 203 156 138 0 0
3.5983 11.6252 0.1146 -0.495 -0.146 0.857 206 160 141 0 0
3.7086 11.2928 -0.0100 -0.315 -0.494 0.810 184 136 114 0 0
4.4201 10.3239 -0.4625 -0.605 -0.370 0.705 202 153 138 0 0
4.4244 10.3033 -0.4697 -0.605 -0.370 0.705 188 138 121 0 0
4.4288 10.2827 -0.4768 -0.232 -0.724 0.650 191 140 121 0 0
4.4984 10.2263 -0.5096 -0.448 -0.607 0.657 197 146 127 0 0
4.5063 10.2091 -0.5166 -0.351 -0.528 0.773 200 149 131 0 0
4.6828 9.9586 -0.6318 -0.315 -0.574 0.756 194 143 122 0 0
4.6911 9.9420 -0.6387 -0.376 -0.463 0.803 187 136 115 0 0
4.7557 9.8798 -0.6721 -0.378 -0.552 0.743 199 141 119 0 0
4.7637 9.8629 -0.6789 -0.480 -0.425 0.767 188 132 108 0 0
4.8726 9.6961 -0.7537 -0.304 -0.622 0.722 190 137 116 0 0
4.9134 9.6839 -0.7667 -0.297 -0.517 0.803 189 138 117 0 0
6.9945 9.4500 -1.3127 -0.717 0.690 0.099 250 250 248 0 0
6.2422 8.3927 -1.4568 -0.962 -0.063 -0.267 176 150 118 0 0
6.1831 8.1175 -1.5255 -0.960 -0.111 0.258 185 156 122 0 0
6.2783 7.7533 -1.6562 -0.957 -0.288 0.020 172 146 113 0 0
6.3487 7.6078 -1.7159 -0.992 -0.119 0.038 177 156 125 0 0
6.7155 7.2550 -1.9052 -0.765 -0.643 -0.047 182 168 142 0 0
6.9092 7.1708 -1.9747 -0.753 -0.601 -0.269 188 172 147 0 0
4.4071 10.2960 -0.4883 -0.605 -0.370 0.705 180 129 112 0 0
4.6596 9.9467 -0.6505 -0.315 -0.574 0.756 198 147 128 0 0
4.7992 9.7124 -0.7525 -0.172 -0.770 0.614 196 144 123 0 0
4.8749 9.6125 -0.7997 -0.210 -0.727 0.654 176 124 100 0 0
7.1373 9.5325 -1.3441 -0.692 0.691 -0.209 250 249 247 0 0
6.9188 9.3094 -1.3603 -0.679 0.729 -0.087 249 249 244 0 0
6.1824 8.4065 -1.4600 -0.699 -0.404 0.590 185 157 120 0 0
3.4565 11.8336 0.1681 -0.730 -0.626 -0.273 245 245 243 0 0
3.6844 11.2050 -0.0714 -0.375 -0.497 0.783 203 155 135 0 0
4.7777 9.7026 -0.7708 -0.172 -0.770 0.614 189 137 115 0 0
4.9401 9.5360 -0.8579 -0.109 -0.762 0.639 168 117 96 0 0
7.0772 9.4510 -1.3778 -0.671 0.741 -0.012 250 249 245 0 0
6.8530 7.2178 -1.9894 -0.796 -0.550 -0.252 181 166 137 0 0
6.9961 7.1673 -2.0375 -0.712 -0.666 -0.222 183 167 142 0 0
3.3596 11.7479 0.1446 -0.863 -0.484 -0.149 246 245 243 0 0
3.4497 11.8363 0.1498 -0.776 -0.585 -0.236 246 245 243 0 0
4.3219 10.3060 -0.5064 -0.289 -0.514 0.808 185 136 119 0 0
4.3760 10.2353 -0.5399 -0.220 -0.709 0.670 164 109 89 0 0
4.7333 9.6964 -0.7827 -0.336 -0.659 0.673 189 137 115 0 0
6.7374 9.3730 -1.3450 -0.107 -0.459 0.882 248 248 246 0 0
4.9851 7.6715 -1.4410 0.021 -0.979 0.205 183 155 121 0 0
5.7609 8.0255 -1.5168 0.436 -0.773 0.462 176 150 118 0 0
5.1786 7.5209 -1.5306 0.403 -0.864 0.301 175 148 116 0 0
5.2833 7.5659 -1.5417 0.403 -0.864 0.301 174 149 117 0 0
5.3900 7.6119 -1.5529 0.403 -0.864 0.301 176 151 118 0 0
5.5195 7.6314 -1.5773 0.354 -0.647 0.675 174 149 116 0 0
5.8551 7.8147 -1.6011 0.375 -0.647 0.664 171 146 113 0 0
6.1053 7.8616 -1.6454 -0.201 0.074 0.977 174 151 119 0 0
6.8343 7.2359 -2.0005 -0.937 -0.347 -0.028 186 170 144 0 0
3.4497 11.8479 0.1326 -0.746 -0.498 -0.443 247 244 242 0 0
4.1470 10.4892 -0.4317 -0.408 -0.463 0.787 181 134 116 0 0
4.2197 10.3878 -0.4787 -0.538 -0.366 0.759 173 123 102 0 0
4.3067 10.2758 -0.5321 -0.196 -0.687 0.699 179 130 113 0 0
4.3176 10.2618 -0.5388 -0.242 -0.605 0.758 187 135 119 0 0
4.3549 10.2243 -0.5586 -0.226 -0.709 0.668 175 119 99 0 0
4.9913 9.4800 -0.9273 -0.182 -0.770 0.612 171 120 98 0 0
6.4210 9.1614 -1.3561 -0.001 -0.866 0.500 248 248 246 0 0
6.6015 9.2392 -1.3754 -0.045 -0.687 0.725 247 247 245 0 0
6.7739 9.1418 -1.4445 -0.519 -0.850 -0.091 189 167 146 0 0
4.9727 7.6707 -1.4570 0.023 -0.995 -0.096 185 159 127 0 0
5.0598 7.5317 -1.5185 0.326 -0.819 0.472 205 182 150 0 0
5.0804 7.4674 -1.5423 -0.353 -0.441 0.825 218 196 164 0 0
5.4299 7.5645 -1.5954 0.347 -0.646 0.680 221 199 168 0 0
6.7099 7.3012 -1.9728 -0.674 -0.738 -0.035 183 167 142 0 0
6.8555 7.2537 -2.0210 -0.863 -0.427 -0.270 185 169 143 0 0
6.9360 7.2129 -2.0519 -0.394 -0.883 -0.254 193 179 153 0 0
3.5542 11.1631 -0.1142 -0.587 -0.321 0.744 196 151 131 0 0
3.6543 11.0686 -0.1655 -0.461 -0.298 0.836 173 122 102 0 0
4.0115 10.5850 -0.3919 -0.595 -0.331 0.732 192 144 125 0 0
4.0415 10.5661 -0.4046 -0.408 -0.439 0.800 203 152 137 0 0
4.1975 10.3752 -0.4975 -0.387 -0.444 0.808 186 139 118 0 0
4.3624 10.1674 -0.5974 -0.345 -0.538 0.769 170 118 97 0 0
4.4437 9.9772 -0.6726 -0.209 -0.647 0.734 190 143 127 0 0
4.4576 9.9661 -0.6791 -0.232 -0.698 0.678 186 139 123 0 0
4.5650 9.8492 -0.7387 -0.373 -0.493 0.786 185 134 112 0 0
4.9767 9.4767 -0.9453 -0.245 -0.699 0.672 172 122 98 0 0
5.0258 8.1963 -1.3336 -0.932 -0.187 0.311 247 246 245 0 0
6.7686 9.1471 -1.4643 -0.519 -0.850 -0.091 191 174 154 0 0
4.8857 7.5444 -1.4924 -0.959 0.212 0.189 231 213 184 0 0
4.8903 7.5281 -1.4983 -0.889 -0.336 0.312 233 216 187 0 0
5.0204 7.5141 -1.5330 -0.068 -0.441 0.895 229 210 181 0 0
5.1317 7.2390 -1.6402 -0.677 -0.564 0.473 231 212 182 0 0
6.6872 7.3171 -1.9835 -0.822 -0.426 -0.378 176 160 135 0 0
6.7096 7.3084 -1.9914 -0.710 -0.547 -0.444 176 160 135 0 0
6.7607 7.2738 -2.0136 -0.685 -0.654 -0.322 181 165 140 0 0
3.3876 11.8472 0.1058 -0.288 -0.377 0.880 245 245 243 0 0
3.3573 11.7511 0.0848 -0.139 -0.828 0.543 247 244 243 0 0
3.3739 11.7445 0.0789 -0.178 -0.810 0.558 247 244 242 0 0
3.5913 11.1113 -0.1583 -0.524 -0.468 0.711 181 134 112 0 0
3.6894 10.9881 -0.2176 -0.478 -0.451 0.754 197 147 127 0 0
3.9936 10.5760 -0.4105 -0.595 -0.331 0.732 200 154 136 0 0
3.9970 10.5544 -0.4177 -0.472 -0.475 0.743 197 151 135 0 0
4.0149 10.5480 -0.4238 -0.336 -0.445 0.830 192 144 129 0 0
4.0259 10.5343 -0.4304 -0.350 -0.505 0.789 198 148 132 0 0
4.4408 9.9356 -0.7043 -0.367 -0.691 0.623 164 118 101 0 0
4.4677 9.9126 -0.7174 -0.380 -0.602 0.703 188 141 123 0 0
4.4826 9.9025 -0.7239 -0.350 -0.701 0.622 162 114 97 0 0
4.5259 9.8945 -0.7365 -0.113 -0.909 0.402 178 127 106 0 0
4.5575 8.0154 -1.2950 -0.697 0.486 0.527 247 246 242 0 0
5.0837 8.2862 -1.3402 0.089 -0.386 0.918 247 247 245 0 0
4.9457 8.1275 -1.3541 0.140 -0.514 0.846 247 246 242 0 0
4.9239 8.0920 -1.3594 0.055 -0.446 0.893 247 246 241 0 0
4.7585 7.9172 -1.3714 0.032 -0.733 0.679 248 245 240 0 0
6.7117 9.1414 -1.4750 0.330 -0.943 0.035 243 238 227 0 0
6.7572 9.1483 -1.4838 0.050 -0.998 0.046 206 192 175 0 0
4.8836 7.5309 -1.5143 -0.889 -0.336 0.312 233 216 189 0 0
5.1077 7.2505 -1.6497 -0.749 -0.644 0.154 229 210 182 0 0
5.4168 6.8128 -1.8512 -0.909 0.053 -0.414 176 160 133 0 0
6.6852 7.3233 -2.0019 -0.858 -0.395 -0.327 176 160 135 0 0
6.7049 7.3132 -2.0096 -0.770 -0.476 -0.425 177 161 136 0 0
3.6703 10.9766 -0.2366 -0.478 -0.451 0.754 187 135 113 0 0
3.6769 10.9579 -0.2436 -0.478 -0.451 0.754 189 136 114 0 0
3.8631 10.7261 -0.3558 -0.358 -0.589 0.724 182 133 113 0 0
3.9603 10.5761 -0.4228 -0.535 -0.297 0.791 209 159 141 0 0
3.9695 10.5605 -0.4295 -0.591 -0.379 0.713 208 161 144 0 0
3.9741 10.5401 -0.4366 -0.591 -0.379 0.713 202 158 141 0 0
4.3832 9.9630 -0.7027 -0.251 -0.604 0.756 185 137 118 0 0
4.4234 9.9286 -0.7223 -0.468 -0.745 0.475 175 126 109 0 0
4.4417 9.9217 -0.7287 -0.699 -0.442 0.562 200 152 134 0 0
4.4475 9.9031 -0.7355 -0.521 -0.569 0.636 205 157 138 0 0
4.4564 9.8874 -0.7422 -0.521 -0.569 0.636 186 137 119 0 0
4.7948 8.0906 -1.3481 0.080 -0.401 0.913 246 246 244 0 0
4.8531 8.0503 -1.3737 0.168 -0.514 0.841 246 245 241 0 0
6.6835 9.1311 -1.4938 0.285 -0.957 0.042 246 238 226 0 0
4.8811 7.5364 -1.5306 -0.700 -0.554 0.450 231 214 188 0 0
4.8831 7.5185 -1.5363 -0.226 -0.856 0.465 233 216 189 0 0
5.3956 6.8263 -1.8607 -0.632 -0.679 -0.373 175 159 133 0 0
5.4068 6.8140 -1.8670 -0.966 0.235 -0.105 179 164 138 0 0
6.6883 7.3322 -2.0208 -0.858 -0.395 -0.327 180 164 139 0 0
6.7480 7.3427 -2.0319 -0.896 -0.289 -0.337 180 164 139 0 0
3.3476 11.7898 0.0574 -0.276 -0.273 0.921 245 244 241 0 0
3.4591 11.1878 -0.1446 -0.374 -0.553 0.744 188 142 119 0 0
3.6475 10.9608 -0.2559 -0.469 -0.462 0.753 175 121 100 0 0
3.6547 10.9429 -0.2628 -0.505 -0.437 0.744 175 120 99 0 0
3.6640 10.9275 -0.2696 -0.636 -0.186 0.749 184 129 108 0 0
3.6642 10.9016 -0.2772 -0.586 -0.267 0.765 175 121 100 0 0
3.6656 10.8772 -0.2846 -0.586 -0.267 0.765 186 134 113 0 0
3.9430 10.5676 -0.4412 -0.499 -0.401 0.768 208 156 137 0 0
3.9566 10.5568 -0.4477 -0.582 -0.356 0.731 203 153 135 0 0
3.9616 10.5368 -0.4547 -0.649 -0.366 0.667 192 143 127 0 0
3.9680 10.5183 -0.4616 -0.431 -0.487 0.760 201 154 138 0 0
3.9922 10.4684 -0.4819 -0.602 -0.360 0.713 193 147 129 0 0
4.4022 9.9181 -0.7405 -0.364 -0.767 0.528 172 119 102 0 0
4.4240 9.9144 -0.7468 -0.624 -0.537 0.567 182 130 111 0 0
4.4305 9.8965 -0.7535 -0.622 -0.474 0.623 196 145 125 0 0
4.4473 9.8404 -0.7739 -0.531 -0.704 0.471 198 149 130 0 0
4.7291 9.4567 -0.9532 -0.202 -0.875 0.440 206 159 139 0 0
4.6996 8.0310 -1.3615 -0.055 -0.307 0.950 246 245 242 0 0
6.6170 9.1423 -1.4970 -0.168 -0.749 0.641 240 227 210 0 0
6.6326 9.1292 -1.5046 -0.193 -0.691 0.697 236 221 202 0 0
6.6212 9.0976 -1.5111 -0.054 -0.620 0.782 236 221 201 0 0
4.8592 7.4912 -1.5570 -0.276 -0.914 0.296 232 215 189 0 0
5.1091 7.1339 -1.7209 -0.377 -0.917 -0.129 228 212 184 0 0
5.1256 7.1063 -1.7329 -0.694 -0.702 -0.159 235 219 194 0 0
5.2542 7.0870 -1.7694 -0.620 -0.563 0.546 234 217 191 0 0
5.3857 6.8276 -1.8764 -0.534 -0.701 -0.473 180 165 138 0 0
5.4053 6.8198 -1.8834 -0.966 -0.061 -0.252 178 164 137 0 0
3.3450 11.8832 0.0647 -0.471 -0.131 0.872 247 244 242 0 0
3.3145 11.3435 -0.0847 -0.367 -0.468 0.804 198 156 139 0 0
3.6354 10.9311 -0.2817 -0.469 -0.462 0.753 186 131 110 0 0
3.6471 10.8664 -0.3033 -0.777 -0.183 0.603 203 151 131 0 0
3.6949 10.8171 -0.3292 -0.547 -0.305 0.780 178 131 112 0 0
4.0190 10.4061 -0.5266 -0.245 -0.599 0.762 199 153 136 0 0
4.3893 9.9152 -0.7583 -0.224 -0.738 0.636 192 141 120 0 0
4.4043 9.9054 -0.7648 -0.483 -0.572 0.663 199 148 127 0 0
4.4120 9.8885 -0.7715 -0.421 -0.536 0.732 182 131 110 0 0
4.4253 9.8531 -0.7850 -0.468 -0.633 0.616 187 139 119 0 0
4.4347 9.8380 -0.7917 -0.531 -0.704 0.471 183 134 116 0 0
6.5887 9.0136 -1.5499 -0.521 0.065 0.851 231 215 188 0 0
4.6909 7.6580 -1.4864 -0.266 -0.964 0.008 232 215 187 0 0
4.8028 7.6351 -1.5200 -0.498 -0.459 0.736 234 219 190 0 0
4.9272 7.4265 -1.6105 -0.459 -0.766 0.450 231 214 187 0 0
5.1443 7.1053 -1.7561 -0.344 -0.630 0.696 231 216 191 0 0
5.3685 6.8249 -1.8915 -0.189 -0.980 -0.055 204 189 160 0 0
5.3943 6.8205 -1.8990 -0.621 -0.595 0.510 192 178 151 0 0
5.4335 6.7140 -1.9394 -0.355 -0.859 -0.368 170 154 128 0 0
5.4397 6.6812 -1.9504 -0.956 0.091 -0.278 183 167 142 0 0
3.2419 11.6467 0.0007 -0.006 -0.790 0.614 191 167 161 0 0
3.2919 11.2991 -0.1121 -0.196 -0.694 0.692 183 140 123 0 0
3.5193 11.0160 -0.2491 -0.428 -0.387 0.817 192 143 121 0 0
3.6101 10.8603 -0.3161 -0.547 -0.651 0.526 192 138 118 0 0
3.6198 10.8455 -0.3228 -0.505 -0.861 -0.058 186 133 115 0 0
3.6852 10.7649 -0.3620 -0.400 -0.650 0.646 200 149 129 0 0
3.7160 10.7480 -0.3743 -0.301 -0.512 0.805 188 140 119 0 0
3.9845 10.4049 -0.5386 -0.245 -0.599 0.762 189 140 123 0 0
4.3474 9.8851 -0.7770 -0.257 -0.621 0.741 184 133 112 0 0
4.3943 9.8574 -0.7964 -0.303 -0.714 0.631 200 149 128 0 0
4.4682 9.7119 -0.8564 -0.294 -0.579 0.761 187 141 121 0 0
4.5050 9.6746 -0.8761 -0.313 -0.487 0.815 178 130 109 0 0
4.5361 8.1102 -1.3364 -0.251 -0.509 0.823 243 244 239 0 0
4.5191 8.0778 -1.3416 -0.235 -0.257 0.937 243 244 240 0 0
4.5619 8.0285 -1.3663 -0.119 -0.295 0.948 247 244 240 0 0
4.6690 7.7281 -1.4792 -0.206 -0.872 0.445 233 217 189 0 0
4.6803 7.7163 -1.4853 -0.748 -0.592 0.301 234 217 190 0 0
5.0414 7.2011 -1.7219 -0.256 -0.863 0.435 232 213 185 0 0
5.1758 7.0189 -1.8072 -0.937 -0.272 -0.220 233 216 191 0 0
5.1897 7.0083 -1.8136 -0.669 -0.743 0.009 232 214 189 0 0
5.1903 6.9903 -1.8190 -0.727 -0.629 0.275 233 216 190 0 0
5.1992 6.9768 -1.8250 -0.632 -0.645 0.430 231 214 186 0 0
5.1880 6.9339 -1.8347 -0.688 -0.360 0.630 227 210 182 0 0
5.3572 6.8255 -1.9071 -0.089 -0.992 0.094 227 211 182 0 0
5.4341 6.7209 -1.9560 -0.355 -0.859 -0.368 178 159 133 0 0
5.4370 6.7043 -1.9615 -0.857 -0.218 -0.468 179 162 135 0 0
5.4425 6.6891 -1.9672 -0.926 -0.030 0.376 181 164 138 0 0
3.4073 11.1306 -0.2087 -0.291 -0.641 0.710 189 140 118 0 0
3.4109 11.1085 -0.2160 -0.385 -0.474 0.792 206 156 135 0 0
3.4712 11.0221 -0.2556 -0.405 -0.216 0.888 193 145 124 0 0
3.9497 10.4033 -0.5506 -0.394 -0.426 0.814 177 129 110 0 0
4.2971 9.8470 -0.7958 -0.354 -0.859 0.370 177 126 106 0 0
4.3164 9.8413 -0.8021 -0.274 -0.887 0.372 178 127 106 0 0
4.3358 9.8357 -0.8084 -0.442 -0.839 0.318 197 146 125 0 0
4.4451 9.7000 -0.8742 -0.303 -0.574 0.760 181 133 113 0 0
4.4578 8.1211 -1.3327 -0.094 -0.772 0.628 242 243 238 0 0
4.9317 7.3107 -1.6819 -0.481 -0.803 0.352 225 208 180 0 0
4.9566 7.2507 -1.7053 -0.436 -0.574 0.693 231 211 184 0 0
5.0618 7.1453 -1.7613 -0.224 -0.871 0.438 232 215 187 0 0
5.0870 7.1414 -1.7686 -0.346 -0.892 0.291 228 211 183 0 0
5.1660 6.9649 -1.8388 -0.683 -0.430 0.590 233 216 188 0 0
5.1778 6.9166 -1.8556 -0.655 -0.426 0.624 231 214 187 0 0
5.4340 6.7273 -1.9726 -0.380 -0.864 -0.331 190 173 145 0 0
5.4479 6.7165 -1.9791 -0.940 -0.242 -0.240 191 174 146 0 0
5.4381 6.6933 -1.9834 -0.954 -0.159 0.255 187 171 144 0 0
5.3876 6.6313 -1.9890 -0.542 -0.536 0.647 184 168 142 0 0
5.5438 6.6754 -2.0143 0.134 -0.453 0.881 181 165 140 0 0
5.5669 6.6691 -2.0217 0.115 -0.400 0.909 186 170 147 0 0
3.2063 11.7913 0.0105 -0.477 -0.237 0.846 245 244 242 0 0
3.1902 11.6298 -0.0320 -0.402 -0.734 0.547 166 137 133 0 0
3.2027 11.6182 -0.0384 -0.402 -0.734 0.547 136 92 82 0 0
3.2169 11.4984 -0.0763 -0.517 -0.189 0.835 198 151 131 0 0
3.2168 11.4708 -0.0842 -0.453 -0.216 0.865 201 153 132 0 0
