ply
format ascii 1.0
element vertex 826
property float x
property float y
property float z
property float nx
property float ny
property float nz
property uchar diffuse_red
property uchar diffuse_green
property uchar diffuse_blue
property uchar class
property uchar detection
end_header
5.2108 10.3592 -0.2880 0.451 -0.543 0.709 184 132 116 0 0
5.2270 10.3703 -0.2807 0.438 -0.619 0.652 179 130 113 0 0
5.5343 10.4336 -0.1452 -0.494 -0.824 -0.277 185 132 111 0 0
5.5523 10.4273 -0.1374 0.328 -0.817 0.474 184 131 110 0 0
5.5687 10.4381 -0.1301 0.328 -0.817 0.474 184 131 111 0 0
5.6739 10.4238 -0.0840 -0.235 -0.599 0.766 194 144 125 0 0
6.4236 10.5799 0.2466 0.012 -0.651 0.759 194 148 129 0 0
6.4406 10.5883 0.2541 0.280 -0.630 0.724 194 148 128 0 0
6.4575 10.6045 0.2617 0.280 -0.630 0.724 204 157 138 0 0
6.5083 10.6511 0.2845 0.087 -0.519 0.851 194 146 125 0 0
6.5252 10.6834 0.2922 0.194 -0.391 0.900 197 149 129 0 0
1.8894 9.3548 -1.7761 -0.271 -0.599 0.754 204 156 135 0 0
2.2749 9.4201 -1.6062 -0.406 -0.625 0.666 169 116 98 0 0
2.6328 9.5614 -1.4478 -0.302 -0.625 0.720 182 129 111 0 0
2.6696 9.5583 -1.4317 -0.340 -0.644 0.685 175 124 106 0 0
2.7718 9.5714 -1.3866 -0.399 -0.677 0.619 179 126 107 0 0
3.2595 9.7103 -1.1712 -0.329 -0.709 0.624 188 139 121 0 0
3.4868 9.8459 -1.0702 -0.430 -0.670 0.605 188 137 118 0 0
3.5435 9.8325 -1.0454 -0.379 -0.636 0.672 170 117 97 0 0
3.5620 9.8297 -1.0374 0.024 -0.617 0.787 194 142 121 0 0
3.5935 9.8443 -1.0234 -0.088 -0.698 0.710 165 110 90 0 0
3.6120 9.8408 -1.0153 -0.544 -0.809 0.222 166 114 94 0 0
3.6288 9.8442 -1.0079 -0.156 -0.784 0.601 167 116 97 0 0
3.6459 9.8466 -1.0004 -0.156 -0.784 0.601 182 131 112 0 0
3.8741 9.9224 -0.8995 -0.153 -0.581 0.799 190 141 122 0 0
3.8901 9.9291 -0.8924 -0.170 -0.589 0.790 184 135 117 0 0
3.9898 9.9551 -0.8484 -0.259 -0.619 0.742 189 139 123 0 0
4.1860 10.0238 -0.7616 -0.016 -0.593 0.805 186 136 119 0 0
4.8594 10.1736 -0.4646 -0.108 -0.541 0.834 190 139 117 0 0
4.9116 10.1736 -0.4417 -0.159 -0.608 0.778 180 127 108 0 0
4.9623 10.1833 -0.4193 -0.204 -0.674 0.709 190 137 119 0 0
5.2059 10.3179 -0.3111 0.300 -0.492 0.817 176 120 100 0 0
5.2488 10.2484 -0.2929 -0.173 -0.582 0.795 192 139 121 0 0
5.4155 10.3062 -0.2192 -0.514 -0.710 0.481 185 133 112 0 0
5.4335 10.2984 -0.2113 -0.514 -0.710 0.481 167 113 95 0 0
5.4518 10.2883 -0.2034 -0.177 -0.759 0.627 172 119 99 0 0
5.4686 10.2926 -0.1960 -0.090 -0.770 0.632 185 132 111 0 0
5.4857 10.2944 -0.1885 0.150 -0.735 0.661 176 125 106 0 0
5.5019 10.3047 -0.1812 0.096 -0.726 0.681 183 131 113 0 0
6.0057 10.4831 0.0416 -0.101 -0.625 0.774 196 145 124 0 0
6.3979 10.5419 0.2143 -0.040 -0.704 0.709 203 157 139 0 0
6.4148 10.5486 0.2218 0.228 -0.656 0.719 203 157 139 0 0
6.4317 10.5602 0.2293 -0.196 -0.671 0.715 193 146 128 0 0
6.5166 10.6070 0.2670 -0.068 -0.429 0.901 204 156 136 0 0
6.5335 10.6264 0.2746 0.116 -0.389 0.914 201 153 133 0 0
1.9418 9.3328 -1.7733 -0.320 -0.744 0.586 167 114 92 0 0
2.0099 9.3844 -1.7430 -0.049 -0.686 0.726 178 122 98 0 0
2.2751 9.3922 -1.6264 -0.038 -0.609 0.792 180 124 104 0 0
2.7842 9.5563 -1.4015 -0.295 -0.838 0.460 200 151 134 0 0
2.8026 9.5543 -1.3934 -0.317 -0.833 0.453 203 153 136 0 0
3.2541 9.6937 -1.1940 -0.350 -0.791 0.502 186 137 118 0 0
3.2726 9.6907 -1.1859 -0.350 -0.791 0.502 168 119 99 0 0
3.4297 9.7587 -1.1163 -0.350 -0.681 0.643 178 131 115 0 0
3.5548 9.8181 -1.0609 -0.348 -0.731 0.587 188 137 117 0 0
3.5743 9.8110 -1.0524 0.024 -0.617 0.787 176 124 104 0 0
3.5904 9.8168 -1.0453 -0.125 -0.614 0.780 188 134 113 0 0
3.6053 9.8273 -1.0387 -0.088 -0.698 0.710 180 126 105 0 0
3.7546 9.8642 -0.9728 -0.320 -0.864 0.388 176 124 105 0 0
3.9834 9.9385 -0.8717 -0.067 -0.615 0.785 186 135 118 0 0
4.1329 9.9780 -0.8057 -0.219 -0.606 0.765 186 133 115 0 0
4.1844 9.9835 -0.7831 -0.172 -0.583 0.794 172 122 103 0 0
4.2197 9.9824 -0.7676 -0.210 -0.549 0.809 192 140 121 0 0
4.8720 10.1398 -0.4798 -0.284 -0.523 0.804 185 134 114 0 0
5.1073 10.1932 -0.3760 0.135 -0.493 0.859 194 142 121 0 0
5.1532 10.2422 -0.3555 -0.229 -0.601 0.766 181 130 111 0 0
5.4605 10.2771 -0.2201 -0.149 -0.660 0.736 171 120 101 0 0
5.4781 10.2732 -0.2124 -0.020 -0.684 0.729 158 107 88 0 0
5.5116 10.2831 -0.1976 -0.136 -0.643 0.754 181 128 109 0 0
6.2508 10.5657 0.1293 0.307 -0.515 0.801 200 152 134 0 0
6.4060 10.5227 0.1971 -0.079 -0.639 0.765 209 163 147 0 0
6.4229 10.5294 0.2046 0.034 -0.595 0.803 192 147 129 0 0
6.4570 10.5275 0.2196 -0.352 -0.720 0.598 192 147 128 0 0
6.5416 10.5880 0.2572 0.116 -0.389 0.914 199 150 133 0 0
1.9578 9.3118 -1.7864 -0.350 -0.734 0.582 174 119 98 0 0
2.0468 9.3558 -1.7470 -0.228 -0.589 0.776 174 121 100 0 0
2.1993 9.3320 -1.6801 -0.101 -0.749 0.655 184 130 109 0 0
2.2766 9.3614 -1.6459 -0.107 -0.676 0.729 162 101 82 0 0
2.7822 9.5314 -1.4226 -0.152 -0.617 0.772 182 130 112 0 0
2.7991 9.5338 -1.4152 -0.208 -0.675 0.708 189 139 123 0 0
2.8157 9.5372 -1.4079 -0.274 -0.703 0.656 192 140 126 0 0
3.2185 9.6599 -1.2300 0.014 -0.699 0.715 188 141 125 0 0
3.2326 9.6716 -1.2237 0.334 -0.670 0.663 171 124 108 0 0
3.3220 9.6673 -1.1845 -0.267 -0.958 0.100 183 134 114 0 0
3.3392 9.6687 -1.1769 0.141 -0.981 0.136 181 132 113 0 0
3.4288 9.7251 -1.1372 -0.226 -0.811 0.540 174 127 112 0 0
3.4470 9.7230 -1.1292 -0.150 -0.883 0.444 186 139 123 0 0
3.4633 9.7275 -1.1220 -0.041 -0.703 0.710 179 132 114 0 0
3.7058 9.8079 -1.0149 -0.067 -0.536 0.842 183 132 113 0 0
4.9025 10.1018 -0.4870 -0.265 -0.667 0.696 175 124 105 0 0
5.0006 10.1415 -0.4436 -0.245 -0.663 0.708 183 132 113 0 0
5.0350 10.1428 -0.4285 -0.174 -0.683 0.709 172 117 96 0 0
5.0526 10.1406 -0.4207 -0.387 -0.813 0.434 184 128 106 0 0
5.0701 10.1389 -0.4131 -0.291 -0.869 0.401 178 123 100 0 0
5.0865 10.1454 -0.4058 -0.086 -0.733 0.675 200 145 124 0 0
5.1462 10.2199 -0.3792 -0.139 -0.620 0.772 184 133 114 0 0
5.1631 10.2230 -0.3717 -0.147 -0.635 0.758 187 135 116 0 0
5.1958 10.2392 -0.3572 0.081 -0.621 0.780 175 124 103 0 0
5.3853 10.2439 -0.2738 0.254 -0.594 0.763 199 143 124 0 0
5.4870 10.2593 -0.2290 -0.208 -0.649 0.732 179 128 109 0 0
5.5040 10.2623 -0.2216 -0.208 -0.649 0.732 167 115 94 0 0
5.6998 10.3886 -0.1348 0.174 -0.722 0.670 174 121 100 0 0
5.9082 10.3551 -0.0433 -0.213 -0.607 0.766 201 153 135 0 0
6.1593 10.4639 0.0677 -0.229 -0.581 0.781 187 135 114 0 0
6.1765 10.4592 0.0753 0.084 -0.668 0.740 152 99 78 0 0
6.2593 10.5436 0.1122 0.343 -0.522 0.781 186 137 120 0 0
6.4141 10.5014 0.1800 -0.104 -0.636 0.765 198 152 136 0 0
6.4310 10.5067 0.1875 0.034 -0.595 0.803 187 141 125 0 0
6.4479 10.5144 0.1950 -0.336 -0.627 0.703 177 132 113 0 0
6.4650 10.5094 0.2025 -0.352 -0.720 0.598 188 143 124 0 0
6.4819 10.5227 0.2099 -0.215 -0.612 0.761 186 139 121 0 0
1.6170 9.2060 -1.9568 0.091 -0.762 0.642 185 134 113 0 0
2.3369 9.3617 -1.6394 0.105 -0.701 0.706 181 132 112 0 0
2.5132 9.4595 -1.5614 -0.205 -0.697 0.687 178 126 105 0 0
2.5568 9.4373 -1.5423 0.511 -0.762 0.399 170 118 97 0 0
2.5699 9.4501 -1.5365 0.324 -0.698 0.638 165 114 93 0 0
3.2955 9.6625 -1.2163 -0.325 -0.943 0.069 144 89 69 0 0
3.3314 9.6602 -1.2005 -0.193 -0.977 0.089 197 143 123 0 0
3.3469 9.6675 -1.1937 0.141 -0.981 0.136 198 145 127 0 0
3.4028 9.7184 -1.1689 -0.524 -0.773 0.357 179 130 113 0 0
4.1768 9.9241 -0.8274 0.098 -0.648 0.755 173 122 103 0 0
4.1941 9.9246 -0.8198 -0.449 -0.766 0.460 181 130 111 0 0
4.2126 9.9198 -0.8117 -0.427 -0.787 0.446 168 117 99 0 0
4.8944 10.0900 -0.5109 -0.350 -0.837 0.420 176 124 103 0 0
4.9122 10.0865 -0.5031 -0.350 -0.837 0.420 174 123 103 0 0
4.9466 10.0878 -0.4880 -0.100 -0.576 0.812 188 137 118 0 0
4.9961 10.1038 -0.4661 -0.167 -0.666 0.727 181 130 111 0 0
5.0127 10.1083 -0.4588 0.155 -0.897 0.414 184 132 111 0 0
5.0452 10.1236 -0.4445 -0.174 -0.683 0.709 180 127 105 0 0
5.0624 10.1238 -0.4369 -0.218 -0.879 0.425 161 106 84 0 0
5.0790 10.1283 -0.4295 -0.291 -0.869 0.401 183 131 109 0 0
5.0963 10.1280 -0.4219 -0.102 -0.822 0.560 185 133 112 0 0
5.1739 10.1971 -0.3875 -0.228 -0.619 0.751 180 128 110 0 0
5.2048 10.2275 -0.3738 -0.035 -0.570 0.821 199 148 130 0 0
5.6765 10.3438 -0.1658 0.347 -0.699 0.625 192 141 120 0 0
5.7080 10.3813 -0.1517 0.220 -0.805 0.552 179 128 106 0 0
6.1849 10.4412 0.0584 0.029 -0.644 0.765 178 124 103 0 0
6.2016 10.4518 0.0658 0.084 -0.668 0.740 173 121 100 0 0
6.2678 10.5198 0.0952 0.340 -0.564 0.753 191 142 125 0 0
6.4223 10.4786 0.1630 0.004 -0.631 0.776 194 149 130 0 0
6.4391 10.4842 0.1704 0.034 -0.595 0.803 193 148 129 0 0
6.4560 10.4923 0.1779 -0.236 -0.671 0.703 200 155 136 0 0
6.4729 10.4966 0.1854 -0.181 -0.653 0.735 197 152 133 0 0
6.4899 10.4959 0.1928 -0.239 -0.678 0.695 190 143 125 0 0
6.5911 10.6373 0.2379 -0.017 -0.363 0.932 193 145 124 0 0
1.6325 9.1878 -1.9700 0.147 -0.816 0.559 181 130 111 0 0
2.5500 9.4272 -1.5654 0.090 -0.813 0.576 195 144 123 0 0
2.5675 9.4278 -1.5576 0.670 -0.598 0.441 171 120 99 0 0
2.5810 9.4395 -1.5517 0.321 -0.716 0.620 156 105 84 0 0
2.6952 9.4667 -1.5013 -0.331 -0.794 0.509 177 122 102 0 0
2.7146 9.4617 -1.4928 -0.392 -0.782 0.485 183 128 107 0 0
3.3288 9.6338 -1.2219 -0.341 -0.806 0.484 188 133 112 0 0
3.3423 9.6476 -1.2159 -0.461 -0.825 0.327 184 129 110 0 0
3.3602 9.6467 -1.2080 -0.148 -0.780 0.608 186 132 114 0 0
4.4754 9.9476 -0.7162 -0.158 -0.598 0.786 170 121 105 0 0
4.5580 9.9700 -0.6797 -0.333 -0.610 0.719 191 141 124 0 0
4.5739 9.9778 -0.6727 -0.254 -0.574 0.778 187 136 117 0 0
4.6214 10.0034 -0.6517 0.252 -0.783 0.569 188 138 121 0 0
4.6366 10.0160 -0.6450 -0.129 -0.694 0.709 187 137 122 0 0
4.6885 10.0166 -0.6222 -0.504 -0.764 0.402 181 130 107 0 0
4.7197 10.0378 -0.6084 0.284 -0.671 0.685 164 112 90 0 0
4.9416 10.0550 -0.5106 -0.359 -0.615 0.702 197 146 126 0 0
4.9590 10.0536 -0.5029 -0.359 -0.615 0.702 180 131 111 0 0
4.9764 10.0522 -0.4953 -0.376 -0.617 0.691 181 131 112 0 0
5.0064 10.0839 -0.4820 0.099 -0.625 0.774 186 135 115 0 0
5.0227 10.0906 -0.4748 -0.001 -0.721 0.693 183 130 109 0 0
5.0387 10.0993 -0.4677 -0.021 -0.633 0.774 187 135 114 0 0
5.0551 10.1054 -0.4605 -0.212 -0.697 0.685 184 131 110 0 0
5.0719 10.1086 -0.4531 -0.322 -0.792 0.519 174 121 99 0 0
5.1500 10.1721 -0.4185 -0.161 -0.681 0.715 187 135 117 0 0
5.1656 10.1860 -0.4117 -0.021 -0.657 0.753 186 135 117 0 0
5.3421 10.1473 -0.3340 -0.231 -0.582 0.780 187 138 118 0 0
5.4073 10.1784 -0.3052 0.066 -0.715 0.696 179 129 110 0 0
5.4236 10.1865 -0.2980 -0.003 -0.597 0.802 187 135 116 0 0
5.5574 10.2193 -0.2390 -0.310 -0.626 0.715 147 92 72 0 0
5.6533 10.3006 -0.1966 0.152 -0.520 0.841 188 138 118 0 0
5.6699 10.3070 -0.1893 0.314 -0.652 0.690 193 141 122 0 0
5.7011 10.3471 -0.1754 0.321 -0.745 0.585 194 142 121 0 0
5.8091 10.2755 -0.1280 -0.045 -0.725 0.687 184 135 117 0 0
5.8266 10.2678 -0.1203 0.272 -0.655 0.705 201 152 134 0 0
6.1933 10.4236 0.0415 0.084 -0.621 0.779 191 138 117 0 0
6.2099 10.4367 0.0488 0.356 -0.598 0.718 186 135 113 0 0
6.2263 10.4538 0.0561 0.337 -0.594 0.730 206 155 134 0 0
6.2429 10.4692 0.0635 0.363 -0.640 0.677 189 141 121 0 0
6.2597 10.4785 0.0709 0.282 -0.762 0.583 200 151 134 0 0
6.2961 10.3965 0.0867 -0.075 -0.745 0.663 201 153 133 0 0
6.3129 10.4014 0.0942 -0.075 -0.745 0.663 194 146 126 0 0
6.4134 10.4585 0.1385 -0.264 -0.702 0.661 189 142 124 0 0
6.4303 10.4576 0.1460 -0.026 -0.706 0.708 194 147 129 0 0
6.4640 10.4723 0.1609 -0.290 -0.712 0.640 188 142 123 0 0
6.4810 10.4721 0.1683 -0.290 -0.712 0.640 190 145 126 0 0
6.5650 10.5783 0.2056 0.127 -0.498 0.858 187 139 118 0 0
1.0328 9.4616 -2.2542 -0.843 -0.538 -0.017 246 245 243 0 0
3.3372 9.6299 -1.2383 -0.412 -0.782 0.468 160 105 85 0 0
3.3532 9.6355 -1.2313 -0.461 -0.825 0.327 164 108 91 0 0
3.3705 9.6362 -1.2236 -0.113 -0.807 0.579 179 124 106 0 0
4.4862 9.9295 -0.7317 -0.089 -0.737 0.670 167 116 97 0 0
4.5030 9.9320 -0.7243 0.107 -0.743 0.661 179 128 110 0 0
4.5193 9.9375 -0.7171 -0.022 -0.720 0.694 184 135 116 0 0
4.6320 9.9854 -0.6674 -0.111 -0.952 0.286 188 135 118 0 0
4.6482 9.9922 -0.6603 -0.135 -0.769 0.624 194 142 125 0 0
4.6836 9.9870 -0.6446 -0.066 -0.957 0.283 189 136 116 0 0
4.7007 9.9880 -0.6371 -0.066 -0.957 0.283 176 120 98 0 0
4.7174 9.9916 -0.6297 0.419 -0.706 0.571 184 129 108 0 0
4.7322 10.0068 -0.6232 0.802 -0.501 0.325 194 138 118 0 0
4.7462 10.0274 -0.6170 0.623 -0.501 0.601 179 124 104 0 0
4.9690 10.0360 -0.5188 -0.201 -0.574 0.794 179 126 106 0 0
4.9857 10.0393 -0.5115 -0.197 -0.594 0.780 187 135 114 0 0
5.0978 10.1002 -0.4620 -0.284 -0.658 0.698 171 116 95 0 0
5.1157 10.0946 -0.4541 -0.397 -0.646 0.653 185 130 110 0 0
5.1460 10.1270 -0.4408 0.193 -0.714 0.673 184 129 109 0 0
5.1624 10.1332 -0.4335 0.035 -0.808 0.589 189 138 117 0 0
5.1946 10.1516 -0.4193 -0.051 -0.826 0.561 189 138 117 0 0
5.2685 10.1069 -0.3867 -0.219 -0.690 0.690 199 146 125 0 0
5.6634 10.2692 -0.2126 0.261 -0.604 0.753 188 139 120 0 0
5.6792 10.2867 -0.2057 0.348 -0.600 0.720 193 143 121 0 0
5.6950 10.3028 -0.1987 0.400 -0.660 0.635 195 143 122 0 0
5.7109 10.3196 -0.1917 -0.312 -0.569 0.761 188 136 115 0 0
5.8022 10.2388 -0.1514 -0.262 -0.635 0.727 196 147 129 0 0
5.8360 10.2415 -0.1365 -0.084 -0.704 0.705 191 142 123 0 0
6.0036 10.2761 -0.0627 -0.266 -0.630 0.730 177 129 109 0 0
6.0200 10.2872 -0.0554 -0.274 -0.595 0.756 183 135 115 0 0
6.1854 10.3838 0.0175 0.117 -0.623 0.773 189 138 115 0 0
6.2020 10.3946 0.0249 0.017 -0.590 0.807 195 145 123 0 0
6.2183 10.4155 0.0320 0.270 -0.544 0.794 192 144 122 0 0
6.2352 10.4199 0.0395 0.168 -0.547 0.820 186 138 118 0 0
6.2517 10.4352 0.0468 0.179 -0.576 0.798 196 149 131 0 0
6.2686 10.4370 0.0542 0.028 -0.610 0.792 200 153 135 0 0
6.3045 10.3694 0.0700 -0.052 -0.654 0.755 205 158 138 0 0
6.3212 10.3766 0.0774 -0.052 -0.654 0.755 199 152 132 0 0
6.4214 10.4387 0.1216 -0.109 -0.615 0.781 194 148 127 0 0
6.4382 10.4451 0.1290 -0.109 -0.615 0.781 188 143 124 0 0
6.4889 10.4528 0.1514 -0.268 -0.607 0.748 198 153 134 0 0
6.5731 10.5247 0.1885 0.328 -0.577 0.748 175 128 108 0 0
6.5899 10.5465 0.1959 -0.082 -0.558 0.826 180 130 109 0 0
6.6069 10.5636 0.2034 -0.146 -0.499 0.854 199 147 125 0 0
1.7933 9.1397 -1.9389 -0.177 -0.683 0.709 170 119 97 0 0
1.8466 9.1395 -1.9153 0.282 -0.784 0.553 183 131 110 0 0
1.8669 9.1338 -1.9064 -0.035 -0.689 0.724 180 129 108 0 0
2.6951 9.4076 -1.5414 -0.210 -0.653 0.727 175 118 99 0 0
2.7112 9.4119 -1.5343 -0.286 -0.778 0.560 153 95 76 0 0
2.9040 9.4653 -1.4493 -0.237 -0.585 0.776 176 124 104 0 0
3.3643 9.6221 -1.2464 -0.255 -0.662 0.705 167 113 95 0 0
3.4650 9.6375 -1.2020 -0.364 -0.647 0.670 159 107 89 0 0
3.7918 9.7222 -1.0580 0.253 -0.557 0.791 175 122 104 0 0
3.8089 9.7232 -1.0504 0.181 -0.750 0.636 177 124 106 0 0
4.3380 9.8394 -0.8172 -0.194 -0.649 0.736 186 134 113 0 0
4.3538 9.8466 -0.8102 -0.280 -0.621 0.732 192 140 120 0 0
4.3694 9.8554 -0.8034 -0.094 -0.563 0.821 192 141 122 0 0
4.3841 9.8685 -0.7969 -0.216 -0.638 0.739 178 127 108 0 0
4.4008 9.8714 -0.7895 -0.216 -0.638 0.739 169 118 99 0 0
4.4184 9.8698 -0.7818 -0.332 -0.624 0.708 161 110 94 0 0
4.6413 9.9745 -0.6835 -0.135 -0.769 0.624 169 116 97 0 0
4.6923 9.9800 -0.6611 -0.104 -0.921 0.376 190 133 113 0 0
4.7098 9.9784 -0.6534 0.144 -0.813 0.564 181 125 102 0 0
4.7558 10.0140 -0.6331 0.423 -0.666 0.615 178 125 104 0 0
4.8156 9.9625 -0.6067 0.025 -0.644 0.764 184 132 111 0 0
4.8326 9.9637 -0.5992 0.007 -0.680 0.733 188 135 115 0 0
4.9965 10.0154 -0.5269 -0.197 -0.594 0.780 172 120 99 0 0
5.0121 10.0265 -0.5200 0.075 -0.544 0.836 176 124 103 0 0
5.1244 10.0854 -0.4706 0.705 -0.709 0.040 181 126 106 0 0
5.1396 10.1009 -0.4639 0.705 -0.709 0.040 169 114 94 0 0
5.1565 10.1036 -0.4565 0.449 -0.786 0.424 167 112 92 0 0
5.1718 10.1187 -0.4497 0.044 -0.754 0.655 170 117 96 0 0
5.2440 10.0888 -0.4178 -0.366 -0.638 0.677 186 132 111 0 0
5.4932 10.1543 -0.3080 -0.268 -0.579 0.770 185 134 113 0 0
5.6244 10.2131 -0.2502 -0.133 -0.702 0.700 193 144 126 0 0
5.6411 10.2174 -0.2428 -0.070 -0.753 0.654 180 130 112 0 0
5.6728 10.2470 -0.2288 0.369 -0.519 0.771 186 135 116 0 0
5.6885 10.2649 -0.2220 0.375 -0.525 0.764 181 131 109 0 0
5.7204 10.2947 -0.2079 -0.297 -0.459 0.837 193 141 120 0 0
5.7541 10.3027 -0.1931 -0.441 -0.556 0.704 188 141 118 0 0
5.7705 10.3126 -0.1859 -0.032 -0.448 0.894 191 141 119 0 0
5.8111 10.2199 -0.1678 -0.190 -0.683 0.705 185 135 116 0 0
5.8279 10.2230 -0.1604 -0.095 -0.649 0.754 177 127 106 0 0
6.0921 10.3578 -0.0440 -0.381 -0.620 0.686 187 135 114 0 0
6.1086 10.3711 -0.0368 -0.503 -0.577 0.643 188 136 115 0 0
6.1938 10.3647 0.0008 0.117 -0.623 0.773 180 128 105 0 0
6.2267 10.3951 0.0153 0.270 -0.544 0.794 195 147 125 0 0
6.5809 10.5071 0.1714 0.328 -0.577 0.748 190 141 120 0 0
6.5978 10.5204 0.1788 -0.157 -0.831 0.533 172 120 99 0 0
6.6147 10.5265 0.1863 -0.216 -0.583 0.783 172 121 99 0 0
6.6317 10.5315 0.1938 -0.122 -0.674 0.729 197 147 125 0 0
6.6487 10.5668 0.2012 -0.171 -0.474 0.864 194 143 123 0 0
6.7690 10.7140 0.2541 -0.608 -0.597 0.524 177 137 124 0 0
1.8207 9.1337 -1.9465 -0.290 -0.673 0.680 175 120 98 0 0
2.8002 9.3787 -1.5149 0.325 -0.649 0.688 169 115 92 0 0
3.1656 9.4917 -1.3539 -0.117 -0.673 0.730 177 121 99 0 0
3.1819 9.4954 -1.3467 -0.204 -0.723 0.661 188 132 109 0 0
3.4783 9.6157 -1.2162 -0.293 -0.705 0.646 167 114 95 0 0
3.5465 9.6216 -1.1861 -0.222 -0.612 0.759 171 117 97 0 0
3.5796 9.6279 -1.1715 -0.168 -0.577 0.800 168 113 95 0 0
3.6646 9.6354 -1.1340 -0.097 -0.652 0.752 181 129 110 0 0
3.6813 9.6378 -1.1266 -0.044 -0.630 0.775 179 123 103 0 0
3.6960 9.6484 -1.1202 -0.247 -0.635 0.732 173 117 97 0 0
3.7216 9.6164 -1.1088 -0.239 -0.607 0.758 191 136 116 0 0
3.7368 9.6243 -1.1021 -0.076 -0.725 0.685 191 138 117 0 0
3.7495 9.6428 -1.0966 -0.237 -0.861 0.450 171 118 97 0 0
3.7665 9.6441 -1.0891 -0.077 -0.943 0.324 166 112 93 0 0
3.8025 9.7083 -1.0733 0.063 -0.862 -0.503 186 133 115 0 0
4.3956 9.8473 -0.8119 -0.216 -0.638 0.739 170 119 99 0 0
4.4298 9.8490 -0.7968 -0.424 -0.631 0.650 181 130 113 0 0
4.6863 9.9569 -0.6839 -0.104 -0.685 0.721 188 132 111 0 0
4.7018 9.9673 -0.6771 0.102 -0.619 0.779 186 129 106 0 0
4.7208 9.9568 -0.6687 0.512 -0.590 0.625 176 117 94 0 0
4.7639 10.0103 -0.6498 0.670 -0.592 0.447 166 110 88 0 0
4.8426 9.9468 -0.6149 0.007 -0.680 0.733 176 118 96 0 0
4.8586 9.9544 -0.6078 0.045 -0.716 0.696 162 102 82 0 0
5.1485 10.0903 -0.4803 0.210 -0.747 0.631 173 117 97 0 0
5.1645 10.0995 -0.4732 0.024 -0.795 0.606 155 98 79 0 0
5.1813 10.1025 -0.4658 -0.101 -0.672 0.733 177 122 102 0 0
5.2121 10.1316 -0.4523 0.401 -0.794 0.457 181 127 106 0 0
5.2281 10.1419 -0.4453 -0.363 -0.734 0.574 178 123 103 0 0
5.2541 10.0663 -0.4336 -0.585 -0.708 0.395 184 127 108 0 0
5.8031 10.2002 -0.1916 -0.126 -0.618 0.776 190 138 119 0 0
5.8200 10.2002 -0.1841 -0.184 -0.684 0.706 189 138 118 0 0
5.9211 10.2077 -0.1395 -0.247 -0.686 0.684 195 144 125 0 0
5.9383 10.2015 -0.1319 -0.234 -0.706 0.668 181 130 111 0 0
6.2354 10.3617 -0.0012 0.228 -0.445 0.866 191 140 119 0 0
6.4211 10.3683 0.0807 0.076 -0.564 0.822 196 145 123 0 0
6.4379 10.3693 0.0882 0.141 -0.593 0.793 193 144 122 0 0
6.4544 10.3961 0.0953 -0.122 -0.595 0.794 183 135 115 0 0
6.7598 10.7236 0.2292 0.188 -0.492 0.850 199 153 133 0 0
6.7767 10.6970 0.2367 -0.742 -0.573 0.348 195 148 132 0 0
1.8895 9.0739 -1.9357 -0.527 -0.847 0.068 175 123 101 0 0
1.9927 9.2038 -1.8907 -0.232 -0.657 0.717 179 124 103 0 0
2.0810 9.1623 -1.8515 -0.229 -0.770 0.596 186 131 110 0 0
2.1000 9.1589 -1.8431 -0.354 -0.720 0.597 174 122 100 0 0
2.3604 9.2110 -1.7283 -0.172 -0.596 0.784 168 114 94 0 0
2.8458 9.3685 -1.5145 -0.304 -0.688 0.659 177 124 102 0 0
2.8655 9.3621 -1.5058 -0.388 -0.813 0.433 171 118 97 0 0
2.8781 9.3765 -1.5003 -0.449 -0.843 0.297 166 113 93 0 0
3.4528 9.5462 -1.2472 -0.293 -0.686 0.666 177 123 101 0 0
3.4702 9.5462 -1.2395 -0.293 -0.686 0.666 165 111 90 0 0
3.5559 9.6137 -1.2020 -0.149 -0.730 0.667 193 137 116 0 0
3.5733 9.6139 -1.1943 -0.131 -0.802 0.583 155 98 78 0 0
3.5900 9.6166 -1.1869 -0.131 -0.802 0.583 178 122 102 0 0
3.6080 9.6142 -1.1790 -0.351 -0.859 0.373 168 114 93 0 0
3.6227 9.6240 -1.1725 -0.111 -0.848 0.519 183 130 110 0 0
3.6763 9.6186 -1.1488 -0.108 -0.711 0.695 180 126 106 0 0
3.6937 9.6183 -1.1411 0.016 -0.629 0.777 199 142 122 0 0
3.8379 9.6649 -1.0776 0.532 -0.516 0.672 157 104 83 0 0
3.8715 9.6693 -1.0628 -0.426 -0.683 0.593 176 123 100 0 0
3.9673 9.7029 -1.0206 -0.152 -0.769 0.621 172 118 97 0 0
4.6811 9.9294 -0.7063 -0.145 -0.654 0.742 154 98 75 0 0
4.6976 9.9339 -0.6991 -0.274 -0.706 0.653 173 117 94 0 0
4.8836 9.9515 -0.6169 -0.189 -0.662 0.726 157 96 73 0 0
5.2236 10.0984 -0.4674 -0.082 -0.502 0.861 170 114 94 0 0
5.2397 10.1079 -0.4604 -0.082 -0.502 0.861 176 121 100 0 0
5.6077 10.1872 -0.2982 -0.590 -0.631 0.503 199 153 134 0 0
5.6250 10.1841 -0.2905 -0.501 -0.677 0.539 169 125 107 0 0
5.6914 10.2046 -0.2612 -0.075 -0.378 0.923 193 142 122 0 0
5.7074 10.2174 -0.2542 -0.105 -0.405 0.908 178 126 104 0 0
5.7236 10.2291 -0.2471 -0.105 -0.405 0.908 178 125 103 0 0
5.7416 10.2162 -0.2391 -0.294 -0.415 0.861 184 129 108 0 0
5.7954 10.1760 -0.2152 -0.280 -0.710 0.646 174 120 98 0 0
5.9292 10.1984 -0.1561 -0.277 -0.875 0.397 175 124 105 0 0
5.9470 10.1822 -0.1482 -0.288 -0.729 0.621 172 121 102 0 0
5.9641 10.1792 -0.1407 -0.202 -0.628 0.752 190 139 120 0 0
5.9807 10.1826 -0.1333 -0.202 -0.628 0.752 190 138 117 0 0
6.0789 10.2401 -0.0902 0.194 -0.806 0.560 189 135 114 0 0
6.0953 10.2491 -0.0830 0.194 -0.806 0.560 182 126 106 0 0
6.1111 10.2734 -0.0761 -0.135 -0.867 0.480 177 120 100 0 0
6.1276 10.2830 -0.0689 -0.152 -0.644 0.750 181 124 104 0 0
6.1446 10.2798 -0.0613 0.268 -0.644 0.716 179 124 104 0 0
6.6810 10.5138 0.1745 0.413 -0.322 0.852 202 152 132 0 0
6.7324 10.6061 0.1968 0.277 -0.432 0.858 205 157 136 0 0
6.7675 10.7063 0.2119 0.275 -0.573 0.772 185 139 117 0 0
6.8012 10.6673 0.2269 -0.757 -0.588 0.285 164 118 104 0 0
1.6597 9.0496 -2.0568 -0.167 -0.803 0.572 177 125 103 0 0
1.8827 9.1053 -1.9586 0.105 -0.621 0.777 176 123 101 0 0
1.9726 9.1428 -1.9191 -0.262 -0.601 0.755 177 123 102 0 0
2.1185 9.1314 -1.8545 -0.137 -0.762 0.633 187 135 113 0 0
2.1671 9.1844 -1.8333 -0.017 -0.732 0.681 182 131 114 0 0
2.3066 9.1873 -1.7717 0.192 -0.981 -0.019 177 124 103 0 0
2.3423 9.1857 -1.7559 -0.280 -0.763 0.583 167 110 90 0 0
2.3935 9.1892 -1.7333 -0.166 -0.713 0.682 199 147 125 0 0
2.7488 9.3661 -1.5773 -0.447 -0.803 0.395 170 116 93 0 0
2.8946 9.3489 -1.5127 -0.443 -0.828 0.344 149 94 74 0 0
2.9093 9.3570 -1.5063 -0.148 -0.905 0.398 180 123 104 0 0
3.1434 9.4408 -1.4033 -0.128 -0.635 0.762 171 113 91 0 0
3.1597 9.4446 -1.3961 -0.177 -0.675 0.717 168 110 90 0 0
3.4655 9.5269 -1.2614 -0.293 -0.686 0.666 173 119 95 0 0
3.5840 9.6010 -1.2095 0.252 -0.821 0.512 170 115 92 0 0
3.5997 9.6074 -1.2026 0.075 -0.854 0.515 167 111 88 0 0
3.6203 9.5952 -1.1934 -0.306 -0.897 0.318 163 108 86 0 0
3.6373 9.5967 -1.1859 -0.407 -0.818 0.407 182 127 106 0 0
4.3747 9.7654 -0.8610 -0.256 -0.556 0.790 174 122 101 0 0
5.2345 10.0704 -0.4827 -0.082 -0.502 0.861 159 102 81 0 0
5.2505 10.0798 -0.4757 -0.093 -0.404 0.910 172 116 95 0 0
5.6170 10.1670 -0.3142 -0.594 -0.683 0.425 197 153 133 0 0
5.7179 10.1808 -0.2697 -0.144 -0.398 0.906 182 130 108 0 0
5.9391 10.1590 -0.1718 -0.306 -0.751 0.586 175 123 102 0 0
5.9557 10.1625 -0.1644 -0.337 -0.742 0.579 186 134 113 0 0
6.0869 10.2305 -0.1069 0.194 -0.806 0.560 186 133 112 0 0
6.1032 10.2431 -0.0997 0.348 -0.807 0.477 191 136 115 0 0
6.1194 10.2588 -0.0927 -0.141 -0.761 0.633 185 130 109 0 0
6.1360 10.2637 -0.0854 -0.111 -0.699 0.706 189 134 113 0 0
6.1527 10.2696 -0.0780 0.045 -0.694 0.719 196 143 122 0 0
6.1695 10.2704 -0.0706 -0.391 -0.687 0.612 185 133 111 0 0
6.2032 10.2690 -0.0557 -0.395 -0.660 0.639 180 128 106 0 0
6.7579 10.6682 0.1870 0.275 -0.573 0.772 206 157 135 0 0
6.7752 10.6866 0.1945 0.275 -0.573 0.772 195 146 125 0 0
6.7917 10.6428 0.2021 -0.409 -0.612 0.677 168 118 97 0 0
1.8964 9.0901 -1.9721 0.085 -0.660 0.746 174 122 100 0 0
2.3134 9.1880 -1.7884 -0.103 -0.951 0.293 190 136 115 0 0
2.3548 9.1719 -1.7700 -0.233 -0.820 0.523 170 113 93 0 0
2.4865 9.1931 -1.7119 -0.176 -0.624 0.762 175 126 107 0 0
2.5170 9.2512 -1.6988 -0.187 -0.607 0.772 183 133 114 0 0
2.7123 9.2912 -1.6127 -0.211 -0.678 0.704 176 119 97 0 0
2.8402 9.3247 -1.5564 0.106 -0.690 0.716 186 130 108 0 0
2.8760 9.3218 -1.5406 -0.029 -0.837 0.546 173 118 97 0 0
2.8949 9.3174 -1.5322 -0.034 -0.867 0.497 177 120 100 0 0
2.9058 9.3367 -1.5275 -0.443 -0.828 0.344 164 107 86 0 0
2.9376 9.3456 -1.5135 -0.005 -0.762 0.648 166 109 87 0 0
3.9648 9.6285 -1.0612 -0.194 -0.681 0.706 172 117 94 0 0
3.9810 9.6328 -1.0541 -0.073 -0.617 0.784 186 129 108 0 0
4.0298 9.6449 -1.0326 -0.084 -0.707 0.702 175 116 94 0 0
4.2285 9.6774 -0.9450 -0.294 -0.741 0.603 178 121 101 0 0
4.2600 9.6906 -0.9311 -0.119 -0.597 0.794 178 126 104 0 0
4.2876 9.7231 -0.9192 -0.484 -0.627 0.610 180 128 107 0 0
5.0393 9.9220 -0.5882 0.011 -0.505 0.863 177 121 100 0 0
5.0546 9.9339 -0.5815 0.018 -0.566 0.824 180 125 104 0 0
5.9498 10.1049 -0.1868 -0.068 -0.602 0.796 183 132 111 0 0
6.4121 10.2767 0.0164 0.210 -0.836 0.507 216 172 153 0 0
6.7303 10.5164 0.1553 0.351 -0.322 0.879 199 151 130 0 0
2.3858 9.1554 -1.7758 -0.316 -0.791 0.524 171 116 95 0 0
2.4040 9.1534 -1.7677 -0.327 -0.769 0.548 181 129 107 0 0
2.5502 9.2281 -1.7037 -0.246 -0.590 0.769 173 120 99 0 0
2.8424 9.2882 -1.5749 -0.461 -0.841 0.284 180 124 103 0 0
3.2944 9.4489 -1.3763 -0.093 -0.894 0.438 165 109 86 0 0
3.3615 9.4564 -1.3467 -0.232 -0.665 0.710 193 137 116 0 0
3.3782 9.4585 -1.3393 -0.232 -0.665 0.710 172 115 94 0 0
4.1090 9.6306 -1.0174 -0.411 -0.674 0.613 188 133 112 0 0
4.2718 9.6690 -0.9457 -0.119 -0.597 0.794 188 135 113 0 0
4.2812 9.7066 -0.9419 0.065 -0.553 0.830 179 127 105 0 0
4.2997 9.6997 -0.9336 -0.484 -0.627 0.610 179 127 105 0 0
4.3368 9.6854 -0.9170 -0.482 -0.715 0.507 196 141 119 0 0
4.4425 9.7566 -0.8709 -0.330 -0.639 0.695 180 129 108 0 0
4.6250 9.7866 -0.7904 -0.331 -0.646 0.688 210 160 140 0 0
5.4280 9.9924 -0.4368 -0.458 -0.715 0.528 195 141 120 0 0
5.6455 10.0073 -0.3406 -0.343 -0.608 0.715 198 154 136 0 0
5.6537 10.1114 -0.3380 -0.656 -0.599 0.460 191 147 128 0 0
5.6727 10.0860 -0.3294 -0.347 -0.670 0.657 187 140 122 0 0
5.6910 10.0679 -0.3211 -0.077 -0.656 0.751 183 134 115 0 0
5.7074 10.0742 -0.3139 -0.077 -0.656 0.751 185 135 114 0 0
5.9579 10.0935 -0.2032 -0.030 -0.569 0.822 196 145 124 0 0
6.1060 10.1431 -0.1381 -0.091 -0.605 0.791 195 142 124 0 0
6.4198 10.2673 -0.0003 0.309 -0.857 0.411 205 160 142 0 0
6.4698 10.2782 0.0217 0.002 -0.721 0.693 188 134 113 0 0
6.7377 10.4755 0.1384 0.252 -0.332 0.909 195 147 127 0 0
6.8404 10.5864 0.1828 -0.484 -0.624 0.614 186 134 116 0 0
2.5494 9.2024 -1.7235 -0.185 -0.540 0.821 180 131 110 0 0
2.7435 9.2432 -1.6380 -0.067 -0.615 0.786 181 124 104 0 0
2.9084 9.2682 -1.5652 -0.360 -0.756 0.546 181 125 103 0 0
2.9232 9.2758 -1.5587 -0.310 -0.784 0.539 193 136 114 0 0
3.2994 9.3983 -1.3934 -0.133 -0.664 0.736 150 90 66 0 0
3.5202 9.4706 -1.2964 -0.017 -0.633 0.774 172 119 98 0 0
3.8043 9.5013 -1.1709 -0.211 -0.708 0.674 170 116 92 0 0
4.3104 9.6830 -0.9486 -0.221 -0.625 0.749 169 117 96 0 0
4.3244 9.6982 -0.9426 -0.410 -0.578 0.706 196 144 123 0 0
4.4264 9.7006 -0.8974 0.056 -0.713 0.699 178 127 104 0 0
4.4420 9.7085 -0.8906 0.056 -0.713 0.699 183 132 110 0 0
4.6214 9.7518 -0.8116 0.092 -0.610 0.787 173 117 97 0 0
4.6370 9.7599 -0.8048 -0.007 -0.639 0.769 178 126 105 0 0
5.1122 9.8677 -0.5954 -0.128 -0.540 0.832 178 123 102 0 0
5.3910 9.9345 -0.4727 -0.131 -0.548 0.826 179 124 103 0 0
5.4373 9.9744 -0.4526 -0.512 -0.705 0.491 197 143 122 0 0
5.4722 9.9625 -0.4370 -0.134 -0.659 0.740 174 122 102 0 0
5.6550 9.9837 -0.3562 -0.343 -0.608 0.715 184 140 121 0 0
5.6644 10.0728 -0.3531 -0.420 -0.650 0.633 182 136 116 0 0
5.6817 10.0683 -0.3454 -0.324 -0.797 0.510 191 142 123 0 0
5.6997 10.0537 -0.3372 0.152 -0.928 0.340 191 139 120 0 0
5.7162 10.0567 -0.3299 -0.015 -0.889 0.458 151 99 78 0 0
5.7324 10.0653 -0.3229 0.116 -0.841 0.529 172 122 102 0 0
6.0814 10.1141 -0.1688 -0.084 -0.904 0.420 194 146 128 0 0
6.0980 10.1159 -0.1614 -0.084 -0.904 0.420 199 150 130 0 0
6.1149 10.1111 -0.1539 0.298 -0.702 0.647 192 141 122 0 0
6.1312 10.1213 -0.1468 0.171 -0.840 0.514 199 147 126 0 0
6.2111 10.2160 -0.1124 -0.547 -0.732 0.406 194 142 122 0 0
6.3131 10.1589 -0.0666 -0.244 -0.567 0.787 197 146 126 0 0
6.3794 10.1656 -0.0373 -0.285 -0.514 0.809 184 137 116 0 0
6.4278 10.2472 -0.0168 0.098 -0.782 0.616 202 156 137 0 0
6.4444 10.2552 -0.0095 0.088 -0.768 0.635 203 156 137 0 0
6.5779 10.1968 0.0503 -0.071 -0.628 0.775 189 142 125 0 0
6.5944 10.2038 0.0576 -0.071 -0.628 0.775 183 136 118 0 0
6.6109 10.2600 0.0642 0.294 -0.590 0.752 182 135 117 0 0
6.7451 10.4397 0.1216 0.191 -0.324 0.926 197 149 129 0 0
6.8478 10.5639 0.1657 -0.484 -0.624 0.614 182 131 111 0 0
6.8646 10.5582 0.1733 -0.484 -0.624 0.614 182 138 127 0 0
1.9781 8.9908 -1.9938 -0.355 -0.821 0.447 186 132 111 0 0
1.9983 8.9846 -1.9848 -0.132 -0.782 0.609 188 136 116 0 0
2.0062 9.0477 -1.9821 -0.353 -0.655 0.669 179 127 107 0 0
2.3464 9.1136 -1.8321 -0.333 -0.602 0.726 182 134 114 0 0
2.5793 9.1880 -1.7298 -0.348 -0.735 0.582 184 133 114 0 0
2.7562 9.2273 -1.6518 -0.062 -0.661 0.748 176 119 99 0 0
2.7703 9.2365 -1.6457 0.163 -0.601 0.782 179 123 103 0 0
3.3908 9.4051 -1.3727 -0.218 -0.569 0.793 180 124 103 0 0
3.4070 9.4088 -1.3656 -0.218 -0.569 0.793 180 123 101 0 0
3.4675 9.4382 -1.3392 0.023 -0.568 0.823 173 119 98 0 0
3.8158 9.4841 -1.1853 -0.211 -0.708 0.674 180 126 102 0 0
3.8322 9.4868 -1.1781 -0.078 -0.701 0.709 188 133 109 0 0
3.8497 9.4851 -1.1703 0.031 -0.643 0.766 177 121 98 0 0
4.2776 9.6288 -0.9824 0.062 -0.713 0.698 182 133 111 0 0
4.3049 9.6621 -0.9707 -0.063 -0.571 0.819 193 143 124 0 0
4.4170 9.6991 -0.9215 -0.186 -0.801 0.569 188 137 114 0 0
4.4397 9.6698 -0.9111 -0.049 -0.690 0.722 202 150 128 0 0
5.1653 9.9069 -0.5924 -0.192 -0.727 0.659 192 139 121 0 0
5.1819 9.9092 -0.5850 -0.192 -0.727 0.659 156 101 81 0 0
5.2173 9.8964 -0.5692 -0.231 -0.832 0.505 171 114 95 0 0
5.2339 9.8987 -0.5619 -0.129 -0.859 0.496 175 118 99 0 0
5.2498 9.9072 -0.5549 -0.314 -0.739 0.597 186 129 110 0 0
5.4006 9.9136 -0.4881 -0.014 -0.546 0.838 188 135 114 0 0
5.4819 9.9399 -0.4524 -0.213 -0.688 0.694 193 140 119 0 0
5.5641 9.9576 -0.4162 -0.318 -0.682 0.659 190 141 124 0 0
5.5807 9.9602 -0.4089 -0.335 -0.597 0.729 196 148 130 0 0
5.6734 10.0553 -0.3690 -0.329 -0.598 0.731 195 147 127 0 0
5.7083 10.0394 -0.3533 0.018 -0.789 0.615 163 111 91 0 0
5.7243 10.0494 -0.3464 -0.172 -0.904 0.390 173 122 101 0 0
5.7405 10.0577 -0.3393 -0.062 -0.826 0.559 184 135 116 0 0
5.7740 10.0596 -0.3245 -0.110 -0.595 0.796 196 150 131 0 0
5.9109 10.0136 -0.2632 -0.128 -0.542 0.830 194 144 122 0 0
6.0410 10.0699 -0.2062 -0.309 -0.635 0.708 177 127 105 0 0
6.0577 10.0700 -0.1988 -0.309 -0.635 0.708 169 118 97 0 0
6.0744 10.0681 -0.1913 -0.585 -0.734 0.345 198 150 131 0 0
6.0893 10.1065 -0.1853 0.111 -0.898 0.425 198 151 132 0 0
6.1058 10.1097 -0.1780 -0.094 -0.832 0.547 182 134 114 0 0
6.1229 10.0994 -0.1702 0.229 -0.808 0.543 195 147 127 0 0
6.1392 10.1088 -0.1631 0.229 -0.808 0.543 194 143 122 0 0
6.1556 10.1149 -0.1559 -0.396 -0.695 0.601 167 116 94 0 0
6.2195 10.1928 -0.1286 0.153 -0.984 0.091 179 127 104 0 0
6.2361 10.1955 -0.1213 0.377 -0.915 0.147 179 127 105 0 0
6.2529 10.1952 -0.1139 0.149 -0.975 0.164 183 131 110 0 0
6.3048 10.1288 -0.0900 -0.403 -0.769 0.496 196 146 127 0 0
6.4040 10.1408 -0.0461 -0.172 -0.527 0.832 204 159 140 0 0
6.4357 10.2293 -0.0332 -0.372 -0.565 0.737 195 148 130 0 0
6.4524 10.2246 -0.0258 -0.293 -0.555 0.779 206 161 142 0 0
6.5691 10.1686 0.0267 -0.071 -0.628 0.775 196 151 133 0 0
6.5855 10.1756 0.0339 -0.071 -0.628 0.775 190 143 125 0 0
6.6021 10.1756 0.0412 -0.249 -0.681 0.689 191 144 126 0 0
6.6185 10.2393 0.0477 0.435 -0.650 0.623 191 144 126 0 0
6.6351 10.2571 0.0548 0.246 -0.553 0.796 207 161 143 0 0
6.6517 10.2743 0.0620 0.188 -0.529 0.827 192 146 129 0 0
6.7184 10.3304 0.0908 0.195 -0.498 0.845 190 142 126 0 0
6.7353 10.3506 0.0980 0.316 -0.431 0.846 191 142 124 0 0
6.7523 10.3891 0.1051 0.218 -0.350 0.911 204 154 135 0 0
6.7695 10.4273 0.1122 0.207 -0.338 0.918 198 147 126 0 0
6.9648 10.2425 0.2012 -0.509 -0.713 -0.481 244 245 241 0 0
2.5907 9.0831 -1.7429 -0.017 -0.692 0.721 177 126 106 0 0
3.0461 9.2606 -1.5434 -0.445 -0.893 0.064 178 125 103 0 0
3.6189 9.4135 -1.2914 -0.161 -0.682 0.713 185 135 112 0 0
3.8269 9.4684 -1.1999 -0.091 -0.727 0.680 189 136 112 0 0
4.0863 9.5243 -1.0857 0.003 -0.768 0.641 180 126 102 0 0
4.3039 9.6191 -0.9905 0.130 -0.665 0.735 177 131 111 0 0
4.3166 9.6406 -0.9852 -0.078 -0.618 0.782 185 141 122 0 0
4.3493 9.6474 -0.9708 -0.129 -0.685 0.717 157 108 88 0 0
4.4500 9.6539 -0.9261 0.022 -0.677 0.736 170 119 97 0 0
5.1462 9.8495 -0.6201 0.293 -0.710 0.640 186 130 111 0 0
5.2099 9.8795 -0.5922 0.158 -0.914 0.374 183 126 108 0 0
5.2261 9.8852 -0.5851 0.158 -0.914 0.374 191 134 115 0 0
5.2434 9.8811 -0.5774 0.152 -0.982 0.114 187 130 112 0 0
5.4908 9.9255 -0.4683 -0.241 -0.725 0.645 181 129 108 0 0
5.7161 10.0347 -0.3699 0.008 -0.886 0.464 191 141 122 0 0
5.7325 10.0408 -0.3627 -0.326 -0.896 0.301 169 121 103 0 0
5.7503 10.0266 -0.3546 -0.547 -0.728 0.414 165 119 101 0 0
5.7676 10.0195 -0.3468 -0.494 -0.677 0.546 167 121 101 0 0
5.9363 9.9906 -0.2715 -0.219 -0.620 0.754 172 120 98 0 0
6.0972 10.0973 -0.2017 -0.164 -0.729 0.665 174 127 107 0 0
6.1138 10.0981 -0.1943 -0.094 -0.832 0.547 196 148 128 0 0
6.1308 10.0906 -0.1867 0.229 -0.808 0.543 193 145 125 0 0
6.1470 10.1014 -0.1796 -0.352 -0.918 0.184 194 145 124 0 0
6.1638 10.0993 -0.1722 -0.471 -0.804 0.363 189 138 118 0 0
6.2137 10.0965 -0.1499 -0.084 -0.856 0.511 195 144 123 0 0
6.2442 10.1793 -0.1376 -0.231 -0.619 0.751 182 132 109 0 0
6.2608 10.1835 -0.1303 -0.320 -0.672 0.667 189 138 118 0 0
6.2964 10.1043 -0.1134 -0.295 -0.602 0.742 202 155 135 0 0
6.3130 10.1049 -0.1060 -0.231 -0.621 0.749 204 155 136 0 0
6.3791 10.1094 -0.0768 -0.277 -0.555 0.785 192 145 127 0 0
6.5932 10.1520 0.0176 0.035 -0.620 0.784 184 137 118 0 0
6.6426 10.2525 0.0381 0.254 -0.603 0.756 190 145 126 0 0
6.7596 10.3530 0.0885 0.316 -0.385 0.867 210 161 142 0 0
1.7712 8.8974 -2.1233 -0.395 -0.765 0.508 166 109 87 0 0
1.7905 8.8936 -2.1147 -0.437 -0.708 0.555 175 118 95 0 0
2.9287 9.2200 -1.6146 -0.337 -0.784 0.521 178 122 102 0 0
2.9633 9.2197 -1.5992 -0.375 -0.840 0.391 165 108 88 0 0
3.0438 9.2364 -1.5637 -0.194 -0.725 0.661 172 120 98 0 0
3.6317 9.3926 -1.3051 -0.302 -0.722 0.623 179 128 105 0 0
3.6488 9.3925 -1.2975 -0.155 -0.681 0.716 173 121 99 0 0
4.2965 9.6082 -1.0135 0.091 -0.889 0.449 189 140 121 0 0
4.3124 9.6134 -1.0065 0.091 -0.889 0.449 202 158 138 0 0
4.3274 9.6234 -1.0000 0.191 -0.889 0.416 221 179 160 0 0
4.3430 9.6300 -0.9931 0.191 -0.889 0.416 219 174 155 0 0
4.3591 9.6349 -0.9861 -0.207 -0.926 0.314 137 88 68 0 0
4.3756 9.6372 -0.9788 -0.042 -0.896 0.442 174 123 104 0 0
5.0144 9.7583 -0.6971 -0.069 -0.900 0.431 188 130 110 0 0
5.0309 9.7605 -0.6898 -0.069 -0.900 0.431 168 110 90 0 0
5.2018 9.8690 -0.6157 0.124 -0.898 0.422 176 120 102 0 0
5.2176 9.8774 -0.6088 0.101 -0.959 0.264 181 125 107 0 0
5.2338 9.8826 -0.6017 0.187 -0.981 0.050 132 75 59 0 0
5.2520 9.8713 -0.5934 -0.111 -0.986 0.124 153 96 79 0 0
5.2704 9.8578 -0.5850 -0.499 -0.856 0.136 173 117 98 0 0
5.3017 9.8780 -0.5714 -0.231 -0.944 0.237 189 133 112 0 0
5.3187 9.8759 -0.5638 -0.094 -0.969 0.228 180 123 102 0 0
5.3358 9.8736 -0.5562 -0.017 -0.841 0.541 176 121 100 0 0
5.3521 9.8779 -0.5490 -0.017 -0.841 0.541 190 134 114 0 0
5.3686 9.8803 -0.5418 -0.112 -0.826 0.553 179 122 102 0 0
5.4143 9.9247 -0.5222 -0.040 -0.567 0.823 186 132 110 0 0
5.4309 9.9264 -0.5148 -0.063 -0.518 0.853 188 134 112 0 0
5.6935 9.9906 -0.3993 -0.094 -0.622 0.778 188 141 123 0 0
5.7258 10.0066 -0.3852 0.011 -0.658 0.753 201 154 135 0 0
5.7418 10.0170 -0.3783 -0.498 -0.685 0.532 211 166 147 0 0
5.8447 9.9795 -0.3320 -0.106 -0.660 0.744 190 141 119 0 0
5.8610 9.9849 -0.3248 -0.106 -0.660 0.744 185 135 112 0 0
5.9615 9.9716 -0.2799 -0.140 -0.601 0.787 177 122 101 0 0
5.9786 9.9627 -0.2722 -0.257 -0.614 0.746 173 119 97 0 0
6.0420 10.0176 -0.2450 -0.133 -0.650 0.748 180 132 111 0 0
6.0583 10.0225 -0.2378 -0.133 -0.650 0.748 184 135 116 0 0
6.0749 10.0230 -0.2304 -0.101 -0.670 0.735 173 124 104 0 0
6.1228 10.0639 -0.2098 -0.219 -0.658 0.720 188 140 119 0 0
6.1393 10.0664 -0.2025 -0.219 -0.658 0.720 189 141 121 0 0
6.2052 10.0802 -0.1735 -0.149 -0.943 0.298 182 133 116 0 0
6.2216 10.0874 -0.1664 0.311 -0.927 0.208 196 146 128 0 0
6.2362 10.1444 -0.1608 -0.185 -0.550 0.814 197 148 128 0 0
6.2528 10.1485 -0.1535 -0.069 -0.570 0.819 190 142 122 0 0
6.2693 10.1542 -0.1463 -0.501 -0.699 0.510 176 128 110 0 0
6.3378 10.0746 -0.1145 -0.022 -0.721 0.693 181 131 113 0 0
6.3543 10.0780 -0.1073 -0.164 -0.669 0.725 182 134 116 0 0
6.3706 10.0848 -0.1001 -0.135 -0.623 0.770 207 159 141 0 0
1.8059 8.8748 -2.1270 -0.445 -0.696 0.564 179 122 99 0 0
1.8337 8.8520 -2.1142 -0.133 -0.621 0.772 163 105 82 0 0
1.8488 8.8570 -2.1076 -0.133 -0.621 0.772 166 108 87 0 0
1.8952 8.9088 -2.0879 0.081 -0.488 0.869 176 123 102 0 0
1.9361 8.9347 -2.0702 -0.406 -0.739 0.538 176 124 104 0 0
1.9554 8.9304 -2.0615 -0.406 -0.739 0.538 196 145 126 0 0
2.0717 8.8625 -2.0086 -0.204 -0.570 0.796 189 145 129 0 0
2.5577 9.0246 -1.7955 0.125 -0.748 0.652 171 119 97 0 0
2.9592 9.2014 -1.6203 -0.630 -0.683 0.369 192 137 116 0 0
2.9766 9.2010 -1.6126 -0.418 -0.750 0.513 149 94 73 0 0
2.9942 9.1996 -1.6047 -0.359 -0.741 0.568 173 118 98 0 0
3.0561 9.2205 -1.5776 -0.194 -0.725 0.661 162 110 89 0 0
3.6404 9.3869 -1.3209 -0.425 -0.691 0.585 179 126 102 0 0
4.4202 9.6200 -0.9785 -0.324 -0.709 0.626 172 123 102 0 0
4.9779 9.7121 -0.7323 0.103 -0.680 0.726 169 112 92 0 0
5.1317 9.8155 -0.6658 -0.089 -0.949 -0.303 202 167 148 0 0
5.1487 9.8142 -0.6583 -0.077 -0.939 0.336 181 138 122 0 0
5.2272 9.8588 -0.6242 -0.227 -0.769 0.598 167 112 92 0 0
5.2788 9.8492 -0.6011 -0.329 -0.765 0.554 181 126 106 0 0
5.2948 9.8561 -0.5941 0.129 -0.721 0.681 176 119 100 0 0
5.3102 9.8685 -0.5875 -0.015 -0.838 0.545 171 114 94 0 0
5.3272 9.8662 -0.5798 -0.397 -0.845 0.358 182 126 105 0 0
5.3626 9.8499 -0.5638 -0.176 -0.572 0.801 193 138 117 0 0
5.6860 9.9686 -0.4222 -0.072 -0.560 0.825 185 137 119 0 0
5.7021 9.9767 -0.4152 -0.103 -0.536 0.838 186 138 121 0 0
5.7177 9.9913 -0.4086 -0.282 -0.675 0.682 193 147 129 0 0
5.7508 9.9959 -0.3939 -0.386 -0.637 0.667 199 152 132 0 0
5.7678 9.9931 -0.3864 -0.486 -0.625 0.611 205 157 138 0 0
5.8703 9.9563 -0.3401 0.108 -0.811 0.576 178 129 108 0 0
6.2134 10.0607 -0.1895 -0.073 -0.697 0.713 201 154 137 0 0
6.2612 10.1213 -0.1694 -0.115 -0.526 0.843 195 148 129 0 0
6.3949 10.0692 -0.1090 0.004 -0.807 0.591 186 136 117 0 0
6.4436 10.1146 -0.0882 -0.062 -0.717 0.694 194 147 126 0 0
1.6630 8.7476 -2.2075 -0.104 -0.883 0.458 185 138 118 0 0
1.6834 8.7413 -2.1983 -0.108 -0.671 0.733 182 135 115 0 0
2.5545 9.0059 -1.8160 -0.159 -0.699 0.698 178 125 105 0 0
2.5687 9.0139 -1.8099 0.125 -0.748 0.652 170 118 96 0 0
2.6159 9.0255 -1.7891 0.201 -0.944 0.260 181 129 108 0 0
2.6365 9.0162 -1.7798 -0.052 -0.993 0.106 189 136 118 0 0
3.2176 9.2201 -1.5254 -0.207 -0.611 0.764 178 122 99 0 0
3.6274 9.3352 -1.3453 -0.239 -0.614 0.752 175 116 94 0 0
4.5882 9.5733 -0.9227 -0.285 -0.578 0.765 187 134 113 0 0
4.7270 9.6451 -0.8624 -0.154 -0.598 0.787 172 118 97 0 0
4.7430 9.6497 -0.8554 -0.179 -0.623 0.761 175 121 100 0 0
4.9720 9.6877 -0.7543 -0.010 -0.731 0.682 166 110 89 0 0
5.6799 9.9306 -0.4442 -0.115 -0.435 0.893 181 134 116 0 0
5.6956 9.9423 -0.4375 0.170 -0.498 0.850 186 137 119 0 0
5.7270 9.9678 -0.4240 -0.287 -0.433 0.855 192 144 126 0 0
5.8605 9.9651 -0.3645 0.173 -0.734 0.657 191 140 121 0 0
5.9947 9.9402 -0.3044 -0.081 -0.572 0.816 176 124 102 0 0
6.2359 10.1065 -0.2004 -0.278 -0.492 0.825 200 151 133 0 0
6.2694 10.0974 -0.1853 -0.253 -0.502 0.827 188 140 121 0 0
6.6158 10.1050 -0.0314 0.175 -0.695 0.698 182 134 117 0 0
1.9942 8.8733 -2.0820 -0.433 -0.618 0.656 186 138 118 0 0
2.3947 8.9917 -1.9063 -0.439 -0.585 0.682 165 113 95 0 0
2.5336 8.9442 -1.8435 0.224 -0.646 0.730 178 126 105 0 0
2.6223 9.0268 -1.8057 -0.090 -0.907 0.411 170 118 97 0 0
2.6387 9.0291 -1.7985 -0.450 -0.828 0.335 174 121 102 0 0
2.6541 9.0338 -1.7917 -0.416 -0.793 0.445 144 91 72 0 0
4.1661 9.4475 -1.1276 -0.173 -0.580 0.796 193 139 118 0 0
4.1991 9.4507 -1.1130 -0.332 -0.656 0.678 190 138 116 0 0
4.2328 9.4505 -1.0980 0.016 -0.716 0.698 173 121 100 0 0
4.5516 9.5373 -0.9579 -0.277 -0.620 0.734 187 134 113 0 0
4.6182 9.5397 -0.9284 -0.264 -0.641 0.720 184 135 114 0 0
4.6459 9.5724 -0.9167 -0.146 -0.661 0.736 200 153 133 0 0
4.6630 9.5707 -0.9091 -0.047 -0.773 0.633 205 157 137 0 0
5.6400 9.8975 -0.4812 -0.637 -0.734 0.235 186 137 117 0 0
5.6735 9.8949 -0.4662 0.331 -0.590 0.736 210 164 144 0 0
5.6890 9.9096 -0.4597 0.397 -0.574 0.716 201 153 134 0 0
5.7043 9.9268 -0.4532 0.235 -0.553 0.799 190 141 121 0 0
5.7367 9.9381 -0.4390 -0.484 -0.544 0.686 188 140 120 0 0
6.2119 10.0579 -0.2301 -0.090 -0.470 0.878 193 141 119 0 0
6.5088 10.0512 -0.0978 -0.020 -0.957 0.289 180 131 111 0 0
6.5415 10.0560 -0.0833 0.014 -0.874 0.486 187 141 125 0 0
6.8395 10.3173 0.0437 0.352 -0.363 0.863 200 149 132 0 0
6.8566 10.3447 0.0507 0.340 -0.370 0.865 220 170 151 0 0
7.0309 10.1082 0.1334 -0.868 -0.474 -0.145 244 244 242 0 0
1.7226 8.6868 -2.2181 -0.326 -0.783 0.529 184 134 112 0 0
1.8779 8.7234 -2.1497 -0.390 -0.650 0.652 157 102 81 0 0
2.6318 9.0201 -1.8208 -0.237 -0.812 0.533 184 133 112 0 0
2.6500 9.0172 -1.8126 -0.450 -0.828 0.335 153 100 79 0 0
2.7572 9.0524 -1.7657 -0.009 -0.655 0.755 185 133 112 0 0
3.1960 9.1704 -1.5730 -0.406 -0.660 0.632 180 125 104 0 0
3.2650 9.1676 -1.5422 -0.293 -0.630 0.720 168 114 92 0 0
3.8765 9.3452 -1.2739 -0.275 -0.692 0.667 163 108 87 0 0
3.8908 9.3555 -1.2677 -0.264 -0.735 0.625 182 127 106 0 0
3.9992 9.3965 -1.2204 -0.110 -0.679 0.726 163 108 87 0 0
4.1944 9.4278 -1.1342 -0.380 -0.666 0.642 188 136 115 0 0
4.2107 9.4304 -1.1270 -0.332 -0.656 0.678 186 134 113 0 0
4.2602 9.4346 -1.1050 -0.059 -0.648 0.759 188 136 115 0 0
4.2913 9.4468 -1.0915 -0.177 -0.686 0.706 179 128 107 0 0
4.3350 9.4791 -1.0727 0.524 -0.580 0.624 198 147 126 0 0
4.6565 9.5535 -0.9313 -0.155 -0.857 0.492 199 152 132 0 0
4.6730 9.5547 -0.9239 -0.155 -0.857 0.492 201 154 134 0 0
4.7194 9.5769 -0.9038 0.386 -0.508 0.770 178 129 109 0 0
4.7469 9.6126 -0.8923 0.129 -0.630 0.765 191 140 119 0 0
5.3257 9.7792 -0.6384 0.196 -0.594 0.780 189 137 116 0 0
5.3394 9.8056 -0.6329 -0.248 -0.599 0.761 199 147 126 0 0
6.2370 10.0286 -0.2382 -0.085 -0.593 0.800 171 119 99 0 0
6.3347 10.0775 -0.1958 0.063 -0.547 0.835 153 102 85 0 0
6.3510 10.0886 -0.1889 0.241 -0.525 0.816 177 126 109 0 0
6.5163 10.0473 -0.1142 -0.005 -0.969 0.246 183 133 115 0 0
6.5327 10.0430 -0.1068 0.240 -0.874 0.422 163 117 100 0 0
6.5491 10.0509 -0.0997 0.240 -0.874 0.422 157 114 97 0 0
6.8297 10.2639 0.0203 0.456 -0.532 0.713 176 129 111 0 0
6.8641 10.3345 0.0340 0.234 -0.488 0.841 205 154 134 0 0
2.2824 8.8354 -1.9914 -0.475 -0.771 0.424 178 122 102 0 0
2.9912 9.0878 -1.6817 -0.219 -0.670 0.710 200 148 126 0 0
3.0078 9.0893 -1.6744 -0.207 -0.630 0.748 189 136 114 0 0
3.0238 9.0924 -1.6673 -0.292 -0.662 0.690 176 119 99 0 0
3.5079 9.2310 -1.4550 -0.334 -0.784 0.523 161 105 83 0 0
3.5271 9.2229 -1.4462 -0.439 -0.788 0.432 168 111 91 0 0
3.5427 9.2278 -1.4394 -0.302 -0.761 0.575 179 122 102 0 0
4.3030 9.4250 -1.1053 -0.236 -0.646 0.726 189 138 117 0 0
4.3180 9.4336 -1.0989 0.063 -0.640 0.766 203 152 131 0 0
4.3300 9.4568 -1.0941 0.243 -0.687 0.685 206 155 134 0 0
4.3439 9.4706 -1.0882 0.469 -0.713 0.521 194 143 122 0 0
4.3580 9.4840 -1.0823 0.230 -0.698 0.678 200 149 129 0 0
4.6069 9.4969 -0.9716 -0.236 -0.727 0.645 176 122 101 0 0
4.8397 9.6014 -0.8705 0.406 -0.771 0.490 176 123 102 0 0
4.8543 9.6145 -0.8642 0.501 -0.699 0.510 184 132 111 0 0
4.8695 9.6248 -0.8578 -0.217 -0.860 0.462 163 110 88 0 0
5.3089 9.6999 -0.6637 -0.388 -0.917 -0.092 180 124 102 0 0
5.6802 9.7918 -0.5005 -0.101 -0.945 0.310 189 138 117 0 0
5.7223 9.8857 -0.4841 0.119 -0.420 0.899 168 116 95 0 0
5.7624 9.7953 -0.4640 -0.029 -0.854 0.520 166 112 91 0 0
6.1814 9.9471 -0.2809 -0.013 -0.945 0.326 161 110 88 0 0
6.3769 10.0009 -0.1951 0.175 -0.852 0.494 184 133 116 0 0
6.5403 10.0360 -0.1232 0.257 -0.961 0.107 124 79 62 0 0
6.5729 10.0566 -0.1091 0.307 -0.885 0.350 148 103 87 0 0
6.6219 10.0784 -0.0878 0.102 -0.914 0.393 187 140 123 0 0
6.8371 10.2500 0.0038 0.534 -0.582 0.613 169 123 104 0 0
6.8541 10.2783 0.0107 0.468 -0.601 0.648 177 128 107 0 0
6.8712 10.3088 0.0176 0.493 -0.682 0.541 195 144 123 0 0
1.3409 8.8889 -2.4321 -0.784 -0.606 0.134 239 240 238 0 0
1.7472 8.6632 -2.2449 -0.321 -0.629 0.708 175 127 107 0 0
2.1204 8.7886 -2.0817 -0.400 -0.792 0.461 194 146 126 0 0
2.1396 8.7839 -2.0730 0.026 -0.625 0.780 206 168 147 0 0
2.1536 8.7912 -2.0669 0.007 -0.679 0.734 215 175 154 0 0
2.3304 8.8185 -1.9888 -0.230 -0.919 0.320 185 138 119 0 0
2.3482 8.8168 -1.9808 0.017 -0.980 0.198 163 115 98 0 0
3.0056 9.0657 -1.6941 -0.175 -0.725 0.667 185 131 109 0 0
3.0217 9.0684 -1.6870 -0.175 -0.725 0.667 174 119 98 0 0
3.0377 9.0717 -1.6800 -0.300 -0.861 0.410 178 122 100 0 0
3.2749 9.1260 -1.5756 -0.420 -0.700 0.579 173 118 97 0 0
3.6465 9.2446 -1.4130 -0.296 -0.623 0.724 193 144 121 0 0
4.1093 9.3465 -1.2092 -0.317 -0.704 0.636 180 127 105 0 0
4.3121 9.4156 -1.1206 -0.167 -0.795 0.583 183 134 114 0 0
4.3274 9.4225 -1.1139 0.017 -0.681 0.732 173 122 103 0 0
4.5847 9.4749 -1.0006 -0.084 -0.751 0.655 184 128 105 0 0
4.8197 9.5627 -0.8980 -0.385 -0.791 0.475 169 117 96 0 0
5.5246 9.7659 -0.5890 -0.076 -0.988 0.136 181 129 108 0 0
5.5416 9.7610 -0.5813 0.280 -0.953 0.117 172 122 99 0 0
6.2051 9.9532 -0.2904 0.201 -0.964 0.172 176 122 99 0 0
6.2204 9.9853 -0.2844 0.431 -0.875 0.219 171 119 97 0 0
6.2365 9.9950 -0.2775 0.431 -0.875 0.219 183 131 110 0 0
6.3019 10.0101 -0.2487 0.228 -0.760 0.608 137 85 64 0 0
6.3845 9.9930 -0.2114 0.175 -0.852 0.494 157 106 88 0 0
6.4010 9.9912 -0.2040 0.017 -0.951 0.310 174 122 102 0 0
6.4494 10.0329 -0.1835 0.282 -0.927 0.247 144 95 75 0 0
6.4657 10.0397 -0.1764 0.282 -0.927 0.247 186 137 117 0 0
6.4820 10.0484 -0.1693 0.303 -0.902 0.306 175 125 104 0 0
6.4985 10.0437 -0.1619 0.144 -0.990 0.006 138 85 63 0 0
6.5149 10.0468 -0.1547 -0.158 -0.958 0.238 177 127 104 0 0
6.5314 10.0359 -0.1470 0.072 -0.981 0.181 183 136 115 0 0
6.5641 10.0418 -0.1326 0.231 -0.965 0.125 163 118 100 0 0
6.7772 10.1365 -0.0400 0.061 -0.865 0.498 182 136 113 0 0
6.7937 10.1437 -0.0328 0.073 -0.851 0.521 174 126 105 0 0
6.8103 10.1570 -0.0258 0.207 -0.785 0.584 183 134 116 0 0
6.8615 10.2662 -0.0059 0.468 -0.601 0.648 171 123 102 0 0
6.8784 10.2857 0.0012 0.432 -0.600 0.673 165 115 94 0 0
1.9249 8.6645 -2.1847 -0.332 -0.668 0.666 192 139 118 0 0
2.0937 8.7868 -2.1128 -0.031 -0.722 0.692 184 127 107 0 0
2.1130 8.7818 -2.1040 -0.269 -0.897 0.352 166 110 90 0 0
2.1321 8.7772 -2.0954 -0.386 -0.903 0.189 170 118 96 0 0
2.1502 8.7749 -2.0872 0.107 -0.783 0.613 172 125 102 0 0
2.1664 8.7771 -2.0801 0.007 -0.679 0.734 176 128 105 0 0
2.1902 8.7612 -2.0690 0.040 -0.746 0.665 195 144 123 0 0
2.2067 8.7626 -2.0617 0.200 -0.766 0.611 198 143 123 0 0
2.2904 8.8077 -2.0256 0.084 -0.780 0.621 188 137 115 0 0
2.3608 8.8024 -1.9940 0.012 -0.752 0.659 187 139 120 0 0
3.0174 9.0514 -1.7079 -0.219 -0.670 0.710 171 118 96 0 0
3.2545 9.1051 -1.6035 -0.197 -0.676 0.711 184 130 109 0 0
4.3401 9.3959 -1.1271 -0.017 -0.751 0.660 193 141 121 0 0
4.4121 9.4534 -1.0966 -0.179 -0.762 0.622 194 141 117 0 0
4.4277 9.4590 -1.0898 -0.022 -0.772 0.636 169 115 93 0 0
4.4740 9.4793 -1.0697 -0.009 -0.838 0.545 168 112 92 0 0
4.8572 9.5824 -0.9015 0.310 -0.640 0.703 197 146 123 0 0
5.2765 9.6768 -0.7170 0.154 -0.911 0.383 196 145 125 0 0
5.4387 9.7060 -0.6454 0.042 -0.815 0.579 162 106 86 0 0
5.4555 9.7028 -0.6378 0.144 -0.850 0.507 156 99 79 0 0
5.4714 9.7096 -0.6309 0.144 -0.850 0.507 166 109 89 0 0
5.4880 9.7086 -0.6235 0.224 -0.716 0.661 177 124 103 0 0
5.5336 9.7484 -0.6042 0.180 -0.886 0.427 156 105 84 0 0
5.5495 9.7549 -0.5973 0.180 -0.886 0.427 164 113 92 0 0
5.6325 9.7502 -0.5601 0.062 -0.958 0.279 168 115 94 0 0
5.6967 9.7698 -0.5320 -0.004 -0.920 0.391 164 112 90 0 0
5.8887 9.8474 -0.4485 0.226 -0.898 0.377 164 109 88 0 0
6.0362 9.8554 -0.3829 -0.103 -0.953 0.287 159 106 88 0 0
