ply
format ascii 1.0
element vertex 822
property float x
property float y
property float z
property float nx
property float ny
property float nz
property uchar diffuse_red
property uchar diffuse_green
property uchar diffuse_blue
property uchar class
property uchar detection
end_header
1.9491 8.4703 -2.4370 -0.250 -0.946 0.208 161 111 94 0 0
1.9801 8.4658 -2.4292 -0.261 -0.949 0.175 152 101 82 0 0
1.9954 8.4645 -2.4254 0.038 -0.973 0.226 148 97 78 0 0
2.0945 8.5107 -2.4075 -0.116 -0.990 -0.084 158 104 83 0 0
2.3660 8.5357 -2.3466 0.158 -0.976 0.150 169 121 100 0 0
2.3957 8.5435 -2.3405 0.081 -0.961 0.265 184 134 115 0 0
2.6255 7.5541 -2.1710 -0.827 -0.547 0.128 157 120 98 0 0
2.6323 7.6211 -2.1772 0.779 -0.615 0.118 203 177 149 0 0
2.6461 7.6238 -2.1743 0.595 -0.685 0.420 223 198 168 0 0
2.6588 7.6357 -2.1727 0.632 -0.620 0.465 219 194 163 0 0
2.9600 7.5620 -2.0933 -0.277 -0.708 0.650 223 202 172 0 0
2.9743 7.5585 -2.0895 -0.275 -0.722 0.635 224 201 170 0 0
3.5661 7.5623 -1.9507 -0.446 -0.630 0.636 226 205 175 0 0
3.6371 7.5756 -1.9356 -0.504 -0.699 0.507 225 203 174 0 0
3.7080 7.5504 -1.9160 0.022 -0.785 0.620 228 208 179 0 0
3.9777 7.5304 -1.8502 -0.416 -0.759 0.501 224 203 174 0 0
4.0209 7.5417 -1.8414 -0.517 -0.640 0.568 218 197 169 0 0
4.1200 7.5247 -1.8161 -0.296 -0.640 0.709 227 206 177 0 0
4.3332 7.5070 -1.7639 -0.522 -0.646 0.558 226 205 176 0 0
4.4607 7.4918 -1.7321 -0.128 -0.848 0.515 222 201 170 0 0
4.7419 7.4428 -1.6603 -0.088 -0.858 0.506 228 208 177 0 0
4.7558 7.4394 -1.6566 -0.312 -0.835 0.454 226 205 176 0 0
5.8283 10.1687 -1.7229 0.397 -0.911 -0.110 131 84 68 0 0
5.8675 10.1785 -1.7148 0.026 -0.899 -0.437 120 74 59 0 0
5.9849 10.2031 -1.6901 0.527 -0.827 -0.194 115 72 55 0 0
6.0270 10.2259 -1.6829 0.256 -0.953 -0.164 128 82 66 0 0
6.3243 10.3749 -1.6303 0.373 -0.912 -0.170 125 93 83 0 0
6.4665 10.4089 -1.6009 0.308 -0.675 0.670 206 197 190 0 0
6.4891 10.4234 -1.5972 0.283 -0.761 0.584 207 199 192 0 0
6.5110 10.4345 -1.5934 0.283 -0.761 0.584 207 200 192 0 0
6.5734 10.5351 -1.5905 0.364 -0.780 -0.509 210 202 196 0 0
6.6347 10.6282 -1.5869 -0.069 -0.503 -0.861 212 205 199 0 0
6.6537 10.6256 -1.5821 -0.256 -0.537 -0.804 212 205 199 0 0
6.4450 7.3032 -1.2435 -0.339 -0.939 -0.051 210 191 161 0 0
6.5755 7.1661 -1.1968 -0.384 -0.896 -0.224 205 186 156 0 0
6.7161 7.0721 -1.1527 -0.248 -0.968 -0.023 200 181 149 0 0
6.9492 6.9678 -1.0857 -0.215 -0.923 0.319 188 168 134 0 0
7.1115 6.9108 -1.0409 -0.117 -0.980 0.159 179 160 127 0 0
7.1273 6.9149 -1.0377 -0.322 -0.945 -0.054 186 166 134 0 0
7.2115 6.8781 -1.0136 -0.049 -0.981 0.187 178 161 127 0 0
7.6850 6.9195 -0.9071 0.048 -0.926 0.374 191 168 135 0 0
0.9461 10.7893 -2.9635 -0.274 -0.572 0.773 229 225 222 0 0
0.9662 10.7812 -2.9578 -0.247 -0.790 0.562 228 224 221 0 0
0.9163 11.1057 -3.0079 -0.810 -0.391 -0.436 227 223 220 0 0
1.0857 10.6457 -2.9137 -0.880 -0.436 -0.190 205 185 178 0 0
1.1190 10.5714 -2.8971 -0.880 -0.436 -0.190 197 159 148 0 0
1.9819 8.4764 -2.4464 -0.134 -0.981 -0.140 161 110 91 0 0
1.9975 8.4735 -2.4424 -0.155 -0.988 -0.007 164 113 94 0 0
2.2348 8.5138 -2.3914 -0.083 -0.800 0.595 163 111 92 0 0
2.3549 8.5309 -2.3652 0.226 -0.968 -0.105 177 127 106 0 0
2.6301 7.5426 -2.1836 -0.651 -0.689 0.318 191 163 137 0 0
2.6443 7.5393 -2.1798 -0.649 -0.689 0.321 224 200 169 0 0
2.6571 7.5499 -2.1781 -0.420 -0.903 -0.090 217 193 161 0 0
2.6717 7.5430 -2.1738 -0.379 -0.920 0.099 215 191 160 0 0
2.7403 7.5543 -2.1590 -0.441 -0.656 0.612 227 207 177 0 0
2.8243 7.5505 -2.1388 -0.333 -0.660 0.673 228 208 181 0 0
2.9499 7.5543 -2.1098 -0.296 -0.728 0.619 224 203 175 0 0
3.7114 7.5401 -1.9291 0.022 -0.785 0.620 227 206 176 0 0
3.9807 7.5171 -1.8631 -0.404 -0.697 0.593 227 206 179 0 0
3.9952 7.5236 -1.8605 -0.355 -0.784 0.509 226 207 177 0 0
4.0368 7.4972 -1.8476 -0.231 -0.752 0.618 226 205 176 0 0
4.0651 7.4945 -1.8406 -0.030 -0.760 0.649 222 202 173 0 0
4.0796 7.5019 -1.8380 -0.126 -0.755 0.644 227 208 178 0 0
4.1085 7.5094 -1.8322 -0.237 -0.806 0.543 228 209 179 0 0
4.6014 7.4320 -1.7072 -0.395 -0.825 0.404 227 207 180 0 0
4.6154 7.4296 -1.7036 -0.341 -0.914 0.221 227 207 178 0 0
5.8755 10.1965 -1.7348 0.234 -0.957 -0.175 113 67 49 0 0
6.3603 10.4291 -1.6484 0.389 -0.907 0.162 200 188 180 0 0
6.3818 10.4392 -1.6445 0.358 -0.896 0.262 202 193 186 0 0
6.3969 10.4205 -1.6387 -0.274 -0.735 0.621 205 196 190 0 0
6.4281 10.4733 -1.6376 0.510 -0.817 0.268 206 197 191 0 0
6.4211 10.3579 -1.6256 -0.482 -0.730 0.484 207 198 191 0 0
6.4413 10.3624 -1.6214 0.175 -0.827 0.535 209 200 193 0 0
6.4724 10.4139 -1.6202 0.673 -0.696 -0.251 208 201 194 0 0
6.5007 10.2887 -1.5987 0.287 -0.699 0.656 211 204 198 0 0
6.5317 10.3388 -1.5974 -0.180 -0.754 0.631 212 205 199 0 0
6.5771 7.1599 -1.2106 -0.439 -0.897 -0.052 210 191 160 0 0
6.8418 7.0138 -1.1311 -0.383 -0.923 0.035 198 177 148 0 0
6.8741 6.9852 -1.1201 0.007 -0.996 0.092 192 173 141 0 0
6.9008 6.9806 -1.1133 -0.108 -0.993 0.046 192 173 141 0 0
6.9146 6.9796 -1.1099 -0.013 -1.000 0.017 189 169 137 0 0
6.9379 6.9659 -1.1028 -0.298 -0.925 0.236 191 169 135 0 0
7.1143 6.9086 -1.0546 -0.124 -0.972 0.201 182 162 129 0 0
7.1308 6.9145 -1.0514 -0.322 -0.945 -0.054 185 165 132 0 0
7.1588 6.8785 -1.0406 -0.047 -0.995 0.087 177 157 125 0 0
7.2431 6.8772 -1.0206 -0.055 -0.986 -0.159 174 158 125 0 0
7.6880 6.9179 -0.9209 0.084 -0.969 0.233 179 156 124 0 0
0.9242 10.8258 -2.9930 -0.159 -0.821 0.548 229 225 222 0 0
0.9408 10.8345 -2.9901 -0.841 -0.497 0.212 229 225 222 0 0
1.9860 8.4728 -2.4614 -0.191 -0.975 0.117 159 106 88 0 0
2.6499 7.5173 -2.1908 -0.716 -0.556 0.423 212 188 155 0 0
2.6641 7.5141 -2.1871 -0.770 -0.585 0.254 217 194 161 0 0
2.6762 7.5319 -2.1864 -0.407 -0.911 0.060 222 199 167 0 0
2.9541 7.5419 -2.1223 -0.296 -0.728 0.619 226 205 177 0 0
2.9682 7.5407 -2.1189 -0.165 -0.773 0.613 225 204 175 0 0
3.9270 7.5081 -1.8898 0.143 -0.887 0.440 222 201 170 0 0
3.9410 7.5015 -1.8857 -0.326 -0.742 0.586 224 203 173 0 0
4.0260 7.4973 -1.8652 -0.557 -0.671 0.489 225 204 176 0 0
4.0399 7.4886 -1.8609 -0.251 -0.834 0.491 227 206 177 0 0
4.0539 7.4860 -1.8573 -0.101 -0.729 0.677 227 206 178 0 0
4.0682 7.4870 -1.8541 -0.101 -0.729 0.677 229 208 180 0 0
4.0828 7.4958 -1.8517 -0.005 -0.760 0.650 228 208 178 0 0
4.7149 7.3958 -1.6912 -0.154 -0.796 0.585 225 202 170 0 0
4.9393 7.3689 -1.6353 -0.261 -0.667 0.698 229 208 179 0 0
6.2708 10.3489 -1.6799 -0.184 -0.522 0.833 199 187 179 0 0
6.3362 10.3856 -1.6689 0.312 -0.806 0.503 205 197 190 0 0
6.3671 10.4381 -1.6680 0.506 -0.848 -0.157 205 197 189 0 0
6.3791 10.4057 -1.6613 0.096 -0.729 0.677 205 197 190 0 0
6.3972 10.4004 -1.6564 -0.289 -0.574 0.767 207 198 191 0 0
6.4228 10.3442 -1.6436 -0.495 -0.721 0.484 209 202 194 0 0
6.4400 10.3358 -1.6386 -0.495 -0.721 0.484 210 203 197 0 0
6.2971 7.5249 -1.3350 -0.780 -0.601 -0.172 207 187 156 0 0
6.4648 7.2961 -1.2682 -0.391 -0.894 -0.218 208 189 159 0 0
6.4775 7.2903 -1.2645 -0.324 -0.898 -0.296 209 190 160 0 0
6.8091 6.9920 -1.1509 -0.264 -0.945 -0.191 195 176 144 0 0
6.8916 6.9846 -1.1306 -0.009 -0.998 0.062 193 174 142 0 0
6.9400 6.9618 -1.1165 -0.298 -0.925 0.236 183 161 127 0 0
7.0250 6.9243 -1.0921 -0.360 -0.930 -0.068 193 174 142 0 0
7.1763 6.8779 -1.0509 -0.041 -0.993 0.109 175 154 123 0 0
0.9605 10.7618 -2.9967 -0.366 -0.643 0.673 229 225 223 0 0
1.1249 10.5835 -2.9364 -0.865 -0.468 -0.182 191 161 152 0 0
2.0053 8.4694 -2.4728 -0.263 -0.963 -0.058 171 116 100 0 0
2.3789 8.5184 -2.3911 0.295 -0.865 0.406 123 68 49 0 0
2.6649 7.5382 -2.2048 -0.510 -0.818 0.265 224 200 168 0 0
2.6782 7.5442 -2.2024 -0.028 -0.909 0.416 227 204 174 0 0
2.9739 7.5070 -2.1285 0.128 -0.717 0.685 226 205 176 0 0
3.6756 7.5167 -1.9649 -0.443 -0.676 0.590 224 204 176 0 0
4.0288 7.4820 -1.8778 -0.251 -0.834 0.491 225 204 176 0 0
4.0429 7.4798 -1.8742 -0.251 -0.834 0.491 223 202 172 0 0
4.0714 7.4820 -1.8678 -0.111 -0.789 0.605 226 204 175 0 0
4.0858 7.4853 -1.8648 -0.071 -0.821 0.567 226 205 176 0 0
4.0998 7.4825 -1.8612 -0.070 -0.834 0.547 228 207 178 0 0
4.3519 7.4282 -1.7954 0.088 -0.646 0.758 228 206 174 0 0
4.6625 7.4051 -1.7197 -0.362 -0.759 0.542 225 204 174 0 0
4.6905 7.4009 -1.7126 -0.206 -0.801 0.562 226 203 173 0 0
4.7025 7.3817 -1.7075 -0.109 -0.740 0.664 225 202 171 0 0
4.7169 7.3833 -1.7043 -0.101 -0.698 0.709 222 199 167 0 0
5.7623 10.1403 -1.7939 0.345 -0.919 -0.191 115 68 53 0 0
5.7822 10.1470 -1.7901 0.345 -0.919 -0.191 117 74 57 0 0
6.3379 10.3713 -1.6869 0.398 -0.830 0.390 208 198 192 0 0
6.3572 10.3722 -1.6825 -0.000 -0.659 0.752 209 200 193 0 0
6.3777 10.3778 -1.6784 -0.490 -0.506 0.710 208 201 193 0 0
6.3983 10.3840 -1.6743 -0.589 -0.410 0.697 208 202 195 0 0
6.4454 10.4221 -1.6678 -0.956 -0.215 0.200 210 203 195 0 0
6.4440 10.3324 -1.6573 -0.725 -0.683 0.085 211 204 197 0 0
6.4522 10.2849 -1.6496 -0.236 -0.907 0.349 212 205 199 0 0
6.4707 10.2828 -1.6450 -0.313 -0.935 0.170 212 206 200 0 0
6.6256 10.5292 -1.6386 0.661 -0.484 -0.574 216 210 204 0 0
6.4549 7.2993 -1.2861 -0.637 -0.762 0.114 202 183 153 0 0
6.4833 7.2969 -1.2791 -0.427 -0.902 0.059 206 188 158 0 0
6.5190 7.2259 -1.2621 -0.308 -0.942 0.134 204 185 155 0 0
6.6366 7.1436 -1.2245 -0.100 -0.990 -0.096 196 175 144 0 0
6.6865 7.0791 -1.2049 -0.362 -0.905 0.222 198 178 146 0 0
6.7695 7.0304 -1.1795 -0.424 -0.855 0.298 194 174 144 0 0
7.1676 6.8824 -1.0681 -0.141 -0.951 0.275 176 155 124 0 0
7.2668 6.8827 -1.0448 -0.261 -0.958 0.120 176 157 125 0 0
0.9721 10.7273 -3.0097 0.685 -0.716 -0.137 229 225 223 0 0
1.0998 10.6390 -2.9688 -0.812 -0.458 -0.363 225 214 210 0 0
1.1261 10.5984 -2.9576 -0.773 -0.600 -0.206 193 168 159 0 0
2.0558 8.4595 -2.4761 -0.091 -0.973 0.214 168 115 96 0 0
2.1448 8.4725 -2.4569 0.047 -0.934 0.353 186 130 109 0 0
2.2039 8.4838 -2.4444 0.059 -0.835 0.548 170 115 95 0 0
2.2649 8.4830 -2.4300 0.445 -0.859 0.255 151 97 79 0 0
2.8947 7.4940 -2.1604 -0.512 -0.709 0.485 224 205 174 0 0
2.9088 7.4911 -2.1568 -0.466 -0.789 0.401 227 207 178 0 0
2.9367 7.4899 -2.1501 -0.329 -0.794 0.512 228 208 180 0 0
2.9648 7.4857 -2.1430 0.092 -0.671 0.736 224 204 174 0 0
3.0054 7.5032 -2.1356 0.469 -0.780 0.416 225 205 175 0 0
3.0188 7.5116 -2.1335 0.210 -0.859 0.467 226 207 177 0 0
3.0325 7.5158 -2.1308 0.191 -0.889 0.415 226 207 177 0 0
3.0462 7.5200 -2.1281 0.191 -0.889 0.415 221 201 171 0 0
3.0736 7.5283 -2.1227 0.079 -0.736 0.673 226 204 173 0 0
3.1584 7.5151 -2.1012 -0.277 -0.714 0.643 226 205 178 0 0
3.1730 7.5024 -2.0962 -0.301 -0.820 0.487 227 206 179 0 0
3.1871 7.4994 -2.0925 -0.301 -0.820 0.487 229 208 179 0 0
3.7071 7.4904 -1.9694 -0.497 -0.706 0.505 223 202 172 0 0
4.1440 7.4465 -1.8615 -0.018 -0.732 0.681 228 206 178 0 0
4.3566 7.4434 -1.8112 -0.519 -0.604 0.604 230 206 175 0 0
4.6918 7.3816 -1.7250 -0.254 -0.783 0.567 230 207 179 0 0
4.7329 7.3691 -1.7138 0.058 -0.760 0.648 224 204 171 0 0
4.8302 7.3517 -1.6888 -0.245 -0.547 0.801 226 206 176 0 0
4.8590 7.3548 -1.6824 -0.069 -0.739 0.670 226 205 176 0 0
6.2819 10.6272 -1.7516 0.695 -0.383 -0.608 207 197 192 0 0
6.2483 10.2888 -1.7178 0.254 -0.766 0.590 206 199 192 0 0
6.2696 10.2994 -1.7141 0.299 -0.751 0.588 208 200 193 0 0
6.2909 10.3096 -1.7104 0.197 -0.795 0.573 208 201 195 0 0
6.3120 10.3190 -1.7066 0.414 -0.763 0.497 207 203 194 0 0
6.3414 10.3657 -1.7055 0.291 -0.830 0.476 207 203 195 0 0
6.3714 10.4143 -1.7044 -0.487 -0.853 -0.189 209 203 197 0 0
6.3903 10.4125 -1.6998 -0.607 -0.499 -0.619 211 204 198 0 0
6.4040 10.3881 -1.6935 -0.607 -0.499 -0.619 212 204 199 0 0
6.3929 10.2548 -1.6797 0.097 -0.955 -0.279 213 204 199 0 0
6.4152 10.2692 -1.6763 0.096 -0.933 0.347 213 206 198 0 0
6.4365 10.2791 -1.6725 0.053 -0.943 -0.327 213 206 200 0 0
6.4551 10.2771 -1.6679 -0.236 -0.907 0.349 213 207 201 0 0
6.4744 10.2782 -1.6635 -0.313 -0.935 0.170 213 208 203 0 0
6.4923 10.2731 -1.6586 -0.313 -0.935 0.170 214 209 204 0 0
6.5613 10.4023 -1.6584 0.055 -0.879 -0.473 216 209 203 0 0
6.3322 7.4659 -1.3505 -0.670 -0.729 0.141 207 186 153 0 0
6.5219 7.2233 -1.2761 -0.214 -0.972 -0.093 205 186 154 0 0
6.5361 7.2225 -1.2727 -0.363 -0.932 0.014 204 184 152 0 0
6.9864 6.9526 -1.1338 -0.042 -0.998 0.040 190 170 138 0 0
7.0008 6.9533 -1.1305 -0.015 -0.999 0.050 188 167 135 0 0
7.0222 6.9351 -1.1233 -0.188 -0.953 0.238 189 169 136 0 0
7.4609 6.8640 -1.0116 -0.314 -0.934 0.171 187 168 137 0 0
1.1316 10.5922 -2.9753 -0.802 -0.559 -0.209 194 174 167 0 0
1.1557 10.5621 -2.9659 -0.764 -0.623 -0.168 211 177 166 0 0
1.6622 8.4849 -2.5880 -0.511 -0.683 0.522 177 128 107 0 0
1.8828 8.4311 -2.5295 -0.060 -0.854 0.518 145 97 78 0 0
2.0293 8.4581 -2.4986 0.028 -0.899 0.438 165 110 89 0 0
2.0447 8.4564 -2.4947 0.290 -0.919 0.268 165 110 90 0 0
2.0756 8.4521 -2.4870 0.134 -0.952 0.275 159 105 85 0 0
2.1644 8.4660 -2.4679 -0.130 -0.967 0.218 180 126 107 0 0
2.1798 8.4647 -2.4641 -0.130 -0.967 0.218 175 122 103 0 0
2.2062 8.4928 -2.4614 0.070 -0.995 0.070 157 104 85 0 0
2.2227 8.4836 -2.4564 -0.242 -0.921 0.304 144 89 68 0 0
2.8848 7.4859 -2.1767 -0.183 -0.762 0.621 224 203 172 0 0
2.8987 7.4852 -2.1733 -0.323 -0.721 0.613 223 202 171 0 0
2.9270 7.4789 -2.1659 -0.323 -0.721 0.613 224 203 174 0 0
3.2463 7.5036 -2.0941 -0.207 -0.750 0.628 225 203 172 0 0
3.6118 7.4748 -2.0048 -0.334 -0.723 0.605 225 202 171 0 0
3.6259 7.4726 -2.0013 -0.197 -0.745 0.637 227 204 172 0 0
4.0489 7.4582 -1.9003 -0.107 -0.781 0.615 227 207 177 0 0
4.2314 7.4306 -1.8540 -0.035 -0.751 0.660 227 204 173 0 0
4.3433 7.4098 -1.8252 -0.265 -0.687 0.676 224 201 170 0 0
4.8036 7.3384 -1.7084 -0.034 -0.705 0.709 226 205 174 0 0
4.8599 7.3347 -1.6947 -0.027 -0.757 0.652 228 204 176 0 0
4.8743 7.3369 -1.6916 -0.027 -0.757 0.652 230 207 178 0 0
4.9034 7.3419 -1.6854 -0.320 -0.766 0.557 221 201 171 0 0
4.9172 7.3386 -1.6818 -0.146 -0.745 0.651 228 207 177 0 0
4.9305 7.3322 -1.6779 -0.375 -0.722 0.582 224 203 172 0 0
4.9441 7.3281 -1.6742 -0.375 -0.722 0.582 222 201 171 0 0
6.0373 10.3507 -1.7950 0.345 -0.450 -0.824 141 117 107 0 0
6.2572 10.6724 -1.7835 0.366 -0.322 -0.873 206 197 190 0 0
6.2884 10.2767 -1.7268 -0.632 -0.638 0.440 210 203 195 0 0
6.3124 10.2992 -1.7240 0.261 -0.622 0.738 212 205 197 0 0
6.3750 10.2388 -1.7018 0.090 -0.546 0.833 213 206 200 0 0
6.4192 10.2660 -1.6948 0.149 -0.972 0.182 214 207 201 0 0
6.4378 10.2640 -1.6902 -0.035 -0.942 0.333 216 209 203 0 0
6.5638 10.3930 -1.6768 0.072 -0.960 -0.271 218 211 205 0 0
6.5832 10.3931 -1.6723 0.072 -0.960 -0.271 218 211 205 0 0
6.3345 7.4610 -1.3647 -0.670 -0.729 0.141 205 182 150 0 0
6.3452 7.4471 -1.3605 -0.634 -0.752 0.180 205 184 153 0 0
6.5391 7.2204 -1.2867 -0.165 -0.940 0.300 204 184 152 0 0
6.8092 7.0015 -1.1961 -0.220 -0.963 0.158 195 176 144 0 0
7.0100 6.9307 -1.1402 -0.027 -0.985 0.168 182 161 127 0 0
7.0242 6.9309 -1.1369 -0.027 -0.985 0.168 183 161 125 0 0
7.1869 6.8771 -1.0920 0.055 -0.997 -0.054 188 169 139 0 0
1.1600 10.5619 -2.9845 -0.764 -0.623 -0.168 206 177 168 0 0
2.0487 8.4531 -2.5098 0.234 -0.906 0.353 174 120 100 0 0
2.0659 8.4393 -2.5040 0.043 -0.972 0.230 163 111 90 0 0
2.2099 8.4920 -2.4769 0.070 -0.995 0.070 133 81 63 0 0
2.6145 7.4549 -2.2510 -0.520 -0.450 0.726 219 198 166 0 0
2.7221 7.4816 -2.2292 -0.208 -0.639 0.740 224 204 177 0 0
2.7511 7.4678 -2.2206 -0.061 -0.743 0.667 227 206 178 0 0
2.7648 7.4693 -2.2176 -0.061 -0.743 0.667 223 202 173 0 0
2.9029 7.4741 -2.1859 -0.183 -0.762 0.621 228 207 178 0 0
2.9172 7.4681 -2.1818 -0.440 -0.750 0.494 226 205 176 0 0
2.9314 7.4641 -2.1779 -0.368 -0.759 0.537 226 205 176 0 0
2.9732 7.4613 -2.1678 -0.024 -0.719 0.695 225 204 175 0 0
4.5536 7.3498 -1.7834 -0.432 -0.812 0.393 224 203 172 0 0
5.1363 7.2640 -1.6360 -0.297 -0.486 0.822 227 204 174 0 0
5.7869 10.2002 -1.8546 -0.019 -0.991 -0.133 118 72 56 0 0
5.8453 10.2120 -1.8424 0.165 -0.895 -0.415 118 73 59 0 0
6.0189 10.4281 -1.8290 0.391 -0.339 -0.856 182 169 159 0 0
6.2677 10.2471 -1.7478 0.064 -0.969 -0.239 212 205 197 0 0
6.3291 10.3532 -1.7469 0.088 -0.337 0.938 213 206 199 0 0
6.3016 10.1430 -1.7268 0.205 -0.487 0.849 213 206 200 0 0
6.5284 10.1456 -1.6739 0.582 -0.805 -0.115 219 212 206 0 0
6.2682 7.5805 -1.4108 -0.822 -0.569 -0.023 204 180 146 0 0
6.3017 7.5408 -1.3979 -0.811 -0.581 -0.068 200 176 142 0 0
6.6290 7.1311 -1.2694 -0.346 -0.921 0.178 204 183 151 0 0
6.8002 7.0061 -1.2135 -0.069 -0.997 0.029 192 173 141 0 0
6.9594 6.9371 -1.1675 -0.008 -0.989 0.147 185 165 132 0 0
7.0667 6.9215 -1.1404 -0.113 -0.994 0.010 184 165 133 0 0
7.1392 6.8900 -1.1194 -0.205 -0.969 0.139 182 163 131 0 0
7.5305 6.8763 -1.0260 0.024 -0.993 0.120 181 161 128 0 0
7.5440 6.8746 -1.0226 -0.050 -0.988 0.146 181 161 128 0 0
8.6548 7.8305 -0.8831 0.794 -0.536 0.286 246 246 244 0 0
1.1673 10.5461 -3.0004 -0.832 -0.545 0.101 200 175 169 0 0
1.6926 8.4414 -2.6080 -0.110 -0.994 -0.013 177 131 109 0 0
2.0412 8.4269 -2.5245 0.233 -0.972 0.046 197 145 124 0 0
2.1698 8.4787 -2.5010 0.476 -0.878 -0.054 111 65 48 0 0
3.2688 7.4589 -2.1132 -0.560 -0.653 0.510 226 206 173 0 0
3.2830 7.4512 -2.1088 -0.219 -0.698 0.682 226 205 174 0 0
3.5208 7.4339 -2.0509 0.010 -0.766 0.643 226 205 176 0 0
3.8711 7.4202 -1.9672 -0.108 -0.616 0.780 229 208 179 0 0
3.9414 7.4205 -1.9507 -0.544 -0.587 0.600 223 202 173 0 0
3.9977 7.4219 -1.9377 -0.279 -0.736 0.617 226 205 174 0 0
4.0116 7.4165 -1.9338 -0.411 -0.842 0.348 228 205 174 0 0
4.2078 7.3952 -1.8851 -0.344 -0.853 0.392 225 202 171 0 0
4.3482 7.3841 -1.8508 -0.070 -0.864 0.498 227 204 173 0 0
4.3624 7.3849 -1.8476 -0.058 -0.822 0.567 228 205 174 0 0
4.3757 7.3748 -1.8432 -0.401 -0.629 0.666 230 208 177 0 0
5.1530 7.2582 -1.6462 -0.059 -0.599 0.799 228 206 178 0 0
5.1662 7.2528 -1.6424 0.028 -0.443 0.896 225 203 173 0 0
5.1955 7.2586 -1.6363 0.255 -0.345 0.903 221 201 169 0 0
5.2116 7.2699 -1.6340 0.002 -0.335 0.942 217 194 166 0 0
6.2055 10.6594 -1.8351 0.791 -0.406 -0.458 208 201 193 0 0
6.2270 10.6690 -1.8313 0.824 -0.459 -0.333 209 202 196 0 0
6.2369 10.6222 -1.8230 0.418 -0.788 -0.452 209 202 196 0 0
6.2488 10.5858 -1.8155 -0.486 -0.847 -0.218 210 203 197 0 0
6.2662 10.5760 -1.8102 -0.410 -0.886 -0.217 210 203 197 0 0
6.2729 10.5163 -1.8010 -0.584 -0.765 -0.273 211 204 198 0 0
6.2667 10.3082 -1.7758 -0.408 -0.900 -0.156 213 206 198 0 0
6.3382 10.2015 -1.7454 -0.177 -0.520 0.836 216 209 203 0 0
6.5359 10.1571 -1.6934 0.601 -0.786 -0.141 219 213 207 0 0
6.2725 7.5827 -1.4256 -0.825 -0.534 -0.186 203 180 145 0 0
6.3037 7.5344 -1.4121 -0.848 -0.524 0.078 200 176 142 0 0
6.3498 7.4374 -1.3889 -0.452 -0.880 -0.146 204 182 151 0 0
6.7079 7.0574 -1.2564 -0.431 -0.891 0.143 195 176 143 0 0
6.8032 7.0042 -1.2273 -0.237 -0.967 -0.097 192 173 141 0 0
6.9483 6.9357 -1.1845 -0.064 -0.946 0.318 187 168 135 0 0
6.9618 6.9340 -1.1811 0.046 -0.973 0.228 182 163 130 0 0
7.7793 6.9425 -0.9908 0.014 -0.999 -0.036 194 177 144 0 0
7.7937 6.9426 -0.9874 0.014 -0.999 -0.036 191 175 142 0 0
7.9763 7.0510 -0.9586 -0.076 -0.995 0.064 210 195 166 0 0
8.6546 7.8219 -0.8984 0.794 -0.536 0.286 246 246 244 0 0
1.1744 10.5316 -3.0165 -0.838 -0.531 0.123 199 182 175 0 0
2.1734 8.4784 -2.5166 0.460 -0.855 0.240 109 63 47 0 0
2.5514 7.4615 -2.2963 -0.575 -0.372 0.729 176 148 125 0 0
3.3293 7.4185 -2.1087 -0.320 -0.750 0.579 225 205 176 0 0
3.3432 7.4188 -2.1055 -0.599 -0.769 0.224 226 207 177 0 0
3.4963 7.4237 -2.0703 -0.350 -0.694 0.629 228 204 176 0 0
4.5301 7.3270 -1.8158 -0.177 -0.622 0.763 227 207 177 0 0
4.5441 7.3259 -1.8124 -0.239 -0.609 0.757 223 202 171 0 0
4.7251 7.3055 -1.7674 -0.316 -0.692 0.649 225 205 177 0 0
4.8495 7.2845 -1.7356 -0.461 -0.769 0.444 229 209 180 0 0
4.9211 7.2915 -1.7197 -0.032 -0.726 0.687 226 205 175 0 0
4.9602 7.2683 -1.7076 -0.181 -0.605 0.775 228 205 175 0 0
5.1663 7.2324 -1.6547 -0.080 -0.442 0.893 225 204 175 0 0
5.2094 7.2364 -1.6451 0.040 -0.315 0.948 222 200 170 0 0
6.0380 10.7813 -1.9106 0.502 -0.228 -0.835 204 196 188 0 0
6.1445 10.6240 -1.8653 0.308 -0.367 -0.878 208 202 194 0 0
6.1656 10.6320 -1.8614 0.364 -0.373 -0.854 208 202 194 0 0
6.1890 10.6509 -1.8583 0.420 -0.384 -0.822 209 202 194 0 0
6.2112 10.6638 -1.8548 0.529 -0.424 -0.735 210 203 195 0 0
6.2209 10.6159 -1.8463 0.668 -0.554 -0.497 211 204 198 0 0
6.2374 10.1507 -1.7822 0.336 -0.941 -0.040 215 208 200 0 0
6.4527 10.2668 -1.7468 -0.239 -0.398 0.885 218 212 206 0 0
6.5519 10.2037 -1.7155 0.126 -0.572 0.811 220 215 210 0 0
6.1619 8.4550 -1.5801 -0.945 -0.321 0.071 224 217 211 0 0
6.2762 7.5821 -1.4402 -0.825 -0.534 -0.186 202 180 148 0 0
6.6965 7.0552 -1.2736 -0.468 -0.882 -0.058 190 170 135 0 0
6.7086 7.0489 -1.2699 -0.417 -0.897 -0.145 197 177 144 0 0
6.8076 7.0063 -1.2412 -0.326 -0.945 0.023 192 173 141 0 0
6.9537 6.9403 -1.1985 0.004 -0.988 -0.155 187 167 134 0 0
6.9804 6.9362 -1.1917 -0.132 -0.976 0.175 183 163 130 0 0
7.1443 6.8847 -1.1467 -0.099 -0.973 0.210 183 164 134 0 0
7.1668 6.8705 -1.1396 -0.143 -0.988 0.050 182 165 135 0 0
7.2676 6.8750 -1.1166 -0.117 -0.990 0.083 185 166 134 0 0
7.7827 6.9420 -1.0047 -0.077 -0.997 0.011 195 176 144 0 0
7.7977 6.9432 -1.0013 0.014 -0.999 -0.036 198 182 149 0 0
7.9816 7.0242 -0.9688 0.173 -0.983 0.069 209 193 165 0 0
1.0508 10.8941 -3.1125 -0.879 -0.350 -0.323 227 223 220 0 0
1.1760 10.5445 -3.0374 -0.860 -0.508 -0.048 212 199 192 0 0
1.2035 10.4968 -3.0247 -0.860 -0.508 -0.048 201 177 169 0 0
1.7508 8.4078 -2.6226 -0.340 -0.820 0.460 192 146 127 0 0
2.0344 8.4192 -2.5578 0.218 -0.976 0.006 146 91 71 0 0
2.1036 8.4606 -2.5470 0.198 -0.924 -0.327 122 75 58 0 0
2.3063 8.5372 -2.5096 0.275 -0.885 -0.375 114 63 49 0 0
2.3223 8.5319 -2.5052 -0.182 -0.982 -0.047 115 68 52 0 0
2.5263 7.4683 -2.3179 -0.657 -0.363 0.661 113 73 54 0 0
3.1805 7.4064 -2.1568 -0.385 -0.679 0.625 223 204 172 0 0
3.8349 7.3817 -2.0005 -0.004 -0.642 0.766 225 204 175 0 0
3.9470 7.3862 -1.9749 -0.462 -0.624 0.631 223 202 173 0 0
4.2131 7.3689 -1.9104 -0.285 -0.608 0.741 228 207 178 0 0
4.5320 7.3110 -1.8282 -0.302 -0.688 0.660 227 206 176 0 0
4.5460 7.3105 -1.8249 -0.247 -0.700 0.670 225 204 173 0 0
5.0563 7.2279 -1.6947 0.294 -0.884 0.364 226 205 176 0 0
5.0724 7.2411 -1.6926 -0.508 -0.652 0.563 224 203 174 0 0
5.0868 7.2429 -1.6895 -0.600 -0.709 0.371 224 203 172 0 0
5.1834 7.2292 -1.6651 -0.067 -0.538 0.840 227 206 176 0 0
6.0047 10.6832 -1.9262 0.757 -0.422 -0.498 206 197 189 0 0
6.0345 10.7371 -1.9263 0.772 -0.416 -0.481 208 199 192 0 0
6.2085 10.9179 -1.9093 0.357 -0.378 -0.854 209 203 196 0 0
6.2404 10.1428 -1.8002 0.156 -0.907 0.392 216 209 201 0 0
6.2650 10.1694 -1.7979 -0.166 -0.952 0.258 215 208 202 0 0
6.2654 10.0855 -1.7868 -0.304 -0.714 -0.631 216 209 203 0 0
6.3067 10.1029 -1.7794 -0.206 -0.538 -0.817 217 209 206 0 0
6.4336 10.4978 -1.8015 0.013 -0.749 0.662 219 212 206 0 0
6.1638 8.4461 -1.5955 -0.936 -0.336 0.104 225 218 213 0 0
6.2283 7.7227 -1.4854 -0.892 -0.435 -0.121 196 171 138 0 0
6.3588 7.4425 -1.4182 -0.416 -0.910 0.011 206 183 152 0 0
6.3718 7.4367 -1.4143 -0.357 -0.923 -0.146 203 181 150 0 0
6.7124 7.0493 -1.2839 -0.633 -0.764 -0.123 189 167 134 0 0
6.8098 7.0025 -1.2549 -0.343 -0.937 0.072 193 174 142 0 0
7.2118 6.8680 -1.1433 -0.082 -0.996 -0.026 176 161 132 0 0
7.4017 6.8488 -1.0963 -0.027 -0.986 0.163 194 173 141 0 0
1.7718 8.3942 -2.6321 -0.470 -0.816 0.336 194 151 132 0 0
1.9260 8.3685 -2.5927 -0.212 -0.899 0.384 168 116 98 0 0
1.9527 8.3877 -2.5890 0.330 -0.914 0.234 153 102 83 0 0
1.9676 8.3884 -2.5856 0.119 -0.967 0.226 136 87 68 0 0
2.2207 8.5178 -2.5436 0.056 -0.978 -0.199 112 65 49 0 0
2.6001 7.4537 -2.3136 -0.164 -0.705 0.690 223 202 170 0 0
3.1427 7.3986 -2.1795 -0.079 -0.730 0.679 229 205 177 0 0
3.1565 7.3999 -2.1764 -0.079 -0.730 0.679 229 206 175 0 0
3.8246 7.3977 -2.0199 -0.343 -0.592 0.730 229 210 181 0 0
3.9217 7.3639 -1.9928 -0.100 -0.801 0.591 226 207 177 0 0
4.4093 7.3152 -1.8723 -0.282 -0.701 0.655 223 202 171 0 0
4.4233 7.3145 -1.8690 -0.222 -0.669 0.709 227 204 176 0 0
4.4374 7.3154 -1.8658 -0.030 -0.676 0.737 231 208 179 0 0
4.4930 7.3090 -1.8519 -0.189 -0.882 0.432 227 208 178 0 0
4.5070 7.3077 -1.8485 -0.189 -0.882 0.432 229 210 180 0 0
4.5347 7.3036 -1.8415 -0.125 -0.911 0.392 227 205 177 0 0
4.5488 7.3039 -1.8382 0.040 -0.855 0.517 226 203 174 0 0
4.5630 7.3054 -1.8351 -0.207 -0.771 0.602 225 202 171 0 0
4.9041 7.2213 -1.7442 -0.075 -0.860 0.505 225 202 171 0 0
4.9180 7.2199 -1.7408 -0.522 -0.644 0.559 226 203 172 0 0
5.9980 10.7262 -1.9540 0.661 -0.349 -0.665 207 199 192 0 0
6.0845 10.6662 -1.9258 0.670 -0.649 -0.360 212 203 196 0 0
6.1101 10.6968 -1.9239 0.579 -0.745 -0.332 213 202 196 0 0
6.1323 10.7100 -1.9205 0.516 -0.699 -0.495 212 203 196 0 0
6.2632 10.1397 -1.8141 0.011 -0.954 -0.298 216 209 203 0 0
6.5227 10.2006 -1.7616 -0.266 -0.960 0.090 222 218 210 0 0
6.5404 10.1956 -1.7567 0.353 -0.922 0.161 221 217 210 0 0
6.3602 7.4345 -1.4321 -0.528 -0.819 0.223 201 180 149 0 0
6.4812 7.2541 -1.3799 -0.317 -0.945 -0.075 207 188 157 0 0
6.9849 6.9290 -1.2190 -0.071 -0.979 0.190 191 169 137 0 0
6.9983 6.9270 -1.2156 -0.122 -0.970 0.212 185 165 133 0 0
7.0350 6.9118 -1.2050 -0.075 -0.982 0.174 178 158 125 0 0
7.2020 6.8696 -1.1603 -0.140 -0.983 0.122 171 155 127 0 0
7.9900 7.0258 -0.9969 0.002 -1.000 -0.014 207 190 162 0 0
1.2046 10.5338 -3.0685 -0.653 -0.473 0.592 200 181 175 0 0
1.8831 8.3770 -2.6201 -0.033 -0.999 0.027 177 125 106 0 0
1.8977 8.3795 -2.6170 -0.070 -0.991 -0.113 182 130 109 0 0
1.9263 8.3874 -2.6114 0.154 -0.983 -0.105 149 97 79 0 0
1.9568 8.3844 -2.6039 0.093 -0.995 0.026 124 75 57 0 0
1.9716 8.3859 -2.6006 0.093 -0.995 0.026 119 71 53 0 0
2.0733 8.4082 -2.5798 0.111 -0.971 -0.210 122 72 54 0 0
2.2235 8.5237 -2.5603 0.220 -0.959 -0.180 120 73 57 0 0
2.7518 7.3445 -2.2784 -0.474 -0.758 0.448 222 201 170 0 0
3.1604 7.3869 -2.1886 -0.065 -0.715 0.696 226 202 173 0 0
3.2302 7.3730 -2.1704 -0.398 -0.607 0.688 225 204 174 0 0
3.3133 7.3676 -2.1503 0.020 -0.682 0.731 226 202 174 0 0
3.9248 7.3533 -2.0055 -0.069 -0.766 0.639 227 206 177 0 0
4.5230 7.2927 -1.8576 -0.027 -0.780 0.625 228 208 179 0 0
4.5373 7.2946 -1.8545 -0.027 -0.780 0.625 229 208 179 0 0
4.5515 7.2966 -1.8515 -0.027 -0.780 0.625 229 207 178 0 0
4.9062 7.2111 -1.7571 -0.278 -0.791 0.545 227 203 174 0 0
6.0047 10.7356 -1.9743 0.707 -0.363 -0.607 210 201 194 0 0
6.1168 10.7064 -1.9442 0.625 -0.626 -0.465 214 205 198 0 0
6.1436 10.7424 -1.9428 0.449 -0.605 0.658 213 205 198 0 0
6.2488 10.1386 -1.8370 -0.010 -0.950 0.311 217 211 205 0 0
6.2698 10.1483 -1.8334 0.294 -0.928 0.229 216 211 205 0 0
6.2723 10.0745 -1.8229 -0.620 -0.781 0.073 217 211 205 0 0
6.3078 10.0657 -1.8135 -0.147 -0.733 -0.664 217 212 206 0 0
6.3898 7.4222 -1.4389 -0.580 -0.611 0.538 203 181 147 0 0
6.9865 6.9235 -1.2325 -0.007 -0.977 0.214 186 165 134 0 0
7.0001 6.9220 -1.2291 -0.012 -0.987 0.162 183 163 132 0 0
7.1384 6.8782 -1.1909 -0.036 -0.999 -0.035 181 164 131 0 0
7.2045 6.8668 -1.1739 -0.139 -0.975 0.174 137 120 92 0 0
1.2141 10.5069 -3.0823 -0.727 -0.433 0.533 204 185 181 0 0
1.8859 8.3809 -2.6362 -0.019 -0.996 0.091 137 89 71 0 0
1.9015 8.3775 -2.6321 -0.039 -0.998 0.050 131 82 64 0 0
1.9168 8.3756 -2.6283 -0.016 -0.999 -0.038 128 79 61 0 0
1.9582 8.3975 -2.6216 -0.003 -0.996 -0.094 114 67 50 0 0
1.9724 8.4025 -2.6189 0.283 -0.951 -0.121 116 69 53 0 0
2.1234 8.5018 -2.5972 -0.202 -0.887 -0.416 109 63 47 0 0
3.1647 7.3687 -2.1999 -0.267 -0.850 0.454 223 202 173 0 0
3.2342 7.3575 -2.1822 -0.249 -0.637 0.730 226 205 176 0 0
3.3308 7.3576 -2.1596 -0.057 -0.719 0.693 228 206 178 0 0
3.3724 7.3536 -2.1494 -0.296 -0.669 0.682 228 208 178 0 0
3.4139 7.3525 -2.1396 -0.243 -0.602 0.760 225 205 176 0 0
3.5523 7.3561 -2.1077 -0.416 -0.647 0.639 224 205 175 0 0
3.5662 7.3497 -2.1036 -0.481 -0.620 0.620 232 213 183 0 0
3.5940 7.3426 -2.0961 -0.230 -0.787 0.573 224 204 174 0 0
3.9558 7.3432 -2.0118 0.013 -0.680 0.733 228 205 178 0 0
4.0813 7.3367 -1.9816 -0.612 -0.744 0.266 224 204 171 0 0
4.1222 7.3176 -1.9694 0.068 -0.582 0.810 226 205 174 0 0
4.8523 7.2016 -1.7832 -0.322 -0.644 0.694 226 207 177 0 0
4.8654 7.1952 -1.7793 -0.479 -0.580 0.659 224 204 174 0 0
4.8804 7.2025 -1.7768 -0.224 -0.686 0.692 227 206 177 0 0
4.9074 7.1952 -1.7695 -0.255 -0.640 0.725 230 209 180 0 0
4.9346 7.1895 -1.7623 -0.644 -0.666 0.377 225 204 175 0 0
4.9616 7.1827 -1.7551 -0.308 -0.772 0.556 226 205 176 0 0
5.1034 7.1932 -1.7234 -0.435 -0.556 0.708 227 208 178 0 0
5.1692 7.1673 -1.7045 -0.345 -0.738 0.580 227 208 176 0 0
5.1825 7.1630 -1.7008 -0.203 -0.788 0.581 224 203 173 0 0
5.9056 10.4900 -1.9847 0.564 -0.452 -0.691 209 202 192 0 0
6.1258 10.7271 -1.9655 0.657 -0.731 -0.185 214 206 200 0 0
6.1499 10.7493 -1.9629 0.276 -0.588 0.760 215 207 202 0 0
6.1726 10.7642 -1.9596 0.276 -0.588 0.760 215 208 202 0 0
6.2761 10.1556 -1.8527 -0.122 -0.992 0.023 217 212 206 0 0
6.2805 10.0903 -1.8428 -0.520 -0.852 -0.069 217 212 206 0 0
6.2092 8.4492 -1.6361 -0.932 -0.005 -0.361 225 223 217 0 0
6.1987 8.2160 -1.6069 -0.935 -0.006 -0.355 184 160 136 0 0
6.3454 7.4594 -1.4697 -0.785 -0.618 0.039 200 180 145 0 0
7.0030 6.9203 -1.2428 -0.084 -0.987 0.137 183 164 133 0 0
7.0529 6.9030 -1.2288 -0.162 -0.983 -0.084 176 156 123 0 0
7.7938 6.9338 -1.0600 -0.130 -0.978 0.165 192 171 139 0 0
1.2023 10.4968 -3.1032 -0.819 -0.501 0.278 226 221 219 0 0
1.2250 10.4725 -3.0946 -0.884 -0.463 0.063 192 176 172 0 0
1.2507 10.4327 -3.0831 -0.756 -0.536 0.376 195 163 157 0 0
1.9457 8.4032 -2.6416 0.030 -0.947 -0.320 119 73 57 0 0
1.9613 8.3997 -2.6374 -0.154 -0.932 -0.328 122 75 59 0 0
2.1259 8.5091 -2.6141 -0.202 -0.887 -0.416 119 73 58 0 0
2.1416 8.5058 -2.6100 -0.192 -0.919 -0.344 103 59 43 0 0
2.1572 8.5037 -2.6060 -0.040 -0.911 -0.410 112 66 51 0 0
2.7190 7.3278 -2.3131 -0.262 -0.700 0.664 224 203 174 0 0
2.7312 7.3420 -2.3122 -0.474 -0.707 0.525 225 204 175 0 0
2.7459 7.3311 -2.3073 -0.691 -0.700 0.180 224 203 174 0 0
3.1558 7.3375 -2.2125 -0.527 -0.699 0.483 228 207 180 0 0
3.1685 7.3591 -2.2125 -0.293 -0.756 0.585 228 207 178 0 0
3.2382 7.3404 -2.1937 -0.337 -0.652 0.679 229 208 179 0 0
3.3206 7.3493 -2.1757 -0.157 -0.684 0.712 225 206 176 0 0
3.3483 7.3459 -2.1687 -0.399 -0.608 0.686 226 207 177 0 0
3.5836 7.3327 -2.1120 -0.399 -0.628 0.668 227 208 178 0 0
3.5974 7.3340 -2.1090 -0.343 -0.636 0.691 228 207 178 0 0
4.1249 7.3036 -1.9817 -0.058 -0.580 0.813 226 205 174 0 0
4.6496 7.2316 -1.8494 -0.200 -0.730 0.653 231 208 177 0 0
4.7996 7.2001 -1.8100 -0.246 -0.671 0.699 225 204 175 0 0
4.8273 7.1978 -1.8033 -0.683 -0.696 0.220 224 205 175 0 0
5.2890 7.3462 -1.7160 0.830 -0.182 0.528 221 199 168 0 0
6.3162 10.0617 -1.8501 -0.619 -0.634 -0.464 220 215 209 0 0
6.4213 10.0309 -1.8213 -0.557 -0.444 0.702 224 219 215 0 0
6.5433 10.2271 -1.8199 -0.311 -0.186 0.932 226 221 216 0 0
6.5792 10.2183 -1.8103 -0.541 -0.121 0.833 225 222 217 0 0
6.5969 10.2127 -1.8054 -0.584 -0.100 0.805 226 222 218 0 0
6.2187 8.4710 -1.6539 -0.914 0.006 -0.405 226 223 218 0 0
6.2125 8.3814 -1.6430 -0.911 0.003 -0.411 227 224 215 0 0
6.2026 8.2159 -1.6225 -0.911 0.003 -0.411 184 163 141 0 0
6.3836 7.3764 -1.4647 -0.100 -0.994 0.041 204 180 146 0 0
6.3963 7.3700 -1.4609 -0.511 -0.857 0.067 204 181 147 0 0
6.4950 7.2631 -1.4231 -0.474 -0.855 -0.213 201 181 149 0 0
6.8763 6.9889 -1.2964 0.146 -0.989 -0.031 187 170 141 0 0
6.8812 6.9635 -1.2918 -0.120 -0.978 0.168 189 172 142 0 0
6.9908 6.9158 -1.2597 0.004 -1.000 0.026 182 164 132 0 0
7.0055 6.9174 -1.2564 -0.212 -0.974 -0.077 185 166 134 0 0
7.0566 6.9030 -1.2426 -0.282 -0.959 -0.015 176 156 124 0 0
7.7963 6.9312 -1.0738 -0.213 -0.977 0.016 188 168 136 0 0
1.2125 10.4663 -3.1161 -0.823 -0.534 0.193 226 222 220 0 0
1.2343 10.4464 -3.1083 -0.725 -0.562 0.397 217 208 203 0 0
1.2582 10.4159 -3.0985 -0.779 -0.513 0.361 194 168 161 0 0
1.7476 8.4389 -2.7090 -0.428 -0.678 -0.598 168 120 106 0 0
1.9004 8.4252 -2.6715 -0.227 -0.947 -0.228 115 73 58 0 0
1.9167 8.4177 -2.6666 -0.219 -0.959 -0.181 108 66 50 0 0
2.1297 8.5080 -2.6295 -0.079 -0.911 -0.406 120 75 59 0 0
2.1757 8.5055 -2.6185 0.411 -0.819 -0.399 102 61 45 0 0
2.7225 7.3243 -2.3264 -0.359 -0.722 0.591 224 206 176 0 0
2.7370 7.3162 -2.3219 -0.358 -0.833 0.422 226 205 176 0 0
2.7510 7.3114 -2.3180 -0.474 -0.831 0.292 226 204 175 0 0
3.0504 7.3209 -2.2495 -0.342 -0.671 0.658 227 206 178 0 0
3.1321 7.3293 -2.2316 -0.588 -0.808 0.036 227 207 180 0 0
3.1601 7.3183 -2.2236 -0.530 -0.738 0.417 226 206 179 0 0
3.2421 7.3255 -2.2054 -0.311 -0.662 0.682 223 202 173 0 0
3.5181 7.3039 -2.1381 0.018 -0.766 0.643 223 203 176 0 0
3.6423 7.3206 -2.1114 -0.147 -0.636 0.758 226 203 172 0 0
4.2790 7.2609 -1.9547 -0.210 -0.626 0.751 228 206 177 0 0
4.8017 7.1896 -1.8229 -0.273 -0.699 0.661 225 204 175 0 0
4.8710 7.1854 -1.8061 -0.398 -0.692 0.603 228 209 179 0 0
5.2194 7.0943 -1.7122 -0.773 -0.634 -0.031 223 203 170 0 0
6.2318 8.5725 -1.6820 -0.900 -0.001 -0.436 226 223 218 0 0
6.2259 8.4834 -1.6709 -0.897 0.000 -0.443 227 224 217 0 0
6.2095 8.2271 -1.6391 -0.893 0.001 -0.450 183 164 143 0 0
6.6844 7.0814 -1.3688 -0.409 -0.884 -0.225 193 176 147 0 0
6.8803 6.9899 -1.3104 -0.193 -0.973 0.125 188 171 143 0 0
6.9798 6.9145 -1.2767 -0.114 -0.993 0.045 187 170 141 0 0
7.0060 6.9091 -1.2698 -0.263 -0.960 -0.097 180 162 129 0 0
7.0182 6.9042 -1.2663 -0.300 -0.952 -0.063 184 168 134 0 0
7.0318 6.9028 -1.2629 -0.023 -0.997 -0.070 187 170 136 0 0
7.0598 6.9021 -1.2563 0.019 -0.994 -0.107 181 162 131 0 0
7.0735 6.9010 -1.2529 0.117 -0.993 -0.026 181 162 131 0 0
7.1497 6.8793 -1.2321 -0.036 -0.999 -0.035 176 158 126 0 0
7.2626 6.8444 -1.2010 -0.274 -0.961 0.047 175 158 127 0 0
7.3631 6.8483 -1.1780 -0.168 -0.986 0.012 179 161 131 0 0
7.3814 6.8580 -1.1751 -0.157 -0.983 0.096 179 160 130 0 0
1.2200 10.4491 -3.1315 -0.823 -0.534 0.193 228 223 222 0 0
1.2426 10.4254 -3.1229 -0.725 -0.562 0.397 226 220 216 0 0
1.2668 10.3928 -3.1126 -0.779 -0.513 0.361 205 186 180 0 0
1.9013 8.4410 -2.6898 -0.118 -0.986 0.118 118 75 60 0 0
2.1327 8.5119 -2.6459 0.250 -0.959 -0.134 97 53 38 0 0
2.1479 8.5120 -2.6423 -0.151 -0.932 -0.330 108 64 49 0 0
2.1767 8.5240 -2.6373 0.320 -0.866 -0.385 110 67 51 0 0
2.5228 7.3185 -2.3868 -0.512 -0.488 0.707 219 195 166 0 0
2.5644 7.3098 -2.3759 -0.425 -0.610 0.669 220 196 162 0 0
2.6169 7.3253 -2.3658 -0.396 -0.782 0.480 225 204 174 0 0
2.6863 7.3115 -2.3477 -0.397 -0.664 0.633 225 204 177 0 0
2.7008 7.3029 -2.3432 -0.516 -0.562 0.647 224 204 176 0 0
2.7282 7.3004 -2.3364 -0.079 -0.887 0.456 224 205 175 0 0
3.1360 7.3180 -2.2439 -0.171 -0.830 0.531 223 203 173 0 0
3.1638 7.3106 -2.2363 -0.592 -0.753 0.287 227 206 178 0 0
3.2055 7.2992 -2.2250 -0.166 -0.765 0.622 224 204 175 0 0
3.4251 7.2973 -2.1736 -0.402 -0.724 0.560 226 202 172 0 0
3.5627 7.3111 -2.1434 -0.420 -0.627 0.657 226 204 174 0 0
4.0188 7.2718 -2.0316 -0.220 -0.772 0.596 228 205 174 0 0
4.6801 7.1933 -1.8665 -0.435 -0.795 0.423 227 204 172 0 0
4.6937 7.1905 -1.8629 -0.310 -0.782 0.541 226 203 172 0 0
4.7074 7.1884 -1.8594 -0.462 -0.855 0.235 226 203 173 0 0
4.7205 7.1820 -1.8554 -0.441 -0.855 0.274 226 202 174 0 0
4.7900 7.1802 -1.8390 0.197 -0.762 0.617 225 204 173 0 0
4.8040 7.1805 -1.8358 -0.174 -0.720 0.672 229 207 177 0 0
5.3060 7.1668 -1.7169 -0.150 -0.422 0.894 216 202 184 0 0
5.3125 7.1265 -1.7097 -0.551 -0.637 0.539 214 205 194 0 0
5.3237 7.1116 -1.7049 -0.464 -0.762 0.452 213 205 197 0 0
5.3346 7.0948 -1.7001 0.005 -0.787 0.617 214 207 199 0 0
5.3475 7.0895 -1.6963 -0.709 -0.324 0.627 215 208 201 0 0
6.2248 10.3807 -1.9555 0.765 -0.433 -0.476 220 214 208 0 0
6.4251 10.0870 -1.8675 -0.252 -0.957 -0.144 226 221 216 0 0
6.2420 8.5969 -1.7002 -0.879 -0.005 -0.477 228 224 220 0 0
6.2181 8.2451 -1.6562 -0.883 -0.002 -0.469 182 162 141 0 0
6.5317 7.2184 -1.4385 -0.526 -0.847 0.075 196 175 144 0 0
7.2108 6.8468 -1.2279 -0.334 -0.939 0.081 172 154 122 0 0
7.3665 6.8476 -1.1917 -0.168 -0.986 0.012 170 153 123 0 0
7.3984 6.8560 -1.1855 -0.029 -0.996 0.081 176 157 127 0 0
1.2512 10.4027 -3.1371 -0.592 -0.596 0.542 226 221 217 0 0
1.2720 10.3875 -3.1301 -0.612 -0.581 0.537 215 200 194 0 0
1.8915 8.4308 -2.7070 0.089 -0.864 -0.495 121 79 64 0 0
2.1347 8.5227 -2.6634 -0.079 -0.911 -0.406 108 66 50 0 0
2.1500 8.5221 -2.6598 0.034 -0.940 -0.340 110 67 51 0 0
2.1791 8.5325 -2.6545 0.320 -0.866 -0.385 117 72 57 0 0
2.5425 7.2932 -2.3932 -0.479 -0.537 0.695 211 185 154 0 0
2.5695 7.2940 -2.3871 -0.425 -0.610 0.669 219 196 164 0 0
2.8551 7.2833 -2.3190 -0.070 -0.625 0.778 226 203 175 0 0
3.0310 7.2977 -2.2801 -0.067 -0.581 0.811 225 205 175 0 0
3.2093 7.2871 -2.2371 -0.246 -0.849 0.468 226 205 177 0 0
3.3326 7.2863 -2.2083 0.040 -0.777 0.628 228 207 177 0 0
3.4424 7.2860 -2.1826 -0.106 -0.793 0.599 227 206 175 0 0
3.4561 7.2867 -2.1795 -0.072 -0.774 0.630 230 209 178 0 0
3.8010 7.2869 -2.0993 -0.068 -0.777 0.625 225 204 175 0 0
4.0078 7.2583 -2.0470 -0.174 -0.686 0.706 227 204 173 0 0
4.2836 7.2307 -1.9789 -0.270 -0.654 0.707 231 207 179 0 0
4.8586 7.1460 -1.8329 -0.237 -0.612 0.755 224 203 174 0 0
5.2238 7.0798 -1.7384 -0.405 -0.590 0.698 227 207 180 0 0
5.3152 7.1221 -1.7231 -0.478 -0.551 0.685 215 204 190 0 0
5.3280 7.1158 -1.7192 -0.478 -0.551 0.685 215 207 198 0 0
5.3630 7.0794 -1.7059 -0.398 -0.440 0.805 216 209 203 0 0
6.3218 10.1075 -1.9141 0.454 -0.865 -0.215 223 218 213 0 0
6.2518 8.6198 -1.7184 -0.860 -0.005 -0.510 229 224 220 0 0
6.3217 7.5312 -1.5470 -0.814 -0.542 -0.208 193 170 138 0 0
6.6240 7.1360 -1.4203 -0.406 -0.907 -0.112 196 179 149 0 0
6.9895 6.9210 -1.3045 -0.297 -0.955 -0.023 182 164 132 0 0
7.0135 6.9098 -1.2974 -0.263 -0.960 -0.097 178 159 126 0 0
7.3699 6.8470 -1.2054 -0.042 -0.996 -0.075 177 160 130 0 0
1.2450 10.4557 -3.1656 -0.881 -0.458 0.120 227 223 219 0 0
1.2737 10.4003 -3.1509 -0.890 -0.444 0.102 222 211 205 0 0
1.8937 8.4383 -2.7239 0.092 -0.945 -0.313 91 52 38 0 0
1.9087 8.4386 -2.7204 0.092 -0.945 -0.313 115 73 60 0 0
2.1373 8.5291 -2.6803 0.034 -0.940 -0.340 116 74 58 0 0
2.1527 8.5283 -2.6766 0.034 -0.940 -0.340 111 68 52 0 0
2.8737 7.2629 -2.3264 0.165 -0.799 0.579 228 207 178 0 0
2.9544 7.2716 -2.3089 -0.098 -0.635 0.767 227 206 179 0 0
2.9680 7.2719 -2.3057 -0.214 -0.679 0.703 221 200 172 0 0
2.9951 7.2729 -2.2996 -0.008 -0.784 0.621 225 204 175 0 0
3.2130 7.2780 -2.2496 -0.354 -0.767 0.536 223 202 175 0 0
3.4322 7.2770 -2.1984 -0.477 -0.833 0.281 226 205 176 0 0
4.5457 7.1735 -1.9243 -0.435 -0.692 0.575 226 206 174 0 0
4.9314 7.1450 -1.8305 -0.395 -0.662 0.636 229 208 179 0 0
5.2248 7.0663 -1.7508 -0.299 -0.654 0.695 226 206 179 0 0
5.2379 7.0615 -1.7471 -0.477 -0.665 0.574 226 206 177 0 0
5.3157 7.1063 -1.7354 -0.478 -0.551 0.685 213 199 180 0 0
5.3498 7.0656 -1.7216 -0.598 -0.305 0.741 216 208 203 0 0
6.3360 10.1498 -1.9366 0.264 -0.833 -0.486 223 218 213 0 0
6.2570 8.6239 -1.7351 -0.754 -0.038 -0.656 229 225 221 0 0
6.2498 8.4646 -1.7138 -0.865 -0.005 -0.502 229 226 219 0 0
7.0172 6.9102 -1.3111 -0.298 -0.951 -0.079 183 164 131 0 0
7.1712 6.8706 -1.2696 -0.046 -0.984 0.170 178 158 125 0 0
7.2061 6.8520 -1.2588 -0.199 -0.979 -0.033 180 160 127 0 0
8.6965 7.8223 -1.0517 0.826 -0.530 0.190 246 247 243 0 0
1.2529 10.4366 -3.1805 -0.881 -0.458 0.120 226 222 220 0 0
1.2808 10.3850 -3.1665 -0.894 -0.447 0.028 226 220 214 0 0
1.9113 8.4444 -2.7370 0.094 -0.946 -0.310 123 81 67 0 0
1.9855 8.4521 -2.7209 0.277 -0.946 -0.169 119 73 57 0 0
2.9593 7.2492 -2.3191 -0.128 -0.634 0.762 229 208 180 0 0
2.9725 7.2543 -2.3167 -0.100 -0.601 0.793 223 202 174 0 0
2.9991 7.2625 -2.3118 -0.106 -0.622 0.776 226 206 176 0 0
3.2167 7.2677 -2.2619 -0.354 -0.767 0.536 225 201 174 0 0
3.2995 7.2467 -2.2396 0.075 -0.730 0.680 226 206 176 0 0
3.3131 7.2474 -2.2365 -0.190 -0.742 0.643 224 205 175 0 0
3.3399 7.2630 -2.2325 -0.114 -0.845 0.523 223 204 174 0 0
3.3538 7.2567 -2.2284 -0.275 -0.738 0.616 225 204 175 0 0
3.6966 7.2206 -2.1434 -0.194 -0.791 0.580 220 197 166 0 0
4.1096 7.2194 -2.0472 0.167 -0.778 0.606 223 202 170 0 0
4.4797 7.1717 -1.9541 -0.365 -0.795 0.485 224 202 171 0 0
4.4930 7.1662 -1.9502 -0.444 -0.733 0.515 229 208 177 0 0
4.9839 7.1001 -1.8264 -0.453 -0.603 0.657 226 205 175 0 0
5.0228 7.0822 -1.8148 -0.161 -0.702 0.694 224 203 174 0 0
5.1601 7.0737 -1.7816 -0.273 -0.820 0.503 226 206 179 0 0
6.2719 10.0940 -1.9631 0.603 -0.443 -0.663 222 219 214 0 0
6.2619 8.4964 -1.7326 -0.854 -0.004 -0.520 228 225 220 0 0
6.4879 7.2746 -1.5020 -0.492 -0.858 -0.150 192 172 140 0 0
6.5228 7.2469 -1.4898 -0.641 -0.760 -0.105 194 173 142 0 0
6.5305 7.2253 -1.4849 -0.324 -0.923 -0.210 196 177 147 0 0
6.5419 7.2158 -1.4809 -0.288 -0.956 -0.059 197 177 149 0 0
6.6428 7.1274 -1.4445 -0.408 -0.907 0.103 192 175 145 0 0
6.6978 7.0781 -1.4245 -0.486 -0.849 -0.210 189 169 137 0 0
6.9023 6.9716 -1.3614 -0.239 -0.971 0.023 182 165 135 0 0
7.0210 6.9106 -1.3249 -0.263 -0.960 -0.097 179 160 127 0 0
7.2077 6.8472 -1.2723 -0.311 -0.948 -0.072 172 153 120 0 0
8.6065 7.6724 -1.0672 0.814 -0.544 0.202 247 245 238 0 0
1.2387 10.4390 -3.2036 -0.837 -0.545 -0.048 229 224 221 0 0
1.8578 8.4254 -2.7630 0.063 -0.938 -0.340 128 83 68 0 0
1.8989 8.4492 -2.7570 0.062 -0.920 -0.388 122 80 64 0 0
1.9138 8.4501 -2.7536 0.120 -0.925 -0.361 117 73 58 0 0
2.0446 8.4841 -2.7282 0.449 -0.886 -0.113 118 73 56 0 0
2.1028 8.5013 -2.7172 0.263 -0.850 -0.456 116 73 56 0 0
2.1102 8.5549 -2.7234 -0.104 -0.917 -0.386 101 59 40 0 0
2.1421 8.5455 -2.7146 0.244 -0.810 -0.533 110 69 51 0 0
2.1710 8.5579 -2.7097 0.304 -0.808 -0.505 120 77 60 0 0
2.1855 8.5640 -2.7073 0.251 -0.847 -0.469 116 69 53 0 0
2.2429 8.5933 -2.6982 0.171 -0.889 -0.425 144 103 88 0 0
2.9240 7.2228 -2.3380 0.136 -0.854 0.503 226 204 175 0 0
3.2205 7.2559 -2.2739 -0.254 -0.765 0.592 228 205 175 0 0
3.7273 7.2183 -2.1506 -0.309 -0.730 0.609 229 209 179 0 0
3.8097 7.2173 -2.1313 -0.140 -0.709 0.691 228 207 178 0 0
3.8235 7.2215 -2.1287 0.114 -0.685 0.720 228 208 179 0 0
4.0989 7.2148 -2.0637 -0.217 -0.757 0.616 229 205 177 0 0
4.1124 7.2096 -2.0598 0.112 -0.823 0.556 227 205 175 0 0
4.1264 7.2127 -2.0570 0.128 -0.872 0.472 226 205 173 0 0
4.1406 7.2188 -2.0546 -0.489 -0.806 0.335 221 198 167 0 0
4.5500 7.1481 -1.9490 -0.376 -0.630 0.680 228 206 175 0 0
4.8745 7.0866 -1.8645 -0.102 -0.941 0.323 224 203 175 0 0
4.8884 7.0871 -1.8613 -0.255 -0.805 0.536 223 202 173 0 0
5.0506 7.0611 -1.8198 -0.438 -0.674 0.595 227 206 178 0 0
5.1621 7.0651 -1.7945 -0.273 -0.820 0.503 226 206 179 0 0
5.1736 7.0516 -1.7898 -0.043 -0.875 0.482 224 204 177 0 0
5.1877 7.0526 -1.7867 -0.043 -0.875 0.482 226 206 179 0 0
5.2016 7.0530 -1.7835 -0.294 -0.865 0.406 229 209 182 0 0
5.2158 7.0552 -1.7805 -0.097 -0.794 0.601 226 206 179 0 0
5.2392 7.0309 -1.7715 -0.113 -0.722 0.682 225 205 178 0 0
5.4675 7.3422 -1.7643 -0.258 -0.772 -0.581 217 214 207 0 0
6.2523 10.3303 -2.0221 0.265 -0.236 -0.935 222 219 214 0 0
6.2732 8.5249 -1.7512 -0.849 -0.004 -0.528 229 226 221 0 0
6.2518 8.2521 -1.7160 -0.856 -0.006 -0.518 185 164 140 0 0
6.2914 7.6489 -1.6180 -0.805 -0.580 0.128 193 169 137 0 0
6.4673 7.3372 -1.5311 -0.355 -0.847 0.395 194 172 141 0 0
6.6430 7.1172 -1.4579 -0.358 -0.934 -0.018 195 177 147 0 0
6.6697 7.1110 -1.4508 -0.550 -0.820 -0.158 188 170 140 0 0
6.7814 7.0207 -1.4115 -0.437 -0.891 -0.121 188 169 139 0 0
7.1371 6.8731 -1.3070 -0.189 -0.977 -0.100 173 157 124 0 0
7.3490 6.8387 -1.2527 -0.096 -0.986 -0.134 171 151 119 0 0
7.3603 6.8323 -1.2491 -0.091 -0.991 -0.097 171 155 123 0 0
1.4082 10.0363 -3.1237 -0.907 -0.352 -0.233 174 133 120 0 0
1.8602 8.4316 -2.7797 0.063 -0.938 -0.340 148 101 87 0 0
1.9164 8.4559 -2.7703 0.092 -0.945 -0.313 125 79 63 0 0
1.9476 8.4499 -2.7621 0.424 -0.885 -0.192 125 75 60 0 0
2.1729 8.5698 -2.7276 0.304 -0.808 -0.505 103 62 44 0 0
2.1876 8.5744 -2.7249 0.251 -0.847 -0.469 117 71 55 0 0
2.4464 7.2998 -2.4749 -0.712 -0.473 0.519 103 60 46 0 0
2.5490 7.2336 -2.4412 -0.292 -0.721 0.629 226 204 172 0 0
2.5767 7.2262 -2.4337 -0.303 -0.662 0.685 225 201 172 0 0
3.7717 7.2134 -2.1542 0.052 -0.937 0.346 226 206 175 0 0
3.7854 7.2118 -2.1507 -0.223 -0.854 0.469 227 207 176 0 0
3.7990 7.2039 -2.1464 -0.127 -0.686 0.716 227 206 177 0 0
4.1017 7.2041 -2.0761 -0.058 -0.677 0.734 229 206 178 0 0
4.1145 7.1861 -2.0704 -0.181 -0.656 0.733 227 206 176 0 0
4.1287 7.1939 -2.0683 -0.187 -0.740 0.646 224 203 173 0 0
4.1421 7.1867 -2.0641 -0.479 -0.630 0.612 226 204 173 0 0
4.2099 7.1675 -2.0455 -0.260 -0.793 0.550 225 206 176 0 0
4.8085 7.0835 -1.8940 -0.409 -0.621 0.668 226 205 176 0 0
4.8519 7.0981 -1.8860 -0.415 -0.741 0.528 227 206 178 0 0
4.8648 7.0915 -1.8821 -0.492 -0.741 0.458 227 206 178 0 0
4.8766 7.0767 -1.8771 -0.138 -0.797 0.588 227 206 178 0 0
4.8904 7.0767 -1.8739 -0.138 -0.797 0.588 227 206 176 0 0
4.9040 7.0752 -1.8705 -0.179 -0.722 0.668 225 204 174 0 0
5.0521 7.0491 -1.8322 -0.438 -0.674 0.595 226 205 178 0 0
5.2401 7.0169 -1.7837 -0.172 -0.645 0.745 228 207 180 0 0
5.2537 7.0156 -1.7804 0.098 -0.680 0.727 227 206 179 0 0
5.3644 7.0155 -1.7547 -0.705 -0.362 0.610 219 212 206 0 0
6.2609 8.2716 -1.7335 -0.852 -0.008 -0.524 183 164 141 0 0
6.2935 7.6428 -1.6323 -0.805 -0.580 0.128 186 163 131 0 0
6.5289 7.2428 -1.5180 -0.649 -0.743 -0.166 196 175 144 0 0
6.5383 7.2268 -1.5134 -0.249 -0.953 -0.171 197 178 147 0 0
6.6464 7.1163 -1.4719 -0.323 -0.946 -0.027 188 168 138 0 0
6.7699 7.0181 -1.4285 -0.071 -0.991 -0.115 190 172 141 0 0
6.7829 7.0145 -1.4250 -0.155 -0.951 -0.269 190 172 142 0 0
7.1263 6.8723 -1.3240 -0.272 -0.959 0.084 180 165 132 0 0
7.1375 6.8651 -1.3203 -0.245 -0.956 0.160 174 159 126 0 0
0.9960 10.2776 -3.2747 -0.580 -0.563 0.589 232 228 225 0 0
1.0163 10.3470 -3.2804 -0.416 -0.221 0.882 231 227 224 0 0
1.9633 8.4683 -2.7776 0.371 -0.880 -0.297 120 72 57 0 0
2.1609 8.5715 -2.7473 0.246 -0.812 -0.530 114 72 57 0 0
2.1748 8.5818 -2.7456 0.304 -0.808 -0.505 115 71 57 0 0
2.2334 8.6038 -2.7353 0.180 -0.923 -0.341 133 95 77 0 0
2.2479 8.6109 -2.7330 0.171 -0.889 -0.425 129 90 73 0 0
2.5536 7.2216 -2.4529 -0.292 -0.721 0.629 224 201 170 0 0
2.5673 7.2189 -2.4493 -0.280 -0.940 0.197 222 199 168 0 0
3.3108 7.2062 -2.2747 -0.433 -0.709 0.557 228 208 179 0 0
3.3244 7.2052 -2.2714 -0.398 -0.772 0.496 226 205 177 0 0
3.3386 7.1890 -2.2657 -0.489 -0.830 0.268 223 202 173 0 0
3.5016 7.1936 -2.2285 0.264 -0.789 0.555 226 205 176 0 0
3.5151 7.2060 -2.2273 -0.260 -0.704 0.661 229 207 178 0 0
3.7885 7.1981 -2.1626 -0.378 -0.819 0.431 225 206 176 0 0
3.8022 7.1973 -2.1593 -0.185 -0.753 0.631 227 206 179 0 0
4.8786 7.0670 -1.8898 -0.138 -0.797 0.588 227 204 173 0 0
4.8914 7.0599 -1.8857 -0.167 -0.772 0.613 229 206 175 0 0
4.9055 7.0621 -1.8828 -0.087 -0.800 0.593 226 205 174 0 0
4.9333 7.0630 -1.8765 -0.052 -0.898 0.437 225 205 172 0 0
4.9478 7.0678 -1.8738 -0.467 -0.799 0.378 226 205 174 0 0
5.3424 7.0272 -1.7761 -0.836 -0.463 0.296 222 206 190 0 0
6.2716 7.7138 -1.6637 -0.655 -0.610 -0.446 181 156 120 0 0
6.2961 7.6386 -1.6467 -0.828 -0.543 -0.142 191 168 136 0 0
6.3058 7.6197 -1.6416 -0.792 -0.572 -0.214 189 166 134 0 0
6.4992 7.2752 -1.5448 -0.460 -0.876 -0.145 193 174 142 0 0
6.5424 7.2283 -1.5277 -0.105 -0.994 -0.012 193 175 143 0 0
6.9948 6.9246 -1.3770 -0.153 -0.982 0.112 180 165 136 0 0
7.0239 6.9265 -1.3705 -0.065 -0.997 -0.035 184 167 139 0 0
7.3836 6.8366 -1.2735 -0.116 -0.993 0.007 175 159 130 0 0
1.2888 10.2457 -3.2210 -0.150 -0.738 0.658 227 223 220 0 0
1.9213 8.4691 -2.8039 0.252 -0.887 -0.386 128 81 65 0 0
1.9506 8.4748 -2.7980 0.252 -0.887 -0.386 125 76 61 0 0
2.1477 8.5817 -2.7685 0.208 -0.838 -0.505 118 75 62 0 0
2.1628 8.5835 -2.7653 0.208 -0.838 -0.505 111 67 54 0 0
2.1920 8.5953 -2.7603 0.251 -0.847 -0.469 113 68 54 0 0
2.2503 8.6197 -2.7505 0.171 -0.889 -0.425 120 78 62 0 0
2.5582 7.2096 -2.4645 -0.253 -0.701 0.667 224 201 170 0 0
2.5753 7.1776 -2.4556 -0.603 -0.673 0.427 222 200 169 0 0
2.5856 7.2039 -2.4572 -0.211 -0.741 0.638 220 197 166 0 0
3.5186 7.1834 -2.2376 -0.185 -0.613 0.768 229 208 179 0 0
3.8325 7.1749 -2.1635 -0.200 -0.624 0.755 229 209 181 0 0
4.0649 7.1593 -2.1072 -0.200 -0.815 0.544 229 208 179 0 0
4.4170 7.0909 -2.0151 -0.349 -0.673 0.652 227 206 177 0 0
5.3659 6.9879 -1.7792 -0.774 -0.462 0.433 221 214 208 0 0
5.9500 9.4364 -2.0163 0.661 -0.596 -0.456 223 218 212 0 0
6.2385 8.2156 -1.7636 0.546 -0.530 0.648 229 221 209 0 0
6.2608 8.2404 -1.7622 0.546 -0.530 0.648 183 167 148 0 0
6.2711 8.2187 -1.7565 -0.890 -0.011 -0.456 186 161 136 0 0
6.2995 7.6372 -1.6614 -0.780 -0.557 -0.286 186 163 129 0 0
6.3096 7.6199 -1.6564 -0.792 -0.572 -0.214 190 166 132 0 0
6.5262 7.2568 -1.5509 -0.457 -0.830 -0.320 191 170 138 0 0
6.8741 6.9714 -1.4267 -0.304 -0.952 -0.025 167 148 116 0 0
1.0047 10.2752 -3.3107 -0.562 -0.369 0.741 231 229 225 0 0
