ply
format ascii 1.0
element vertex 828
property float x
property float y
property float z
property float nx
property float ny
property float nz
property uchar diffuse_red
property uchar diffuse_green
property uchar diffuse_blue
property uchar class
property uchar detection
end_header
3.3567 9.5410 -1.2866 -0.268 -0.564 0.781 177 120 97 0 0
3.3753 9.5462 -1.2849 -0.479 -0.532 0.699 184 128 106 0 0
3.3907 9.5347 -1.2833 -0.455 -0.507 0.732 201 145 123 0 0
3.7874 9.4024 -1.2442 -0.173 -0.627 0.760 173 119 95 0 0
3.8044 9.3990 -1.2426 -0.189 -0.639 0.745 182 128 103 0 0
3.8722 9.3839 -1.2360 -0.165 -0.554 0.816 193 135 113 0 0
3.9798 9.3850 -1.2259 -0.361 -0.766 0.532 151 96 73 0 0
3.9961 9.3784 -1.2243 -0.361 -0.766 0.532 157 103 79 0 0
4.3410 9.3166 -1.1910 -0.243 -0.856 0.456 172 117 93 0 0
4.5548 9.2979 -1.1707 -0.334 -0.901 0.278 157 101 78 0 0
4.6324 9.3106 -1.1636 -0.159 -0.954 0.255 170 116 94 0 0
4.6540 9.3203 -1.1617 -0.123 -0.939 0.322 165 113 91 0 0
4.6715 9.3173 -1.1600 0.023 -0.940 0.341 151 99 77 0 0
5.7757 9.8049 -1.0624 0.160 -0.844 -0.511 128 76 58 0 0
5.9630 9.9140 -1.0462 0.131 -0.931 -0.339 121 70 53 0 0
5.9877 9.9239 -1.0440 0.104 -0.971 -0.213 132 79 64 0 0
6.2663 10.0400 -1.0193 0.178 -0.871 -0.457 130 79 63 0 0
7.1180 10.5154 -0.9454 0.246 -0.716 -0.653 153 109 96 0 0
7.2200 10.5847 -0.9367 0.571 -0.729 -0.378 150 107 91 0 0
7.2631 10.4886 -0.9314 -0.771 -0.166 -0.614 202 185 168 0 0
6.2982 7.6229 -0.9849 -0.567 -0.810 0.149 200 181 149 0 0
6.3976 7.4546 -0.9734 -0.290 -0.947 0.136 215 196 164 0 0
6.4135 7.4516 -0.9718 -0.200 -0.973 0.113 205 186 156 0 0
6.4528 7.3981 -0.9675 -0.427 -0.901 -0.081 209 193 166 0 0
6.5589 7.2525 -0.9556 -0.532 -0.837 0.125 203 183 151 0 0
6.6568 7.1561 -0.9451 -0.361 -0.904 0.231 213 191 159 0 0
6.6704 7.1500 -0.9438 -0.289 -0.889 0.356 209 189 157 0 0
6.7764 7.0967 -0.9331 -0.146 -0.959 0.244 193 174 144 0 0
6.7983 7.0763 -0.9308 -0.399 -0.903 0.157 204 184 154 0 0
1.0648 10.1300 -1.5272 -0.404 -0.637 0.656 172 129 111 0 0
1.0812 10.1296 -1.5256 -0.158 -0.656 0.738 184 137 119 0 0
1.1636 10.0979 -1.5175 -0.451 -0.545 0.707 186 139 121 0 0
2.0390 9.8646 -1.4321 -0.455 -0.557 0.695 186 141 125 0 0
2.1221 9.8449 -1.4241 -0.176 -0.677 0.715 191 146 130 0 0
2.2216 9.8191 -1.4144 -0.056 -0.688 0.724 185 137 121 0 0
2.2708 9.7995 -1.4095 -0.607 -0.515 0.605 199 151 137 0 0
2.2883 9.8052 -1.4079 -0.324 -0.674 0.664 196 149 134 0 0
2.8367 9.6557 -1.3544 -0.482 -0.608 0.631 185 133 116 0 0
3.3204 9.5266 -1.3073 -0.260 -0.756 0.601 191 130 106 0 0
4.3876 9.2831 -1.2038 -0.313 -0.877 0.364 162 104 80 0 0
4.5348 9.2867 -1.1901 -0.406 -0.904 0.134 166 110 85 0 0
4.5726 9.2902 -1.1866 -0.155 -0.930 0.334 164 109 85 0 0
4.6138 9.3046 -1.1830 -0.018 -0.985 0.171 151 96 74 0 0
4.6320 9.3036 -1.1813 -0.115 -0.983 0.144 168 114 93 0 0
4.7525 9.3330 -1.1704 -0.099 -0.994 -0.049 171 119 97 0 0
5.5784 9.7069 -1.0985 0.492 -0.869 -0.046 110 63 45 0 0
5.6040 9.7216 -1.0963 0.384 -0.902 -0.197 110 63 45 0 0
5.8309 9.8363 -1.0768 -0.556 -0.728 -0.401 127 76 59 0 0
5.8453 9.8217 -1.0752 -0.215 -0.940 -0.265 129 79 62 0 0
5.8712 9.8354 -1.0730 0.339 -0.931 -0.136 125 74 57 0 0
6.3124 10.0928 -1.0354 0.351 -0.885 -0.307 133 84 69 0 0
6.8938 10.3704 -0.9850 0.459 -0.811 -0.362 148 104 87 0 0
6.9959 10.4444 -0.9765 0.532 -0.724 -0.439 144 96 83 0 0
7.0293 10.4672 -0.9737 0.532 -0.724 -0.439 144 97 82 0 0
7.1309 10.5374 -0.9652 0.176 -0.704 -0.688 155 109 96 0 0
7.2666 10.5367 -0.9525 -0.847 -0.007 -0.531 221 214 198 0 0
6.2584 7.7421 -1.0064 -0.653 -0.726 0.217 212 189 158 0 0
6.4544 7.3980 -0.9830 -0.463 -0.873 0.151 208 191 163 0 0
6.5002 7.3268 -0.9777 -0.398 -0.877 0.268 198 178 146 0 0
6.5363 7.2701 -0.9735 -0.442 -0.882 -0.162 208 187 156 0 0
6.6214 7.2090 -0.9647 -0.493 -0.845 0.207 208 188 155 0 0
6.6478 7.1670 -0.9616 -0.021 -0.932 0.363 209 186 154 0 0
1.0665 10.1124 -1.5441 -0.307 -0.795 0.523 216 175 158 0 0
1.0829 10.1116 -1.5426 -0.150 -0.730 0.667 198 154 137 0 0
1.0994 10.1087 -1.5410 -0.232 -0.741 0.630 179 132 114 0 0
1.1324 10.0922 -1.5376 -0.220 -0.718 0.661 178 133 114 0 0
1.1488 10.0844 -1.5360 -0.559 -0.571 0.601 169 124 105 0 0
1.2146 10.0589 -1.5294 -0.266 -0.726 0.635 181 134 116 0 0
1.2475 10.0506 -1.5263 -0.205 -0.722 0.661 181 134 117 0 0
1.2640 10.0469 -1.5247 -0.218 -0.692 0.688 180 133 116 0 0
1.2804 10.0393 -1.5230 -0.281 -0.717 0.638 181 135 117 0 0
2.0229 9.8527 -1.4509 -0.496 -0.570 0.655 208 165 149 0 0
2.0390 9.8415 -1.4492 -0.586 -0.590 0.556 208 165 149 0 0
2.0549 9.8288 -1.4475 -0.496 -0.570 0.655 186 143 126 0 0
2.2547 9.7909 -1.4283 -0.428 -0.583 0.690 184 136 121 0 0
2.2707 9.7811 -1.4266 -0.567 -0.565 0.600 178 129 114 0 0
2.2876 9.7801 -1.4250 -0.365 -0.665 0.652 186 139 124 0 0
2.8358 9.6385 -1.3717 -0.482 -0.608 0.631 190 138 121 0 0
3.2443 9.4839 -1.3312 -0.477 -0.623 0.620 176 122 100 0 0
3.9553 9.3452 -1.2627 0.238 -0.703 0.670 132 74 54 0 0
4.5178 9.2854 -1.2094 -0.157 -0.960 0.234 154 97 72 0 0
5.0546 9.4426 -1.1619 0.343 -0.870 -0.354 119 72 55 0 0
5.8502 9.8291 -1.0940 -0.477 -0.841 -0.255 116 67 50 0 0
5.9791 9.9435 -1.0838 0.108 -0.953 -0.282 115 64 47 0 0
6.0005 9.9453 -1.0818 0.108 -0.953 -0.282 116 65 48 0 0
6.2175 10.0640 -1.0635 -0.043 -0.858 -0.512 124 77 59 0 0
6.2740 10.0973 -1.0588 0.196 -0.951 -0.240 137 88 71 0 0
6.4871 10.1938 -1.0405 0.282 -0.886 -0.368 118 70 54 0 0
6.7361 10.3115 -1.0192 -0.034 -0.856 -0.515 106 63 47 0 0
6.7828 10.3177 -1.0149 -0.334 -0.901 -0.276 119 75 62 0 0
6.8013 10.3103 -1.0131 -0.334 -0.901 -0.276 128 85 71 0 0
6.9048 10.3890 -1.0047 0.460 -0.844 -0.275 147 100 84 0 0
7.0076 10.4643 -0.9963 0.551 -0.804 -0.223 137 90 77 0 0
7.0255 10.4549 -0.9945 0.425 -0.842 -0.332 140 93 78 0 0
7.1370 10.5455 -0.9856 0.379 -0.794 -0.475 145 100 85 0 0
6.2218 7.8039 -1.0269 -0.764 -0.561 0.320 210 188 157 0 0
6.4883 7.3335 -0.9946 -0.535 -0.815 0.221 211 191 162 0 0
6.4991 7.3223 -0.9934 -0.354 -0.895 0.270 204 182 151 0 0
6.6907 7.1214 -0.9723 -0.410 -0.906 -0.107 213 196 166 0 0
6.8577 7.0282 -0.9553 -0.216 -0.977 0.002 202 179 147 0 0
0.7875 10.2197 -1.5892 -0.403 -0.775 0.487 180 133 114 0 0
1.0682 10.1009 -1.5611 -0.300 -0.756 0.582 207 169 151 0 0
1.0847 10.0953 -1.5595 -0.307 -0.795 0.523 194 153 136 0 0
1.1011 10.0900 -1.5579 -0.307 -0.795 0.523 191 146 128 0 0
1.1176 10.0805 -1.5562 -0.338 -0.759 0.557 191 145 129 0 0
1.1341 10.0644 -1.5543 -0.465 -0.796 0.388 191 146 130 0 0
1.1835 10.0372 -1.5493 -0.448 -0.615 0.649 177 130 113 0 0
1.1998 10.0346 -1.5477 -0.368 -0.646 0.669 167 117 100 0 0
1.2490 10.0368 -1.5432 -0.200 -0.828 0.524 178 131 112 0 0
1.2819 10.0226 -1.5399 -0.331 -0.766 0.552 188 141 122 0 0
1.4625 9.9670 -1.5222 -0.008 -0.853 0.521 168 118 100 0 0
1.5122 9.9732 -1.5177 -0.191 -0.584 0.789 157 108 91 0 0
1.5287 9.9700 -1.5161 -0.191 -0.584 0.789 159 110 94 0 0
1.6274 9.9381 -1.5064 -0.277 -0.664 0.695 191 140 123 0 0
1.7258 9.9016 -1.4966 -0.235 -0.610 0.757 185 137 120 0 0
2.0231 9.8330 -1.4679 -0.496 -0.570 0.655 208 166 149 0 0
2.0394 9.8250 -1.4662 -0.586 -0.590 0.556 200 158 141 0 0
2.0551 9.8089 -1.4645 -0.530 -0.611 0.588 192 150 133 0 0
2.2545 9.7715 -1.4454 -0.423 -0.570 0.704 171 124 109 0 0
2.2707 9.7630 -1.4437 -0.567 -0.565 0.600 192 146 130 0 0
2.2863 9.7490 -1.4420 -0.593 -0.546 0.592 194 148 132 0 0
2.3366 9.7435 -1.4373 -0.076 -0.779 0.623 182 137 121 0 0
2.3526 9.7336 -1.4356 -0.005 -0.670 0.743 173 124 106 0 0
3.3333 9.4847 -1.3403 -0.470 -0.580 0.665 185 127 105 0 0
3.3490 9.4754 -1.3387 -0.329 -0.560 0.761 201 143 122 0 0
3.8610 9.3171 -1.2885 0.005 -0.834 0.552 177 122 98 0 0
5.2876 9.6050 -1.1613 -0.046 -0.942 -0.331 121 71 54 0 0
5.3089 9.6097 -1.1594 0.039 -0.992 -0.116 127 78 61 0 0
5.9332 9.9275 -1.1071 0.323 -0.936 -0.140 119 69 54 0 0
5.9839 9.9503 -1.1028 0.001 -0.922 -0.387 117 65 50 0 0
6.4930 10.2023 -1.0600 0.236 -0.912 -0.337 135 87 71 0 0
6.5781 10.2474 -1.0529 0.335 -0.874 -0.352 123 75 60 0 0
6.7445 10.3253 -1.0389 0.202 -0.861 -0.466 116 77 61 0 0
6.7913 10.3313 -1.0346 -0.375 -0.843 -0.386 116 75 61 0 0
6.8747 10.3681 -1.0275 0.528 -0.804 -0.275 150 103 87 0 0
6.9095 10.3946 -1.0248 0.514 -0.800 -0.310 151 104 88 0 0
6.9436 10.4195 -1.0220 0.615 -0.748 -0.249 163 117 102 0 0
7.0873 10.5318 -1.0107 0.557 -0.756 -0.343 143 96 80 0 0
7.1589 10.5859 -1.0050 0.051 -0.702 -0.710 140 95 80 0 0
6.4962 7.3145 -1.0092 -0.170 -0.881 0.441 213 192 163 0 0
6.6817 7.1321 -0.9888 -0.288 -0.850 -0.441 214 195 163 0 0
7.4308 6.9080 -0.9154 -0.089 -0.994 0.062 197 179 150 0 0
7.4499 6.9097 -0.9137 -0.190 -0.968 0.164 203 185 155 0 0
1.0865 10.0728 -1.5762 -0.049 -0.724 0.689 199 157 140 0 0
1.1029 10.0698 -1.5746 -0.134 -0.737 0.662 186 142 126 0 0
1.1193 10.0603 -1.5729 -0.291 -0.801 0.524 189 143 127 0 0
1.6938 9.8949 -1.5168 -0.286 -0.552 0.783 196 150 134 0 0
1.7771 9.8971 -1.5092 -0.475 -0.538 0.696 188 141 123 0 0
1.8093 9.8731 -1.5057 -0.475 -0.538 0.696 185 136 119 0 0
2.0073 9.8248 -1.4866 -0.482 -0.518 0.707 190 148 131 0 0
2.0556 9.7948 -1.4815 -0.360 -0.609 0.707 186 145 129 0 0
2.6155 9.6348 -1.4268 -0.047 -0.680 0.732 161 113 95 0 0
3.1007 9.5396 -1.3803 -0.085 -0.709 0.700 150 92 70 0 0
3.2751 9.4447 -1.3624 0.053 -0.920 0.387 172 113 91 0 0
3.4432 9.4122 -1.3463 -0.396 -0.667 0.631 183 129 105 0 0
3.4610 9.4134 -1.3447 -0.190 -0.727 0.660 177 122 100 0 0
3.5949 9.3825 -1.3317 0.104 -0.696 0.710 172 116 96 0 0
3.5989 9.3196 -1.3302 -0.506 -0.513 0.694 177 120 101 0 0
4.1272 9.2366 -1.2798 -0.072 -0.985 0.159 175 121 100 0 0
4.1596 9.2242 -1.2766 -0.145 -0.987 -0.063 173 122 103 0 0
4.1787 9.2285 -1.2749 -0.435 -0.894 0.108 174 125 105 0 0
4.1987 9.2359 -1.2732 -0.086 -0.958 0.274 168 117 96 0 0
4.3888 9.2697 -1.2563 -0.335 -0.849 0.409 142 86 65 0 0
4.5327 9.2630 -1.2429 -0.234 -0.927 0.295 167 113 89 0 0
4.6475 9.2778 -1.2326 -0.342 -0.894 0.289 170 116 92 0 0
4.6670 9.2811 -1.2309 -0.047 -0.968 0.245 159 106 84 0 0
4.7974 9.3403 -1.2200 0.284 -0.802 -0.525 120 72 58 0 0
5.0695 9.4751 -1.1975 -0.046 -0.897 -0.439 111 63 48 0 0
5.0913 9.4828 -1.1956 0.172 -0.935 -0.309 108 61 45 0 0
5.2917 9.6112 -1.1795 -0.046 -0.942 -0.331 132 81 64 0 0
5.3107 9.6096 -1.1778 -0.046 -0.942 -0.331 127 78 62 0 0
5.3355 9.6240 -1.1757 0.309 -0.946 -0.099 106 57 40 0 0
5.5107 9.7234 -1.1615 0.044 -0.932 -0.359 122 71 52 0 0
5.6740 9.7836 -1.1476 0.451 -0.858 -0.245 125 74 58 0 0
6.0985 10.0212 -1.1129 0.309 -0.944 0.115 131 78 62 0 0
6.5592 10.2490 -1.0748 0.335 -0.874 -0.352 117 71 56 0 0
6.7926 10.3297 -1.0548 -0.143 -0.799 -0.584 115 73 61 0 0
6.8870 10.3895 -1.0472 0.529 -0.797 -0.292 156 109 93 0 0
6.9188 10.4096 -1.0446 0.529 -0.797 -0.292 147 100 84 0 0
6.9534 10.4355 -1.0419 0.608 -0.751 -0.259 162 116 101 0 0
7.0271 10.4960 -1.0363 0.583 -0.749 -0.317 147 100 86 0 0
6.2721 7.6277 -1.0514 -0.664 -0.669 0.334 210 188 157 0 0
6.5553 7.2355 -1.0178 -0.509 -0.854 -0.106 206 186 153 0 0
6.5628 7.2192 -1.0168 -0.364 -0.905 -0.218 207 187 155 0 0
6.7972 7.0375 -0.9918 -0.181 -0.961 0.208 201 179 149 0 0
7.1930 6.8966 -0.9526 -0.336 -0.894 0.295 207 186 155 0 0
7.4343 6.9105 -0.9306 -0.185 -0.959 0.214 202 183 151 0 0
7.5648 6.9165 -0.9187 0.130 -0.979 0.155 216 198 165 0 0
8.4681 7.4948 -0.8463 0.640 -0.672 0.372 249 249 247 0 0
8.5668 7.5928 -0.8391 0.640 -0.672 0.372 248 249 251 0 0
-0.3921 12.9227 -1.7876 -0.622 -0.757 0.198 241 241 239 0 0
-0.3711 12.9060 -1.7854 -0.622 -0.757 0.198 242 242 240 0 0
1.5307 9.9271 -1.5497 -0.126 -0.663 0.738 175 125 105 0 0
1.7441 9.8702 -1.5290 0.080 -0.825 0.559 197 148 131 0 0
1.9578 9.8124 -1.5082 0.029 -0.868 0.495 206 176 162 0 0
1.9737 9.7992 -1.5065 -0.026 -0.799 0.601 187 154 139 0 0
2.3190 9.7035 -1.4728 -0.147 -0.671 0.726 177 131 113 0 0
3.2926 9.4368 -1.3780 0.050 -0.783 0.620 162 103 82 0 0
3.3096 9.4342 -1.3764 -0.168 -0.742 0.649 164 107 85 0 0
3.3602 9.4257 -1.3715 -0.525 -0.538 0.659 157 99 79 0 0
3.3767 9.4207 -1.3699 -0.551 -0.618 0.561 176 118 98 0 0
3.3945 9.4227 -1.3683 -0.251 -0.707 0.661 183 126 106 0 0
3.5564 9.3589 -1.3522 0.012 -0.671 0.741 169 114 92 0 0
3.5980 9.3082 -1.3473 -0.371 -0.716 0.592 160 100 80 0 0
3.6128 9.2960 -1.3457 0.068 -0.809 0.584 165 108 88 0 0
3.7754 9.3154 -1.3312 0.147 -0.729 0.669 190 135 114 0 0
4.0390 9.2340 -1.3053 -0.523 -0.696 0.492 181 124 102 0 0
4.1251 9.2225 -1.2972 -0.058 -0.923 0.380 151 96 76 0 0
4.1429 9.2221 -1.2955 -0.058 -0.923 0.380 119 62 45 0 0
4.1606 9.2216 -1.2939 -0.058 -0.923 0.380 139 86 68 0 0
4.1790 9.2235 -1.2922 -0.229 -0.934 0.275 179 131 111 0 0
4.1990 9.2309 -1.2906 -0.086 -0.958 0.274 164 115 94 0 0
5.0743 9.4837 -1.2154 -0.046 -0.897 -0.439 118 70 55 0 0
5.0955 9.4895 -1.2136 0.172 -0.935 -0.309 115 67 52 0 0
5.1336 9.4889 -1.2101 0.209 -0.977 -0.039 110 62 46 0 0
5.1538 9.4917 -1.2083 0.242 -0.969 -0.054 105 57 41 0 0
5.5143 9.7279 -1.1800 0.122 -0.835 -0.537 121 70 53 0 0
6.8951 10.4022 -1.0671 0.529 -0.797 -0.292 159 112 95 0 0
6.9269 10.4224 -1.0646 0.529 -0.797 -0.292 147 101 85 0 0
6.9620 10.4491 -1.0620 0.647 -0.718 -0.255 161 116 101 0 0
7.0329 10.5037 -1.0566 0.517 -0.773 -0.368 143 100 86 0 0
7.0630 10.5193 -1.0541 0.515 -0.786 -0.342 141 96 83 0 0
6.2064 7.8326 -1.0777 -0.795 -0.575 0.193 210 189 158 0 0
6.3066 7.5909 -1.0635 -0.646 -0.698 0.309 212 191 161 0 0
6.3488 7.4777 -1.0573 -0.183 -0.971 0.153 214 193 162 0 0
6.3721 7.4570 -1.0547 -0.487 -0.873 0.015 212 192 162 0 0
6.3855 7.4496 -1.0534 -0.487 -0.873 0.015 212 193 163 0 0
6.4753 7.3327 -1.0427 -0.663 -0.746 0.055 208 188 160 0 0
6.4857 7.3207 -1.0415 -0.628 -0.738 0.247 206 187 157 0 0
6.4966 7.3096 -1.0403 -0.657 -0.713 0.244 203 184 154 0 0
6.5327 7.2823 -1.0364 -0.349 -0.909 0.229 204 184 151 0 0
6.5686 7.2260 -1.0320 -0.318 -0.943 -0.099 204 185 153 0 0
6.9675 7.0014 -0.9907 -0.269 -0.933 0.238 195 179 149 0 0
7.0063 6.9807 -0.9868 -0.437 -0.899 0.023 191 171 140 0 0
7.1949 6.8970 -0.9677 -0.505 -0.861 0.063 184 163 132 0 0
7.4303 6.9027 -0.9462 -0.413 -0.904 0.114 194 175 143 0 0
7.4505 6.9058 -0.9445 -0.267 -0.960 0.088 194 175 142 0 0
8.5401 7.5572 -0.8578 0.643 -0.677 0.358 249 249 248 0 0
8.5719 7.5471 -0.8547 0.475 -0.727 0.496 249 249 249 0 0
-0.4517 12.9562 -1.8147 -0.566 -0.687 0.456 241 241 239 0 0
0.8615 10.0904 -1.6317 -0.618 -0.742 0.260 190 144 126 0 0
0.8780 10.0820 -1.6300 -0.130 -0.857 0.498 177 132 115 0 0
0.8945 10.0694 -1.6283 -0.613 -0.723 0.318 186 140 124 0 0
1.4169 9.9245 -1.5774 -0.523 -0.580 0.625 176 125 107 0 0
1.7447 9.8490 -1.5458 0.046 -0.678 0.734 172 123 106 0 0
1.8749 9.7944 -1.5327 -0.397 -0.635 0.663 189 146 130 0 0
2.3833 9.6547 -1.4832 -0.605 -0.579 0.546 181 127 107 0 0
2.7291 9.5654 -1.4496 -0.089 -0.766 0.637 185 129 106 0 0
2.7460 9.5641 -1.4480 -0.053 -0.799 0.599 176 120 97 0 0
3.0898 9.4553 -1.4143 -0.321 -0.656 0.684 181 125 101 0 0
3.1237 9.4521 -1.4111 -0.103 -0.822 0.561 179 121 99 0 0
3.3429 9.4180 -1.3903 -0.448 -0.654 0.610 162 104 84 0 0
3.7709 9.2892 -1.3484 0.056 -0.764 0.643 170 116 95 0 0
4.0387 9.2265 -1.3226 -0.434 -0.800 0.415 167 114 93 0 0
4.0551 9.2209 -1.3209 -0.253 -0.896 0.366 176 120 100 0 0
4.0729 9.2213 -1.3193 -0.118 -0.885 0.450 191 134 115 0 0
4.0887 9.2135 -1.3177 -0.165 -0.985 0.048 171 115 95 0 0
4.1431 9.2167 -1.3128 -0.016 -0.928 0.373 148 93 74 0 0
4.1794 9.2189 -1.3095 -0.158 -0.951 0.267 184 136 115 0 0
4.1993 9.2260 -1.3079 -0.086 -0.958 0.274 184 136 115 0 0
4.5540 9.2615 -1.2763 -0.270 -0.938 0.216 177 125 103 0 0
4.5709 9.2570 -1.2746 -0.270 -0.938 0.216 178 126 104 0 0
4.6330 9.2794 -1.2694 -0.182 -0.954 0.238 129 79 57 0 0
4.6524 9.2825 -1.2677 -0.059 -0.989 0.136 137 86 65 0 0
4.6706 9.2816 -1.2661 -0.059 -0.989 0.136 136 85 64 0 0
4.7066 9.2787 -1.2627 0.177 -0.976 0.127 124 76 57 0 0
4.7271 9.2847 -1.2610 0.157 -0.982 -0.102 124 77 59 0 0
5.3189 9.6221 -1.2144 -0.126 -0.984 -0.130 111 63 45 0 0
5.5256 9.7527 -1.1984 0.104 -0.884 -0.455 114 63 46 0 0
5.5707 9.7662 -1.1945 0.367 -0.909 -0.196 115 67 52 0 0
5.8411 9.8882 -1.1725 0.307 -0.882 -0.357 110 61 46 0 0
6.9102 10.4297 -1.0868 0.267 -0.774 -0.574 153 105 89 0 0
6.9367 10.4385 -1.0846 0.374 -0.820 -0.434 144 97 82 0 0
7.0401 10.5142 -1.0768 0.515 -0.786 -0.342 150 110 95 0 0
7.1068 10.5588 -1.0717 0.472 -0.832 -0.291 154 109 98 0 0
6.1925 7.8370 -1.0953 -0.860 -0.503 0.087 208 187 156 0 0
6.2044 7.8257 -1.0940 -0.747 -0.593 0.300 209 187 156 0 0
6.3460 7.4698 -1.0732 -0.492 -0.862 -0.121 210 190 157 0 0
6.3599 7.4633 -1.0718 -0.584 -0.811 -0.025 212 191 160 0 0
6.3726 7.4549 -1.0704 -0.539 -0.841 -0.043 212 193 161 0 0
6.4516 7.3492 -1.0609 -0.518 -0.832 0.198 204 185 155 0 0
6.5295 7.2741 -1.0521 -0.568 -0.814 0.119 209 188 156 0 0
6.5686 7.2233 -1.0474 -0.456 -0.875 0.162 204 185 153 0 0
6.5820 7.2166 -1.0461 -0.456 -0.875 0.162 206 187 156 0 0
6.6022 7.1927 -1.0437 -0.522 -0.840 0.144 204 185 154 0 0
7.0167 6.9420 -1.0003 -0.325 -0.914 0.242 193 172 141 0 0
7.1969 6.8974 -0.9829 -0.422 -0.906 -0.039 185 164 133 0 0
8.5502 7.5179 -0.8729 0.406 -0.858 0.315 249 249 249 0 0
0.6274 10.2913 -1.6749 -0.386 -0.915 -0.116 201 155 133 0 0
0.6441 10.2828 -1.6732 -0.444 -0.895 -0.027 183 135 112 0 0
0.8127 10.1398 -1.6546 -0.657 -0.616 0.435 189 140 118 0 0
0.8634 10.0786 -1.6485 -0.648 -0.609 0.458 183 137 121 0 0
1.4345 9.8998 -1.5924 -0.331 -0.552 0.765 171 119 98 0 0
1.4836 9.8960 -1.5879 -0.053 -0.729 0.682 163 114 98 0 0
1.4997 9.8811 -1.5860 -0.380 -0.609 0.696 164 116 97 0 0
1.8588 9.7760 -1.5509 -0.504 -0.674 0.541 215 173 158 0 0
1.8757 9.7802 -1.5495 -0.312 -0.790 0.527 191 149 133 0 0
2.0888 9.7269 -1.5289 -0.085 -0.700 0.709 180 133 118 0 0
2.1045 9.7131 -1.5271 -0.197 -0.712 0.673 188 141 125 0 0
2.1218 9.7211 -1.5258 -0.260 -0.656 0.709 182 136 120 0 0
2.1382 9.7164 -1.5242 -0.260 -0.656 0.709 176 132 116 0 0
2.3663 9.6379 -1.5016 -0.392 -0.655 0.646 186 134 114 0 0
2.3823 9.6300 -1.4999 -0.392 -0.655 0.646 170 118 98 0 0
2.7121 9.5538 -1.4682 -0.095 -0.779 0.619 175 122 100 0 0
2.7298 9.5582 -1.4667 0.024 -0.853 0.522 168 114 92 0 0
2.7456 9.5492 -1.4650 -0.261 -0.675 0.690 169 114 91 0 0
3.0859 9.4225 -1.4311 -0.447 -0.696 0.562 199 145 122 0 0
3.3710 9.3751 -1.4041 -0.670 -0.483 0.563 170 114 93 0 0
3.4816 9.3199 -1.3928 -0.492 -0.507 0.707 181 128 108 0 0
4.0908 9.2152 -1.3349 -0.317 -0.890 0.328 179 127 107 0 0
4.5549 9.2587 -1.2938 -0.420 -0.908 0.008 160 108 88 0 0
4.5873 9.2451 -1.2905 -0.367 -0.922 -0.122 133 83 63 0 0
4.7322 9.2951 -1.2785 0.048 -0.925 -0.377 126 79 61 0 0
5.3411 9.6242 -1.2309 -0.009 -0.962 -0.274 124 75 54 0 0
5.5755 9.7739 -1.2132 0.372 -0.904 -0.212 120 71 55 0 0
5.8469 9.8980 -1.1914 0.171 -0.930 -0.326 110 60 44 0 0
5.8816 9.9330 -1.1891 -0.398 -0.749 -0.529 107 58 43 0 0
6.2211 10.0984 -1.1621 0.471 -0.873 -0.129 121 72 55 0 0
6.9170 10.4394 -1.1069 0.314 -0.753 -0.579 141 94 78 0 0
7.1141 10.5695 -1.0920 0.468 -0.852 -0.235 146 104 94 0 0
7.2569 10.6750 -1.0816 0.144 -0.981 0.127 152 108 93 0 0
7.2685 10.6522 -1.0800 -0.689 -0.647 0.327 153 113 97 0 0
7.2786 10.6263 -1.0784 -0.909 -0.296 0.293 187 155 134 0 0
7.2953 10.6138 -1.0766 -0.815 -0.337 0.472 200 173 146 0 0
7.3076 10.5927 -1.0750 -0.741 -0.386 0.549 200 172 141 0 0
6.2016 7.8172 -1.1103 -0.704 -0.579 0.413 211 189 158 0 0
6.4660 7.3410 -1.0751 -0.467 -0.883 0.034 206 187 155 0 0
6.5577 7.2314 -1.0641 -0.304 -0.925 0.229 204 184 153 0 0
6.5756 7.2035 -1.0619 -0.354 -0.918 -0.177 203 184 154 0 0
6.5896 7.1979 -1.0605 -0.354 -0.918 -0.177 208 189 159 0 0
6.5981 7.1832 -1.0593 -0.161 -0.958 0.236 209 190 159 0 0
6.7628 7.0574 -1.0414 -0.458 -0.860 0.226 197 178 146 0 0
6.8254 7.0195 -1.0348 -0.191 -0.977 0.094 192 175 145 0 0
7.0227 6.9740 -1.0158 -0.355 -0.925 0.133 190 169 138 0 0
7.8969 6.9847 -0.9367 -0.046 -0.979 0.196 214 198 173 0 0
8.5467 7.5112 -0.8900 0.542 -0.745 0.390 249 249 249 0 0
0.6292 10.2859 -1.6921 -0.497 -0.803 0.329 203 158 136 0 0
0.8985 10.0367 -1.6615 -0.485 -0.673 0.558 183 136 121 0 0
1.9072 9.7250 -1.5625 -0.130 -0.642 0.755 195 152 135 0 0
2.1045 9.6931 -1.5439 -0.033 -0.757 0.652 182 136 120 0 0
2.1206 9.6853 -1.5422 -0.211 -0.708 0.674 192 145 130 0 0
2.1383 9.6982 -1.5409 -0.260 -0.656 0.709 189 145 130 0 0
2.1524 9.6657 -1.5388 -0.391 -0.574 0.720 199 157 141 0 0
2.1999 9.6349 -1.5338 -0.669 -0.484 0.565 160 117 101 0 0
2.2981 9.6116 -1.5243 -0.531 -0.577 0.620 173 125 107 0 0
2.3653 9.6127 -1.5183 -0.227 -0.715 0.661 179 125 108 0 0
2.3982 9.6052 -1.5151 -0.227 -0.715 0.661 199 152 133 0 0
2.5945 9.5504 -1.4960 -0.333 -0.615 0.715 142 88 73 0 0
2.9887 9.4483 -1.4578 -0.426 -0.553 0.716 171 114 95 0 0
3.0503 9.4052 -1.4512 -0.453 -0.617 0.643 204 149 128 0 0
3.0857 9.4122 -1.4481 0.011 -0.756 0.654 208 153 132 0 0
3.1032 9.4138 -1.4466 0.011 -0.756 0.654 213 158 138 0 0
3.8938 9.2004 -1.3698 -0.334 -0.654 0.678 161 111 92 0 0
3.9098 9.1939 -1.3682 -0.334 -0.654 0.678 177 126 108 0 0
3.9258 9.1874 -1.3665 -0.343 -0.693 0.634 159 108 88 0 0
4.4511 9.2115 -1.3197 0.081 -0.935 0.345 175 123 101 0 0
4.5747 9.2581 -1.3096 -0.213 -0.969 0.127 123 73 54 0 0
4.5922 9.2553 -1.3080 -0.226 -0.973 -0.041 124 76 56 0 0
5.0910 9.5161 -1.2694 -0.508 -0.817 -0.273 118 68 54 0 0
5.1066 9.5058 -1.2678 -0.508 -0.817 -0.273 115 63 49 0 0
5.1270 9.5093 -1.2660 -0.239 -0.843 -0.482 116 67 51 0 0
5.1418 9.4968 -1.2643 -0.085 -0.929 -0.359 109 59 41 0 0
5.3689 9.6415 -1.2474 0.418 -0.897 -0.141 119 67 46 0 0
5.8511 9.9544 -1.2117 -0.118 -0.972 0.205 118 67 50 0 0
6.9287 10.4597 -1.1269 0.314 -0.753 -0.579 156 109 93 0 0
6.9560 10.4701 -1.1247 0.526 -0.723 -0.448 150 104 89 0 0
7.2561 10.6690 -1.1025 -0.028 -0.927 0.374 143 100 85 0 0
7.2674 10.6454 -1.1009 -0.488 -0.633 0.601 158 120 104 0 0
6.2042 7.8188 -1.1263 -0.740 -0.506 0.443 210 188 157 0 0
6.2803 7.5982 -1.1139 -0.517 -0.850 0.102 206 185 154 0 0
6.2954 7.5936 -1.1124 -0.496 -0.868 0.023 210 189 159 0 0
6.3080 7.5527 -1.1103 -0.786 -0.529 0.321 206 187 155 0 0
6.4634 7.3338 -1.0908 -0.305 -0.920 0.245 207 188 156 0 0
6.5472 7.2401 -1.0808 -0.371 -0.925 0.084 202 181 150 0 0
6.5956 7.1766 -1.0749 -0.481 -0.876 0.016 205 186 155 0 0
6.7659 7.0867 -1.0572 -0.206 -0.976 -0.066 198 182 148 0 0
6.8876 7.0054 -1.0442 -0.400 -0.915 -0.051 197 176 148 0 0
7.2479 6.8897 -1.0087 -0.318 -0.939 -0.131 179 162 129 0 0
7.6179 6.9057 -0.9757 -0.359 -0.899 0.252 195 178 148 0 0
8.5338 7.5175 -0.9082 0.626 -0.689 0.365 248 248 249 0 0
8.5332 7.4922 -0.9076 0.542 -0.745 0.390 248 249 249 0 0
-0.4125 12.8282 -1.8706 -0.451 -0.440 0.776 242 242 240 0 0
1.0801 9.9095 -1.6589 -0.290 -0.799 0.527 177 134 115 0 0
1.0961 9.9161 -1.6577 -0.189 -0.759 0.623 175 131 112 0 0
1.1123 9.9058 -1.6559 0.077 -0.852 0.517 169 123 104 0 0
1.1284 9.9081 -1.6546 0.077 -0.852 0.517 174 127 107 0 0
1.3229 9.8807 -1.6363 -0.310 -0.614 0.726 177 130 110 0 0
2.0060 9.6902 -1.5698 -0.610 -0.559 0.562 183 144 127 0 0
2.1518 9.6395 -1.5554 -0.483 -0.535 0.693 195 148 130 0 0
2.1833 9.6172 -1.5520 -0.544 -0.609 0.577 179 132 116 0 0
2.1993 9.6096 -1.5503 -0.795 -0.430 0.427 183 136 120 0 0
2.2970 9.5836 -1.5408 0.251 -0.934 0.252 190 139 122 0 0
2.3660 9.6038 -1.5352 -0.192 -0.633 0.750 163 111 90 0 0
2.5254 9.5240 -1.5187 0.026 -0.647 0.762 161 105 84 0 0
2.7698 9.4548 -1.4949 -0.196 -0.779 0.595 163 106 87 0 0
2.7864 9.4522 -1.4933 0.284 -0.822 0.493 190 134 114 0 0
3.6942 9.2397 -1.4060 -0.535 -0.556 0.636 185 131 110 0 0
3.9236 9.1720 -1.3836 -0.321 -0.752 0.576 149 94 74 0 0
4.3970 9.2065 -1.3419 0.037 -0.903 0.427 173 118 93 0 0
4.4513 9.2065 -1.3370 0.073 -0.988 0.133 185 133 112 0 0
4.4695 9.2067 -1.3354 -0.010 -0.994 0.110 170 119 98 0 0
4.5761 9.2569 -1.3272 -0.224 -0.970 0.092 114 66 47 0 0
4.9158 9.4444 -1.3016 0.381 -0.904 -0.193 103 58 42 0 0
4.9378 9.4533 -1.2998 0.381 -0.904 -0.193 115 70 52 0 0
5.0695 9.5043 -1.2893 0.064 -0.942 -0.328 121 73 56 0 0
5.1109 9.5130 -1.2858 -0.089 -0.967 -0.239 114 65 50 0 0
5.1300 9.5127 -1.2841 0.140 -0.964 -0.227 111 60 45 0 0
5.1502 9.5154 -1.2824 0.160 -0.965 -0.209 121 70 53 0 0
5.8328 9.9552 -1.2326 -0.158 -0.978 0.140 129 77 61 0 0
5.8523 9.9527 -1.2308 -0.108 -0.993 0.047 116 65 50 0 0
5.8720 9.9506 -1.2290 -0.108 -0.993 0.047 107 59 44 0 0
6.9369 10.4724 -1.1470 0.522 -0.729 -0.443 159 114 95 0 0
7.0038 10.5189 -1.1422 0.621 -0.742 -0.252 160 118 103 0 0
7.0445 10.5568 -1.1396 0.423 -0.728 -0.539 139 96 81 0 0
7.0758 10.5749 -1.1372 0.446 -0.731 -0.516 134 94 81 0 0
7.1407 10.6153 -1.1325 0.493 -0.704 -0.511 145 105 95 0 0
6.1806 8.1531 -1.1536 -0.993 -0.109 -0.045 207 182 151 0 0
6.2007 7.8092 -1.1426 -0.882 -0.422 0.209 205 184 153 0 0
6.2093 7.7916 -1.1414 -0.852 -0.477 0.213 193 172 141 0 0
6.2827 7.5996 -1.1297 -0.545 -0.826 -0.144 205 184 155 0 0
6.2956 7.5909 -1.1283 -0.545 -0.826 -0.144 207 188 159 0 0
6.3081 7.5500 -1.1261 -0.866 -0.483 0.127 208 187 155 0 0
6.3748 7.4499 -1.1175 -0.547 -0.791 0.273 209 190 158 0 0
6.5604 7.2303 -1.0949 -0.443 -0.871 -0.215 208 189 159 0 0
6.6028 7.1856 -1.0899 -0.378 -0.926 -0.005 206 186 156 0 0
6.7098 7.1057 -1.0782 -0.409 -0.907 0.099 193 174 143 0 0
6.7171 7.0897 -1.0771 -0.366 -0.921 0.130 195 178 147 0 0
7.0224 6.9687 -1.0464 -0.445 -0.892 0.081 192 171 140 0 0
8.4682 7.4339 -0.9287 0.548 -0.748 0.376 248 248 249 0 0
8.5198 7.4732 -0.9251 0.542 -0.745 0.390 249 249 250 0 0
1.0492 9.9174 -1.6790 -0.258 -0.713 0.652 183 140 121 0 0
1.0817 9.8980 -1.6755 -0.290 -0.799 0.527 195 153 133 0 0
1.0978 9.9025 -1.6742 -0.158 -0.739 0.655 184 142 123 0 0
1.1140 9.8943 -1.6725 0.088 -0.827 0.556 178 134 115 0 0
1.1300 9.8998 -1.6713 -0.059 -0.788 0.613 178 133 114 0 0
1.3243 9.8605 -1.6528 -0.310 -0.614 0.726 185 137 117 0 0
1.3405 9.8543 -1.6511 -0.310 -0.614 0.726 172 121 101 0 0
1.6485 9.7622 -1.6210 -0.314 -0.619 0.720 186 147 134 0 0
2.0549 9.6553 -1.5816 -0.300 -0.587 0.752 186 143 130 0 0
2.0711 9.6508 -1.5801 -0.070 -0.632 0.772 195 151 139 0 0
2.1516 9.6177 -1.5719 -0.456 -0.561 0.691 155 105 87 0 0
2.1673 9.6071 -1.5702 -0.456 -0.561 0.691 163 113 96 0 0
2.1835 9.6009 -1.5686 -0.584 -0.560 0.587 183 133 117 0 0
2.2149 9.5801 -1.5652 -0.628 -0.636 0.448 186 134 117 0 0
2.2982 9.5796 -1.5577 0.201 -0.966 0.165 185 133 114 0 0
2.8361 9.4325 -1.5055 -0.235 -0.745 0.625 149 93 69 0 0
2.9154 9.3954 -1.4973 -0.225 -0.647 0.729 186 131 113 0 0
3.0481 9.3727 -1.4848 -0.251 -0.591 0.767 171 114 94 0 0
3.9042 9.1580 -1.4022 -0.181 -0.883 0.433 166 111 91 0 0
3.9227 9.1618 -1.4006 -0.302 -0.812 0.500 136 82 61 0 0
4.9217 9.4567 -1.3195 0.432 -0.898 0.090 116 71 53 0 0
5.1226 9.5411 -1.3039 0.093 -0.986 0.139 122 73 58 0 0
5.8579 9.9617 -1.2498 0.310 -0.912 -0.267 119 68 52 0 0
6.1343 10.0781 -1.2284 0.288 -0.848 -0.445 125 70 53 0 0
6.8054 10.4247 -1.1780 0.019 -0.905 -0.426 113 70 54 0 0
6.8428 10.4101 -1.1742 0.082 -0.887 -0.455 127 82 64 0 0
6.8994 10.4360 -1.1699 0.529 -0.780 -0.334 145 100 79 0 0
6.9489 10.4932 -1.1671 0.522 -0.729 -0.443 153 108 91 0 0
7.1548 10.6399 -1.1528 0.493 -0.704 -0.511 143 105 93 0 0
6.1760 8.1406 -1.1704 -0.913 -0.394 -0.104 204 179 148 0 0
6.3056 7.5425 -1.1420 -0.853 -0.522 -0.020 207 185 152 0 0
6.3931 7.4178 -1.1307 -0.647 -0.758 0.080 210 189 158 0 0
6.6053 7.1869 -1.1052 -0.411 -0.910 -0.055 205 186 154 0 0
6.8615 7.0137 -1.0775 -0.411 -0.903 0.123 197 180 152 0 0
8.4556 7.4160 -0.9461 0.548 -0.748 0.376 248 248 249 0 0
8.5077 7.4559 -0.9425 0.548 -0.748 0.376 248 249 249 0 0
8.5446 7.4770 -0.9398 0.560 -0.771 0.304 249 249 249 0 0
0.4205 11.0659 -1.7859 -0.887 -0.215 -0.409 244 243 241 0 0
1.0509 9.9065 -1.6956 -0.208 -0.704 0.679 181 138 117 0 0
1.0669 9.9110 -1.6943 0.060 -0.785 0.616 181 138 118 0 0
1.0834 9.8871 -1.6921 -0.369 -0.845 0.386 171 127 109 0 0
1.0995 9.8853 -1.6906 -0.093 -0.848 0.522 143 99 83 0 0
1.1156 9.8835 -1.6891 0.064 -0.823 0.564 156 112 94 0 0
1.1317 9.8817 -1.6876 -0.227 -0.700 0.677 184 139 122 0 0
1.5679 9.7507 -1.6449 -0.221 -0.699 0.680 160 106 89 0 0
1.5841 9.7471 -1.6434 -0.221 -0.699 0.680 160 111 95 0 0
1.6004 9.7453 -1.6419 -0.231 -0.752 0.617 144 100 85 0 0
2.0075 9.6679 -1.6033 -0.307 -0.613 0.728 178 134 117 0 0
2.0546 9.6300 -1.5980 -0.365 -0.627 0.688 167 124 111 0 0
2.1515 9.5975 -1.5884 -0.456 -0.561 0.691 168 115 98 0 0
2.1672 9.5869 -1.5867 -0.456 -0.561 0.691 179 130 111 0 0
2.1828 9.5751 -1.5850 -0.106 -0.767 0.633 155 104 85 0 0
2.1992 9.5731 -1.5835 -0.463 -0.683 0.565 167 113 97 0 0
2.7685 9.4226 -1.5283 -0.068 -0.732 0.678 168 111 91 0 0
3.4714 9.2389 -1.4603 -0.252 -0.576 0.778 196 139 119 0 0
3.8185 9.1592 -1.4271 0.116 -0.809 0.577 159 103 81 0 0
3.9215 9.1504 -1.4176 -0.155 -0.981 0.114 169 117 96 0 0
4.4642 8.4976 -1.3501 -0.278 -0.937 0.209 112 64 47 0 0
5.8627 9.9689 -1.2689 0.310 -0.912 -0.267 126 73 57 0 0
6.1657 10.0979 -1.2458 0.211 -0.809 -0.549 132 77 60 0 0
6.3688 10.2246 -1.2314 0.201 -0.839 -0.505 126 78 64 0 0
6.8151 10.4412 -1.1981 -0.058 -0.825 -0.562 118 72 57 0 0
6.8518 10.4247 -1.1943 0.043 -0.818 -0.573 124 80 63 0 0
6.2231 7.6786 -1.1693 -0.637 -0.573 0.515 207 185 154 0 0
6.2628 7.6216 -1.1640 -0.163 -0.910 -0.381 199 176 144 0 0
6.2710 7.6043 -1.1628 -0.693 -0.710 0.125 210 187 157 0 0
6.3934 7.4153 -1.1463 -0.622 -0.775 0.113 207 185 155 0 0
6.4277 7.3539 -1.1415 -0.370 -0.928 0.041 204 182 151 0 0
6.4419 7.3483 -1.1400 -0.370 -0.928 0.041 206 185 154 0 0
6.4971 7.2646 -1.1327 -0.566 -0.819 0.099 208 191 163 0 0
6.7556 7.0630 -1.1037 -0.128 -0.992 -0.014 188 169 139 0 0
8.4024 7.3721 -0.9662 0.639 -0.716 0.280 246 241 235 0 0
8.4472 7.4033 -0.9631 0.583 -0.770 0.259 248 248 247 0 0
8.5006 7.4449 -0.9596 0.583 -0.770 0.259 249 249 249 0 0
8.6247 7.5732 -0.9523 0.667 -0.732 0.142 249 249 249 0 0
1.0851 9.8710 -1.7085 -0.288 -0.666 0.688 171 125 108 0 0
1.1173 9.8620 -1.7053 -0.184 -0.647 0.740 198 152 136 0 0
1.1334 9.8606 -1.7039 -0.194 -0.597 0.779 204 159 143 0 0
1.5361 9.7231 -1.6639 -0.440 -0.580 0.685 166 117 100 0 0
1.5524 9.7234 -1.6625 -0.114 -0.673 0.730 174 124 107 0 0
1.5851 9.7316 -1.6598 -0.147 -0.631 0.762 181 133 117 0 0
1.6012 9.7231 -1.6582 -0.342 -0.597 0.726 158 115 100 0 0
1.6177 9.7298 -1.6569 -0.323 -0.654 0.684 156 114 102 0 0
1.6338 9.7236 -1.6553 -0.288 -0.655 0.699 162 118 108 0 0
1.7791 9.6784 -1.6410 -0.308 -0.599 0.739 194 150 132 0 0
1.7944 9.6561 -1.6390 -0.497 -0.594 0.632 193 147 129 0 0
1.8103 9.6486 -1.6373 -0.368 -0.590 0.719 183 136 119 0 0
2.2330 9.5616 -1.5972 0.151 -0.868 0.473 167 118 99 0 0
2.4067 9.4671 -1.5789 -0.232 -0.641 0.732 170 117 99 0 0
2.4213 9.4484 -1.5770 -0.114 -0.672 0.732 171 118 102 0 0
2.7192 9.4212 -1.5498 -0.559 -0.547 0.623 172 115 95 0 0
2.7343 9.4079 -1.5480 -0.560 -0.535 0.632 155 98 78 0 0
2.7500 9.3996 -1.5464 -0.370 -0.620 0.691 187 130 110 0 0
2.7679 9.4074 -1.5450 -0.133 -0.735 0.665 182 126 105 0 0
2.9454 9.3495 -1.5275 -0.249 -0.691 0.679 177 120 100 0 0
3.4686 9.2175 -1.4771 -0.252 -0.576 0.778 178 121 101 0 0
3.4998 9.2018 -1.4738 -0.255 -0.620 0.742 173 116 96 0 0
3.9201 9.1383 -1.4346 -0.121 -0.952 0.281 166 115 94 0 0
4.1555 9.1599 -1.4144 0.066 -0.970 0.235 144 93 73 0 0
4.3814 9.1362 -1.3937 -0.218 -0.526 0.822 130 79 59 0 0
4.5048 9.1271 -1.3825 -0.257 -0.516 0.817 118 72 53 0 0
4.4067 8.7497 -1.3794 0.839 -0.494 0.229 125 78 59 0 0
4.2990 8.1333 -1.3699 -0.302 -0.319 0.898 127 80 61 0 0
6.7787 10.4535 -1.2221 0.161 -0.885 -0.436 114 70 55 0 0
6.8024 10.4568 -1.2202 0.161 -0.885 -0.436 114 71 55 0 0
6.8194 10.4458 -1.2183 -0.034 -0.831 -0.555 121 77 61 0 0
6.8834 10.4403 -1.2125 0.071 -0.822 -0.564 135 92 75 0 0
6.3072 7.5394 -1.1736 -0.834 -0.536 -0.133 205 181 148 0 0
6.4291 7.3533 -1.1570 -0.336 -0.942 0.017 209 189 158 0 0
6.4810 7.2639 -1.1496 -0.527 -0.832 -0.173 207 188 157 0 0
6.5196 7.2411 -1.1455 -0.504 -0.864 0.014 206 187 158 0 0
6.9371 6.9647 -1.0999 -0.479 -0.876 -0.050 194 171 138 0 0
7.0747 6.9097 -1.0860 -0.264 -0.964 -0.045 187 171 138 0 0
7.1862 6.8929 -1.0756 -0.313 -0.922 0.230 188 168 135 0 0
7.9553 7.0005 -1.0108 0.174 -0.945 0.278 214 198 173 0 0
8.3904 7.3548 -0.9833 0.655 -0.729 0.198 240 235 227 0 0
8.4595 7.4162 -0.9791 0.658 -0.729 0.189 249 248 246 0 0
8.6217 7.5672 -0.9694 0.667 -0.732 0.142 249 249 249 0 0
0.7088 10.1337 -1.7672 -0.545 -0.735 0.403 165 116 95 0 0
1.5050 9.7122 -1.6833 -0.744 -0.521 0.418 172 127 111 0 0
1.5371 9.7032 -1.6802 -0.440 -0.580 0.685 179 131 115 0 0
1.7944 9.6259 -1.6550 -0.311 -0.720 0.621 190 144 125 0 0
2.3888 9.4406 -1.5966 -0.247 -0.730 0.637 192 141 123 0 0
2.4060 9.4459 -1.5952 -0.131 -0.759 0.637 170 117 101 0 0
2.4220 9.4403 -1.5936 -0.365 -0.761 0.536 172 121 103 0 0
2.4382 9.4368 -1.5921 -0.010 -0.796 0.605 194 146 127 0 0
2.4555 9.4425 -1.5908 0.114 -0.704 0.701 198 151 131 0 0
2.8642 9.3615 -1.5521 -0.424 -0.641 0.640 169 111 90 0 0
3.2714 9.2548 -1.5128 -0.572 -0.522 0.632 181 128 106 0 0
3.4657 9.1961 -1.4937 -0.180 -0.646 0.742 179 123 103 0 0
3.9203 9.1324 -1.4516 -0.071 -0.930 0.362 152 101 80 0 0
3.9441 9.1571 -1.4503 -0.056 -0.991 -0.118 162 110 89 0 0
3.9614 9.1560 -1.4487 -0.056 -0.991 -0.118 156 104 84 0 0
3.9787 9.1548 -1.4472 -0.056 -0.991 -0.118 168 116 95 0 0
4.1577 9.1619 -1.4316 -0.234 -0.970 -0.061 160 112 92 0 0
4.2384 9.1315 -1.4235 0.236 -0.647 0.726 185 139 116 0 0
4.3759 9.1121 -1.4108 -0.269 -0.528 0.806 126 75 54 0 0
4.3864 9.0869 -1.4090 -0.277 -0.466 0.840 131 81 58 0 0
4.3035 8.5766 -1.3997 0.739 -0.455 0.497 111 65 48 0 0
4.3407 8.6423 -1.3986 0.516 -0.329 0.791 119 77 60 0 0
4.3761 8.7016 -1.3974 0.519 -0.335 0.787 116 73 56 0 0
4.2498 8.0242 -1.3865 -0.693 -0.118 0.711 132 86 69 0 0
4.2888 8.0960 -1.3854 -0.448 -0.259 0.856 122 76 60 0 0
4.3316 8.0248 -1.3793 -0.065 -0.402 0.913 115 71 50 0 0
4.4323 8.2327 -1.3772 0.125 -0.365 0.922 122 76 55 0 0
4.4505 8.2372 -1.3757 0.319 -0.459 0.829 121 74 54 0 0
4.4861 8.2939 -1.3745 -0.056 -0.423 0.904 118 71 51 0 0
4.4983 8.2800 -1.3729 -0.524 -0.200 0.828 115 71 50 0 0
4.5079 8.2582 -1.3714 -0.951 -0.062 0.303 115 71 50 0 0
4.5081 8.1093 -1.3665 -0.877 -0.409 0.251 135 88 70 0 0
4.5134 8.0759 -1.3650 -0.092 -0.738 0.668 144 97 79 0 0
4.5214 8.0506 -1.3634 -0.756 -0.646 0.107 117 70 52 0 0
4.5655 7.8929 -1.3544 -0.879 -0.335 0.340 116 68 50 0 0
5.8132 9.9381 -1.3110 0.233 -0.806 -0.545 120 69 51 0 0
5.8352 9.9418 -1.3091 0.243 -0.836 -0.492 120 69 50 0 0
6.0564 10.0780 -1.2941 0.182 -0.976 -0.117 122 70 53 0 0
6.1403 10.1283 -1.2883 0.138 -0.935 -0.328 116 67 51 0 0
6.1625 10.1309 -1.2864 0.138 -0.935 -0.328 126 78 63 0 0
6.7270 10.4328 -1.2465 0.305 -0.835 -0.459 126 81 66 0 0
6.8098 10.4684 -1.2404 0.080 -0.895 -0.439 100 59 43 0 0
7.1413 10.6928 -1.2184 0.428 -0.633 -0.645 140 111 101 0 0
7.2085 10.7369 -1.2139 0.522 -0.638 -0.566 158 140 132 0 0
6.3392 8.7144 -1.2248 -0.770 -0.060 -0.635 195 177 154 0 0
6.3062 7.5345 -1.1894 -0.785 -0.598 -0.161 210 187 156 0 0
6.3763 7.4103 -1.1792 -0.321 -0.944 0.079 210 189 160 0 0
6.3910 7.4055 -1.1777 -0.321 -0.944 0.079 208 185 155 0 0
6.4406 7.3403 -1.1712 -0.600 -0.790 -0.125 210 190 160 0 0
6.5781 7.1913 -1.1542 -0.404 -0.893 0.200 204 183 154 0 0
7.1854 6.8894 -1.0909 -0.313 -0.922 0.230 190 170 137 0 0
7.5497 6.8757 -1.0584 -0.358 -0.932 0.063 193 176 146 0 0
8.3775 7.3365 -1.0004 0.658 -0.729 0.189 235 230 221 0 0
8.4534 7.4063 -0.9960 0.658 -0.729 0.189 248 248 244 0 0
8.6157 7.5574 -0.9866 0.661 -0.730 0.174 248 248 248 0 0
2.3890 9.4277 -1.6131 -0.133 -0.825 0.550 181 130 110 0 0
2.4060 9.4315 -1.6117 -0.259 -0.828 0.498 177 124 107 0 0
2.4222 9.4285 -1.6102 -0.365 -0.761 0.536 188 138 120 0 0
2.4383 9.4237 -1.6086 -0.364 -0.783 0.504 199 151 133 0 0
2.7484 9.3652 -1.5794 -0.162 -0.650 0.742 180 125 103 0 0
2.8633 9.3450 -1.5687 -0.474 -0.565 0.675 168 111 90 0 0
3.1876 9.2549 -1.5372 -0.139 -0.653 0.745 188 133 114 0 0
3.4775 9.1623 -1.5086 -0.562 -0.534 0.632 192 137 116 0 0
3.4926 9.1524 -1.5069 -0.302 -0.629 0.717 180 127 106 0 0
3.6247 9.1264 -1.4945 -0.432 -0.726 0.536 175 122 98 0 0
3.7784 9.1171 -1.4807 -0.339 -0.847 0.410 160 108 85 0 0
4.1288 9.1146 -1.4499 -0.823 -0.535 0.190 175 128 108 0 0
4.1919 9.0865 -1.4434 0.087 -0.696 0.713 174 128 106 0 0
4.2610 9.1425 -1.4392 0.630 -0.741 -0.231 145 100 78 0 0
4.2819 9.1529 -1.4378 0.596 -0.800 0.066 136 94 72 0 0
4.3477 9.0712 -1.4292 -0.220 -0.435 0.873 161 122 100 0 0
4.3608 9.0551 -1.4275 -0.391 -0.360 0.847 170 131 110 0 0
4.2861 8.5139 -1.4157 0.618 -0.339 0.710 199 167 146 0 0
4.2564 7.9891 -1.4004 -0.431 -0.249 0.867 187 154 134 0 0
4.2691 7.9778 -1.3989 -0.171 -0.393 0.903 184 151 130 0 0
4.3591 8.0543 -1.3936 0.400 -0.357 0.844 158 125 104 0 0
4.4343 8.1831 -1.3914 0.227 -0.333 0.915 141 101 78 0 0
4.4839 8.2317 -1.3887 -0.560 -0.064 0.826 119 81 57 0 0
4.5026 8.2373 -1.3873 -0.846 0.008 0.534 116 76 53 0 0
4.5045 8.1929 -1.3856 -0.927 0.079 0.367 112 69 48 0 0
4.5026 8.1375 -1.3839 -0.899 0.001 0.438 125 80 62 0 0
4.4907 8.0533 -1.3821 -0.212 -0.554 0.805 151 106 88 0 0
4.5047 8.0458 -1.3806 0.005 -0.615 0.789 139 93 76 0 0
4.5215 8.0465 -1.3791 -0.577 -0.721 0.383 115 69 52 0 0
4.5500 7.8448 -1.3698 -0.175 -0.862 0.476 109 62 44 0 0
4.5679 7.8493 -1.3683 -0.954 -0.300 -0.020 116 68 50 0 0
4.5826 7.7988 -1.3653 -0.410 -0.870 -0.276 115 67 52 0 0
4.5959 7.7906 -1.3639 -0.874 -0.485 0.010 110 64 49 0 0
4.6097 7.7837 -1.3625 -0.543 -0.818 -0.192 116 69 53 0 0
5.6480 9.8754 -1.3426 0.432 -0.897 -0.099 123 72 57 0 0
5.8448 9.9611 -1.3282 0.173 -0.858 -0.484 115 67 47 0 0
6.9483 10.5215 -1.2505 0.485 -0.702 -0.522 160 116 99 0 0
7.0429 10.6255 -1.2458 0.665 -0.643 -0.380 167 129 115 0 0
7.1354 10.6761 -1.2394 0.445 -0.887 -0.125 166 150 142 0 0
7.1663 10.6928 -1.2372 0.323 -0.946 0.028 194 183 176 0 0
7.1932 10.7011 -1.2352 0.327 -0.940 0.097 210 202 195 0 0
7.2203 10.7097 -1.2331 0.022 -0.990 0.138 215 209 203 0 0
7.2300 10.6826 -1.2313 -0.155 -0.877 0.455 220 215 210 0 0
6.3428 8.7180 -1.2423 -0.986 0.023 -0.168 191 172 147 0 0
6.3759 7.4068 -1.1948 -0.493 -0.867 0.078 207 188 156 0 0
6.3899 7.4006 -1.1934 -0.472 -0.881 0.036 206 184 153 0 0
6.4314 7.3517 -1.1880 -0.439 -0.872 -0.216 202 182 152 0 0
6.4446 7.3442 -1.1866 -0.341 -0.930 -0.136 208 187 156 0 0
6.5632 7.1927 -1.1711 -0.062 -0.962 0.265 205 185 156 0 0
6.5725 7.1795 -1.1698 -0.285 -0.859 0.425 203 183 153 0 0
7.0492 6.9187 -1.1192 -0.544 -0.834 0.089 189 167 136 0 0
7.0637 6.9142 -1.1177 -0.181 -0.978 -0.099 185 164 133 0 0
7.0826 6.9162 -1.1161 -0.079 -0.993 -0.093 180 162 130 0 0
8.5567 7.5070 -1.0070 0.683 -0.711 0.170 248 249 248 0 0
1.4913 9.6893 -1.7176 -0.504 -0.677 0.536 167 122 107 0 0
1.7961 9.5989 -1.6878 -0.432 -0.659 0.615 178 128 110 0 0
2.1175 9.5092 -1.6566 -0.370 -0.604 0.706 180 129 109 0 0
2.1657 9.4948 -1.6519 -0.463 -0.606 0.646 188 136 114 0 0
2.4226 9.4172 -1.6267 -0.368 -0.540 0.757 184 134 117 0 0
2.8621 9.3263 -1.5851 -0.474 -0.565 0.675 174 117 97 0 0
3.0859 9.2473 -1.5628 -0.336 -0.666 0.666 182 127 104 0 0
3.2953 9.1840 -1.5423 -0.429 -0.653 0.624 159 108 87 0 0
3.3101 9.1724 -1.5406 -0.473 -0.556 0.684 181 130 109 0 0
3.3438 9.1706 -1.5376 -0.286 -0.762 0.581 188 138 115 0 0
3.4070 9.1449 -1.5312 -0.392 -0.701 0.596 186 130 111 0 0
3.6691 9.0869 -1.5062 -0.156 -0.827 0.540 186 130 107 0 0
4.0935 9.1089 -1.4700 -0.534 -0.836 -0.127 171 129 106 0 0
4.1080 9.0971 -1.4683 -0.366 -0.930 0.037 174 133 111 0 0
4.2003 9.1747 -1.4630 0.199 -0.504 -0.841 202 167 142 0 0
4.2831 9.2146 -1.4572 0.271 -0.484 -0.832 226 197 170 0 0
4.3072 9.2359 -1.4559 0.311 -0.475 -0.824 229 203 178 0 0
4.3937 9.2225 -1.4479 -0.954 0.026 -0.297 229 206 180 0 0
4.1110 8.0380 -1.4305 -0.593 -0.377 0.711 228 204 175 0 0
4.1255 8.0326 -1.4290 -0.490 -0.391 0.779 225 202 173 0 0
4.1571 8.0300 -1.4261 -0.524 -0.402 0.751 226 203 178 0 0
4.1715 8.0241 -1.4247 -0.277 -0.529 0.802 222 201 175 0 0
4.2667 7.9656 -1.4143 -0.374 -0.676 0.635 230 204 179 0 0
4.3388 7.9873 -1.4088 -0.451 -0.597 0.664 231 210 185 0 0
4.3529 7.9805 -1.4073 -0.324 -0.610 0.724 232 210 183 0 0
4.4071 7.9470 -1.4014 0.190 -0.674 -0.714 227 201 175 0 0
4.4198 7.9362 -1.3999 -0.344 -0.912 -0.222 220 191 167 0 0
4.4734 7.9978 -1.3974 0.604 -0.718 0.347 189 159 135 0 0
4.4917 8.0031 -1.3960 0.484 -0.796 0.363 165 134 111 0 0
4.5105 8.0099 -1.3946 0.148 -0.968 0.202 141 109 86 0 0
4.5103 7.9612 -1.3929 -0.810 -0.304 -0.501 128 92 70 0 0
4.5578 7.8624 -1.3853 -0.603 -0.365 0.710 111 62 44 0 0
4.5683 7.8461 -1.3838 -0.954 -0.300 -0.002 115 64 47 0 0
4.5987 7.7942 -1.3793 -0.758 -0.613 -0.222 102 57 41 0 0
4.6107 7.7823 -1.3778 -0.603 -0.798 0.009 100 55 37 0 0
4.5941 7.6918 -1.3760 -0.107 -0.294 -0.950 114 69 50 0 0
4.6369 7.7647 -1.3749 -0.537 -0.541 -0.647 109 67 47 0 0
4.6564 7.7292 -1.3719 -0.958 -0.214 -0.189 112 65 47 0 0
4.6650 7.7084 -1.3704 -0.883 -0.417 -0.217 116 65 48 0 0
5.6513 9.8791 -1.3615 0.432 -0.897 -0.099 128 79 63 0 0
5.8524 9.9752 -1.3474 0.215 -0.845 -0.490 113 66 47 0 0
6.6629 10.4281 -1.2928 0.294 -0.879 -0.374 125 81 68 0 0
6.7950 10.4753 -1.2829 0.187 -0.976 -0.109 109 68 56 0 0
6.8676 10.4879 -1.2770 -0.086 -0.960 -0.268 130 88 74 0 0
6.9502 10.5209 -1.2710 0.563 -0.721 -0.404 162 121 104 0 0
7.0618 10.6607 -1.2662 0.648 -0.622 -0.439 151 122 110 0 0
7.1040 10.7011 -1.2640 0.649 -0.646 -0.401 161 142 132 0 0
7.1069 10.6597 -1.2623 0.394 -0.896 0.207 190 180 171 0 0
7.2211 10.7068 -1.2540 0.022 -0.990 0.138 221 215 209 0 0
6.1905 7.8045 -1.2408 -0.812 -0.572 0.115 199 174 144 0 0
6.2918 7.5659 -1.2235 -0.739 -0.637 -0.220 212 192 160 0 0
6.3774 7.4065 -1.2104 -0.565 -0.825 -0.011 209 189 158 0 0
6.3899 7.3978 -1.2090 -0.421 -0.903 0.083 210 189 158 0 0
6.4326 7.3508 -1.2036 -0.389 -0.921 -0.026 205 186 156 0 0
6.4346 7.3245 -1.2025 -0.185 -0.960 0.210 205 185 154 0 0
6.4470 7.3158 -1.2011 -0.204 -0.978 -0.041 204 184 152 0 0
6.5120 7.2492 -1.1930 -0.363 -0.928 0.087 204 184 152 0 0
6.5249 7.2417 -1.1916 -0.344 -0.904 0.256 207 186 155 0 0
6.5459 7.2187 -1.1890 -0.595 -0.791 0.146 207 186 156 0 0
6.7191 7.0772 -1.1689 -0.222 -0.966 0.130 194 175 144 0 0
6.7344 7.0738 -1.1674 -0.222 -0.966 0.130 194 175 145 0 0
6.8859 6.9852 -1.1511 -0.437 -0.892 0.112 191 172 141 0 0
6.9417 6.9641 -1.1454 -0.434 -0.893 0.120 187 167 134 0 0
7.1537 6.8897 -1.1243 -0.425 -0.892 -0.154 187 171 139 0 0
8.4567 7.4057 -1.0290 0.683 -0.711 0.170 249 247 242 0 0
8.5504 7.4969 -1.0240 0.683 -0.711 0.170 248 249 248 0 0
1.9731 9.5316 -1.6868 -0.374 -0.676 0.635 181 129 112 0 0
2.4375 9.3882 -1.6412 -0.438 -0.582 0.685 195 146 129 0 0
2.4533 9.3813 -1.6396 -0.266 -0.668 0.695 178 128 111 0 0
3.0340 9.2308 -1.5837 0.072 -0.679 0.731 141 86 65 0 0
3.3897 9.1359 -1.5493 -0.500 -0.661 0.560 187 132 112 0 0
3.4066 9.1352 -1.5478 -0.465 -0.804 0.371 180 124 104 0 0
3.8219 8.1501 -1.4753 -0.821 -0.476 0.313 213 182 156 0 0
3.8310 8.1241 -1.4736 -0.061 -0.879 0.473 225 195 170 0 0
3.8471 8.1245 -1.4722 0.211 -0.790 0.575 231 201 176 0 0
4.3178 9.2672 -1.4736 0.242 -0.467 -0.850 227 207 180 0 0
4.3301 9.2469 -1.4718 0.666 -0.654 -0.358 224 204 177 0 0
4.1220 8.0160 -1.4443 -0.231 -0.647 0.726 222 202 170 0 0
4.1376 8.0140 -1.4429 -0.718 -0.561 0.413 222 202 169 0 0
4.1536 8.0134 -1.4415 -0.681 -0.473 0.559 226 202 172 0 0
4.1682 8.0084 -1.4400 -0.162 -0.796 0.583 226 203 173 0 0
4.2931 7.9420 -1.4267 -0.769 -0.413 -0.488 228 207 181 0 0
4.4216 7.9370 -1.4154 -0.400 -0.802 0.443 228 207 180 0 0
4.5844 8.0274 -1.4046 -0.453 -0.198 -0.869 213 183 157 0 0
4.5890 7.9934 -1.4030 -0.651 -0.070 -0.756 200 166 142 0 0
4.5801 7.8289 -1.3976 -0.825 -0.381 -0.418 134 96 75 0 0
4.5892 7.8088 -1.3961 -0.069 -0.949 -0.307 97 58 38 0 0
4.5970 7.7852 -1.3946 -0.814 -0.415 -0.407 95 53 34 0 0
4.6044 7.7606 -1.3930 -0.802 -0.417 -0.428 115 69 51 0 0
4.6430 7.7771 -1.3903 -0.537 -0.541 -0.647 108 64 43 0 0
4.6571 7.7269 -1.3872 -0.959 -0.237 -0.157 110 62 43 0 0
4.6627 7.6983 -1.3856 -0.620 -0.731 -0.285 126 76 58 0 0
4.6730 7.6824 -1.3842 -0.707 -0.480 -0.519 129 78 59 0 0
4.6868 7.6758 -1.3827 -0.740 -0.512 -0.436 121 72 52 0 0
6.8517 10.4971 -1.2993 -0.305 -0.840 -0.449 122 83 67 0 0
6.8722 10.4932 -1.2974 -0.086 -0.960 -0.268 140 100 85 0 0
6.9554 10.5274 -1.2914 0.553 -0.763 -0.334 157 122 108 0 0
7.0688 10.6707 -1.2869 0.658 -0.697 -0.286 184 167 159 0 0
7.0859 10.6589 -1.2850 0.051 -0.702 0.710 201 195 186 0 0
7.1062 10.6540 -1.2830 0.280 -0.856 0.434 207 205 197 0 0
7.1409 10.6316 -1.2792 0.037 -0.723 0.689 218 211 207 0 0
7.1652 10.6348 -1.2772 0.037 -0.723 0.689 222 215 211 0 0
7.1896 10.6380 -1.2752 -0.122 -0.620 0.775 223 218 212 0 0
6.3309 8.7256 -1.2789 -0.982 0.172 0.083 210 198 185 0 0
6.1816 7.8182 -1.2583 -0.872 -0.472 -0.126 202 177 144 0 0
6.1881 7.7967 -1.2569 -0.669 -0.736 0.102 205 181 148 0 0
6.2599 7.6009 -1.2435 -0.377 -0.926 0.005 203 180 149 0 0
6.3761 7.4013 -1.2260 -0.493 -0.847 0.201 201 180 151 0 0
6.3893 7.3939 -1.2246 -0.493 -0.847 0.201 210 190 159 0 0
6.4215 7.3589 -1.2205 -0.506 -0.859 0.076 204 187 157 0 0
6.4597 7.3050 -1.2152 -0.414 -0.875 -0.251 202 183 153 0 0
6.5114 7.2454 -1.2085 -0.372 -0.911 0.178 197 176 145 0 0
6.5448 7.2142 -1.2044 -0.562 -0.767 0.309 211 190 159 0 0
6.5571 7.2058 -1.2031 -0.562 -0.767 0.309 211 191 160 0 0
6.5693 7.1973 -1.2017 -0.562 -0.767 0.309 208 187 157 0 0
6.6974 7.0953 -1.1868 -0.148 -0.969 -0.196 193 174 142 0 0
6.7243 7.0828 -1.1840 -0.397 -0.901 0.174 196 177 147 0 0
6.8962 6.9720 -1.1650 -0.568 -0.823 -0.008 193 174 144 0 0
6.9422 6.9624 -1.1606 -0.484 -0.836 0.257 184 165 132 0 0
7.0302 6.9372 -1.1521 -0.203 -0.946 0.253 179 158 124 0 0
1.0618 9.7826 -1.7921 -0.518 -0.649 0.557 212 173 157 0 0
1.3968 9.6322 -1.7574 -0.166 -0.654 0.738 189 144 128 0 0
1.4128 9.6296 -1.7559 -0.039 -0.634 0.772 170 123 107 0 0
1.5092 9.6367 -1.7478 -0.581 -0.566 0.585 192 143 128 0 0
1.6840 9.5634 -1.7299 -0.588 -0.574 0.570 180 137 121 0 0
1.9736 9.5160 -1.7031 -0.374 -0.676 0.635 181 128 109 0 0
2.4206 9.3704 -1.6589 -0.052 -0.710 0.702 195 144 127 0 0
2.4370 9.3693 -1.6575 -0.544 -0.638 0.545 188 138 121 0 0
2.4541 9.3745 -1.6562 -0.233 -0.781 0.579 178 127 110 0 0
2.5820 9.3342 -1.6436 -0.267 -0.636 0.724 154 98 79 0 0
2.9231 9.2644 -1.6115 -0.390 -0.573 0.721 168 110 87 0 0
2.9538 9.2458 -1.6081 -0.360 -0.543 0.758 176 119 99 0 0
3.0326 9.2130 -1.6000 0.072 -0.679 0.731 172 119 99 0 0
3.0815 9.2031 -1.5954 -0.409 -0.528 0.744 180 127 106 0 0
3.2885 9.1321 -1.5748 -0.252 -0.585 0.771 175 120 100 0 0
3.4352 9.1002 -1.5609 -0.143 -0.702 0.698 180 128 106 0 0
3.5321 9.0743 -1.5516 -0.137 -0.756 0.641 160 106 85 0 0
3.5489 9.0725 -1.5501 -0.137 -0.756 0.641 165 113 91 0 0
3.6365 9.0811 -1.5428 -0.338 -0.859 0.385 158 104 83 0 0
3.6009 8.2193 -1.5127 -0.212 -0.690 0.692 162 110 87 0 0
3.7614 8.3462 -1.5038 0.791 -0.489 0.368 168 131 107 0 0
3.8212 8.1418 -1.4907 -0.859 -0.422 0.290 225 201 174 0 0
4.4058 7.9339 -1.4323 0.062 -0.944 0.323 227 204 178 0 0
4.4235 7.9380 -1.4309 -0.869 -0.494 -0.022 225 202 175 0 0
4.6084 8.0441 -1.4190 -0.654 -0.079 -0.752 225 204 175 0 0
4.6306 7.9198 -1.4123 -0.446 -0.273 0.852 230 204 178 0 0
4.6340 7.8834 -1.4106 -0.364 -0.667 -0.650 210 183 158 0 0
4.6493 7.7901 -1.4057 -0.750 -0.464 -0.471 131 95 71 0 0
4.6620 7.7361 -1.4025 -0.940 -0.274 -0.203 122 76 56 0 0
4.6678 7.7077 -1.4009 -0.439 -0.817 -0.373 129 80 60 0 0
4.6780 7.6916 -1.3994 -0.707 -0.480 -0.519 123 72 53 0 0
4.6909 7.6828 -1.3980 -0.740 -0.512 -0.436 126 75 56 0 0
5.7558 9.9285 -1.3926 0.308 -0.946 -0.105 123 74 58 0 0
5.8182 9.9827 -1.3893 0.353 -0.793 -0.497 112 66 50 0 0
6.8302 10.4942 -1.3216 0.148 -0.926 -0.348 126 87 73 0 0
6.8568 10.5034 -1.3197 0.028 -0.935 -0.352 136 99 83 0 0
6.9676 10.5487 -1.3119 0.492 -0.845 -0.208 168 146 136 0 0
7.0299 10.6323 -1.3097 0.653 -0.653 -0.382 188 177 170 0 0
7.0566 10.6408 -1.3077 0.151 -0.736 0.660 207 198 193 0 0
7.0773 10.6366 -1.3058 0.018 -0.753 0.657 213 206 201 0 0
7.0808 10.5967 -1.3039 -0.111 -0.539 0.835 215 208 205 0 0
7.1029 10.5955 -1.3020 -0.075 -0.629 0.774 218 210 207 0 0
7.1301 10.6049 -1.3000 0.051 -0.665 0.745 221 213 210 0 0
7.1852 10.6247 -1.2960 -0.306 -0.359 0.881 224 219 215 0 0
6.2453 7.6035 -1.2608 -0.430 -0.903 0.017 201 178 147 0 0
6.5445 7.2111 -1.2198 -0.475 -0.763 0.438 208 187 156 0 0
6.5680 7.1924 -1.2171 -0.561 -0.768 0.308 208 187 156 0 0
1.1278 9.7054 -1.8002 -0.284 -0.650 0.705 155 114 100 0 0
1.2073 9.6903 -1.7927 -0.265 -0.777 0.571 168 129 115 0 0
1.2551 9.6777 -1.7881 -0.309 -0.534 0.787 181 139 123 0 0
1.3980 9.6098 -1.7731 -0.102 -0.791 0.603 189 143 126 0 0
