ply
format ascii 1.0
element vertex 826
property float x
property float y
property float z
property float nx
property float ny
property float nz
property uchar diffuse_red
property uchar diffuse_green
property uchar diffuse_blue
property uchar class
property uchar detection
end_header
6.4984 8.0523 -2.1755 -0.163 -0.651 -0.741 167 152 123 0 0
6.5097 8.0392 -2.1736 -0.061 -0.738 -0.672 172 155 129 0 0
6.6989 7.4656 -2.1032 -0.236 -0.757 -0.609 167 150 124 0 0
6.7093 7.4532 -2.1014 -0.290 -0.754 -0.590 167 150 124 0 0
7.4720 7.0596 -2.0259 -0.106 -0.899 -0.425 183 168 145 0 0
7.6469 7.0661 -2.0191 0.072 -0.810 -0.581 191 176 153 0 0
8.3439 7.5409 -2.0407 0.508 -0.628 -0.590 238 239 236 0 0
8.3826 7.5630 -2.0415 0.495 -0.658 -0.567 239 239 237 0 0
8.4416 7.6095 -2.0440 0.497 -0.661 -0.562 239 239 237 0 0
8.5013 7.6567 -2.0466 0.495 -0.658 -0.567 239 239 237 0 0
8.5800 7.7263 -2.0508 0.481 -0.621 -0.619 239 239 237 0 0
0.5516 11.1329 -2.7841 0.117 -0.932 -0.343 231 230 228 0 0
1.8868 8.4871 -2.4359 -0.104 -0.957 0.271 183 129 108 0 0
1.9302 8.4762 -2.4329 0.108 -0.974 0.198 169 119 99 0 0
2.1411 8.4929 -2.4258 -0.257 -0.858 0.445 163 106 83 0 0
2.2011 8.4902 -2.4229 0.052 -0.924 0.378 166 111 90 0 0
2.2798 8.5125 -2.4221 0.289 -0.937 0.194 156 103 83 0 0
2.5149 8.6460 -2.4268 -0.115 -0.934 -0.338 115 67 51 0 0
2.5305 8.6458 -2.4261 -0.058 -0.970 -0.236 114 67 51 0 0
2.5775 8.6461 -2.4242 0.237 -0.869 -0.434 108 61 45 0 0
2.5939 8.6504 -2.4239 0.237 -0.869 -0.434 99 53 38 0 0
2.6298 8.6773 -2.4254 0.521 -0.841 -0.147 112 65 50 0 0
2.6474 8.6882 -2.4258 0.458 -0.875 -0.155 115 68 53 0 0
2.7015 8.7265 -2.4278 0.228 -0.826 -0.516 109 63 46 0 0
2.6562 7.4050 -2.2841 -0.442 -0.684 0.580 224 204 174 0 0
2.8584 7.3589 -2.2704 -0.612 -0.765 0.200 227 204 175 0 0
3.2212 7.2627 -2.2444 -0.063 -0.636 0.769 227 206 175 0 0
3.3183 7.2478 -2.2387 -0.031 -0.768 0.640 224 205 175 0 0
4.1260 7.0119 -2.1784 -0.149 -0.791 0.593 227 207 180 0 0
4.1390 7.0066 -2.1773 -0.365 -0.869 0.333 228 208 179 0 0
4.1674 7.0024 -2.1756 -0.633 -0.762 0.137 228 207 177 0 0
4.1789 6.9931 -2.1741 -0.633 -0.762 0.137 229 208 177 0 0
4.2235 6.9918 -2.1721 -0.174 -0.811 0.559 227 206 177 0 0
4.3537 6.9394 -2.1608 -0.314 -0.648 0.694 228 209 179 0 0
4.3690 6.9399 -2.1602 -0.380 -0.551 0.743 225 206 176 0 0
4.5768 6.8560 -2.1421 -0.018 -0.703 0.711 218 194 163 0 0
4.6555 6.8268 -2.1355 0.008 -0.717 0.697 230 209 180 0 0
4.7320 6.7929 -2.1286 -0.334 -0.646 0.686 227 206 177 0 0
5.2555 6.6001 -2.0851 -0.350 -0.803 0.483 230 208 181 0 0
5.3036 6.5733 -2.0801 -0.239 -0.641 0.729 226 204 175 0 0
5.3407 6.5551 -2.0765 -0.928 -0.371 0.037 224 203 174 0 0
6.5073 8.0652 -2.1934 0.058 -0.486 -0.872 166 149 122 0 0
6.5175 8.0502 -2.1913 -0.549 -0.168 -0.819 169 152 126 0 0
6.7085 7.4783 -2.1202 -0.335 -0.664 -0.668 170 153 127 0 0
6.7169 7.4627 -2.1182 -0.461 -0.740 -0.490 172 155 129 0 0
6.9813 7.1991 -2.0779 -0.239 -0.885 -0.399 167 152 127 0 0
7.0431 7.1561 -2.0705 -0.481 -0.680 -0.553 178 163 140 0 0
7.1896 7.1035 -2.0585 -0.373 -0.810 -0.452 177 162 137 0 0
7.2158 7.0887 -2.0558 -0.264 -0.885 -0.383 176 162 136 0 0
7.2382 7.0939 -2.0554 -0.074 -0.935 -0.346 182 168 144 0 0
7.2580 7.0956 -2.0548 -0.032 -0.953 -0.303 185 170 147 0 0
7.4463 7.0731 -2.0443 0.075 -0.901 -0.427 188 172 147 0 0
7.6056 7.0841 -2.0387 0.079 -0.786 -0.613 195 180 158 0 0
7.6251 7.0848 -2.0380 0.103 -0.755 -0.647 194 179 157 0 0
7.6458 7.0871 -2.0374 0.079 -0.786 -0.613 190 175 152 0 0
8.2613 7.4879 -2.0554 0.508 -0.628 -0.590 238 236 230 0 0
8.3990 7.6059 -2.0626 0.508 -0.628 -0.590 238 238 236 0 0
8.4256 7.6133 -2.0622 0.495 -0.658 -0.567 238 238 236 0 0
8.4843 7.6593 -2.0648 0.497 -0.661 -0.562 239 239 237 0 0
8.5444 7.7066 -2.0675 0.497 -0.661 -0.562 239 239 237 0 0
8.5194 7.6515 -2.0625 -0.274 -0.752 -0.600 239 239 237 0 0
0.4380 11.4207 -2.8395 -0.973 -0.197 0.120 235 234 232 0 0
0.6903 11.1866 -2.8028 -0.193 -0.981 -0.022 228 224 221 0 0
0.8109 11.3617 -2.8173 -0.845 -0.258 -0.468 223 218 214 0 0
2.0213 8.4837 -2.4451 -0.009 -1.000 -0.025 149 96 78 0 0
2.1119 8.4906 -2.4421 -0.102 -0.944 0.315 156 100 79 0 0
2.1412 8.4840 -2.4401 -0.329 -0.900 0.285 180 123 99 0 0
2.2171 8.4882 -2.4374 0.159 -0.968 0.195 178 125 104 0 0
2.2479 8.4925 -2.4366 -0.264 -0.956 0.130 159 105 84 0 0
2.2653 8.5093 -2.4378 0.205 -0.857 0.474 158 103 83 0 0
2.5178 8.6572 -2.4437 -0.191 -0.850 0.491 111 65 49 0 0
2.5315 8.6452 -2.4418 0.162 -0.985 -0.062 111 64 48 0 0
2.5488 8.6553 -2.4422 0.050 -0.829 -0.558 114 67 51 0 0
2.5655 8.6620 -2.4422 0.148 -0.813 -0.562 117 70 54 0 0
2.5811 8.6608 -2.4414 0.276 -0.816 -0.509 107 60 44 0 0
2.5979 8.6674 -2.4415 0.148 -0.813 -0.562 110 63 48 0 0
2.6510 8.7026 -2.4432 0.459 -0.814 -0.355 111 65 50 0 0
2.7041 8.7343 -2.4445 0.395 -0.900 -0.182 112 66 48 0 0
2.7631 7.3711 -2.2898 -0.128 -0.729 0.672 227 206 177 0 0
2.7768 7.3694 -2.2890 -0.227 -0.793 0.566 226 205 176 0 0
2.8583 7.3538 -2.2839 -0.369 -0.918 0.145 226 202 172 0 0
2.8714 7.3487 -2.2828 -0.369 -0.918 0.145 223 201 171 0 0
2.8836 7.3399 -2.2813 -0.411 -0.847 0.338 224 202 171 0 0
2.8965 7.3341 -2.2801 0.030 -0.962 0.273 226 203 172 0 0
2.9108 7.3347 -2.2795 0.030 -0.962 0.273 225 202 171 0 0
2.9213 7.3181 -2.2772 -0.130 -0.737 0.663 224 201 171 0 0
3.2184 7.2479 -2.2569 -0.063 -0.636 0.769 224 203 172 0 0
3.2336 7.2508 -2.2566 -0.202 -0.631 0.749 225 204 174 0 0
3.8729 7.0931 -2.2122 -0.416 -0.568 0.710 229 208 179 0 0
3.9233 7.0669 -2.2072 -0.019 -0.826 0.563 224 203 175 0 0
3.9398 7.0716 -2.2070 0.021 -0.720 0.694 223 202 173 0 0
4.0148 7.0316 -2.1994 -0.561 -0.610 0.560 225 206 174 0 0
4.1385 7.0021 -2.1909 -0.437 -0.752 0.494 228 209 180 0 0
4.3251 6.9407 -2.1762 0.051 -0.679 0.732 228 207 177 0 0
4.3346 6.9266 -2.1743 -0.201 -0.657 0.727 228 209 179 0 0
4.3484 6.9234 -2.1733 -0.201 -0.657 0.727 228 209 179 0 0
4.5551 6.8385 -2.1552 -0.138 -0.715 0.686 228 203 172 0 0
4.8497 6.7142 -2.1289 -0.612 -0.585 0.532 226 206 177 0 0
4.9221 6.7049 -2.1249 -0.222 -0.749 0.624 227 207 180 0 0
5.2677 6.5625 -2.0945 -0.572 -0.665 0.481 227 206 177 0 0
5.3183 6.5407 -2.0899 -0.191 -0.626 0.756 230 206 178 0 0
5.3408 6.5532 -2.0904 -0.935 -0.352 0.035 228 206 177 0 0
5.3474 6.5366 -2.0882 -0.808 -0.323 0.493 226 203 172 0 0
6.6260 8.4004 -2.2427 0.587 -0.605 0.538 182 174 161 0 0
6.5478 8.0994 -2.2124 -0.322 -0.151 -0.935 165 148 120 0 0
6.5441 8.0605 -2.2082 -0.626 -0.013 -0.779 165 146 120 0 0
6.5249 7.9319 -2.1947 -0.863 -0.097 -0.495 170 150 123 0 0
6.7395 7.4386 -2.1306 -0.697 -0.666 -0.264 168 152 126 0 0
6.7463 7.4209 -2.1283 -0.125 -0.863 -0.490 172 156 130 0 0
6.7627 7.4177 -2.1273 -0.151 -0.866 -0.476 167 151 125 0 0
6.7789 7.4143 -2.1262 -0.151 -0.866 -0.476 173 158 132 0 0
6.7870 7.3987 -2.1241 -0.399 -0.832 -0.385 173 159 133 0 0
6.9912 7.2112 -2.0946 -0.313 -0.947 -0.077 174 159 133 0 0
7.2095 7.1034 -2.0735 -0.389 -0.819 -0.420 179 163 138 0 0
7.4428 7.0912 -2.0623 -0.335 -0.785 -0.522 190 174 149 0 0
8.4549 7.6720 -2.0847 0.508 -0.628 -0.590 237 237 235 0 0
8.4691 7.6641 -2.0832 0.495 -0.658 -0.567 238 238 236 0 0
8.5279 7.7101 -2.0859 0.563 -0.701 -0.438 239 239 237 0 0
8.6234 7.8000 -2.0919 -0.631 -0.340 0.697 238 238 236 0 0
8.6233 7.7744 -2.0891 -0.450 -0.328 0.830 239 239 237 0 0
0.2556 11.2686 -2.8487 -0.139 -0.922 0.362 239 238 236 0 0
0.2792 11.1502 -2.8343 0.639 -0.730 -0.243 238 237 235 0 0
0.3234 11.2893 -2.8482 -0.859 -0.173 0.481 238 237 235 0 0
0.3925 11.6936 -2.8911 0.671 -0.741 -0.023 237 236 234 0 0
0.4190 11.4876 -2.8667 -0.943 -0.245 0.224 236 235 233 0 0
0.4398 11.4073 -2.8568 -0.966 -0.241 0.092 235 234 232 0 0
0.4779 11.3295 -2.8464 -0.838 -0.495 0.230 234 233 231 0 0
0.4979 11.2591 -2.8376 -0.311 -0.822 0.477 233 232 230 0 0
0.6884 11.3399 -2.8388 -0.965 -0.192 0.177 227 223 219 0 0
1.5914 8.6481 -2.4968 -0.574 -0.653 0.494 179 128 107 0 0
1.7430 8.5030 -2.4741 -0.177 -0.934 0.310 182 130 109 0 0
1.7574 8.5005 -2.4733 -0.177 -0.934 0.310 185 132 112 0 0
2.1276 8.4865 -2.4563 -0.308 -0.917 0.253 178 122 98 0 0
2.1417 8.4792 -2.4549 -0.329 -0.900 0.285 185 129 105 0 0
2.3636 8.5497 -2.4537 0.212 -0.892 -0.399 122 73 54 0 0
2.5189 8.6569 -2.4594 -0.039 -0.900 0.435 106 60 44 0 0
2.5336 8.6510 -2.4581 0.202 -0.978 0.047 120 73 57 0 0
2.5518 8.6669 -2.4592 0.050 -0.829 -0.558 114 67 50 0 0
2.5841 8.6724 -2.4584 0.276 -0.816 -0.509 101 54 38 0 0
2.6010 8.6798 -2.4586 0.148 -0.813 -0.562 109 62 46 0 0
2.6359 8.6998 -2.4594 0.420 -0.806 -0.417 104 57 43 0 0
2.7051 7.3571 -2.3046 -0.436 -0.682 0.587 226 205 174 0 0
2.7470 7.3563 -2.3028 -0.330 -0.702 0.631 224 205 175 0 0
3.1752 7.2429 -2.2722 -0.342 -0.636 0.692 229 208 177 0 0
3.2158 7.2335 -2.2695 -0.187 -0.797 0.574 227 206 175 0 0
3.2300 7.2329 -2.2688 -0.170 -0.718 0.675 227 207 177 0 0
3.5531 7.1470 -2.2457 -0.098 -0.716 0.692 227 207 177 0 0
3.8124 7.0859 -2.2280 0.004 -0.676 0.737 228 209 179 0 0
3.8560 7.0835 -2.2260 -0.110 -0.691 0.714 227 206 177 0 0
3.9221 7.0603 -2.2206 0.057 -0.785 0.616 227 206 178 0 0
4.0153 7.0296 -2.2133 -0.738 -0.671 0.070 227 208 179 0 0
4.5701 6.8354 -2.1683 -0.568 -0.518 0.640 226 202 171 0 0
4.6797 6.7738 -2.1568 -0.072 -0.868 0.491 227 206 177 0 0
4.9361 6.6681 -2.1342 -0.558 -0.473 0.682 229 210 183 0 0
5.1740 6.5887 -2.1154 -0.536 -0.542 0.647 228 209 180 0 0
5.1918 6.5637 -2.1118 -0.248 -0.589 0.769 227 208 178 0 0
5.3332 6.5370 -2.1029 -0.745 -0.533 0.401 228 207 178 0 0
5.3427 6.5259 -2.1013 -0.786 -0.492 0.374 230 207 176 0 0
6.5865 8.1302 -2.2312 -0.381 -0.097 -0.919 167 150 124 0 0
6.5452 7.9004 -2.2069 -0.558 -0.300 -0.773 159 139 112 0 0
7.0531 7.1924 -2.1058 -0.142 -0.958 -0.248 173 158 136 0 0
7.1634 7.1398 -2.0953 -0.531 -0.803 -0.272 179 164 141 0 0
7.1783 7.1348 -2.0941 -0.503 -0.782 -0.369 177 162 137 0 0
7.1931 7.1298 -2.0929 -0.342 -0.881 -0.327 180 166 140 0 0
7.2076 7.1243 -2.0917 -0.310 -0.900 -0.307 180 164 139 0 0
7.2225 7.1192 -2.0905 -0.169 -0.921 -0.352 179 163 138 0 0
8.4916 7.6893 -2.1024 0.419 -0.628 -0.656 237 237 235 0 0
8.6101 7.8074 -2.1109 -0.434 -0.336 0.836 238 238 236 0 0
8.6189 7.7926 -2.1088 -0.698 -0.285 0.656 238 238 236 0 0
8.6084 7.7547 -2.1050 -0.450 -0.328 0.830 239 239 237 0 0
0.2586 11.2378 -2.8636 0.578 -0.785 0.222 238 237 235 0 0
0.3254 11.2738 -2.8650 -0.769 -0.181 0.613 237 236 234 0 0
0.5760 11.0268 -2.8264 0.437 -0.752 0.493 230 229 227 0 0
0.5929 11.0334 -2.8265 0.340 -0.763 0.550 232 229 227 0 0
2.1278 8.4792 -2.4708 -0.329 -0.900 0.285 169 113 89 0 0
2.1423 8.4743 -2.4697 -0.329 -0.900 0.285 174 119 94 0 0
2.2504 8.4941 -2.4675 0.093 -0.930 0.356 133 78 58 0 0
2.4167 8.5900 -2.4717 -0.181 -0.914 -0.362 118 72 55 0 0
2.5008 8.6336 -2.4732 -0.064 -0.994 0.083 109 63 47 0 0
2.5349 8.6519 -2.4739 0.175 -0.984 0.001 115 68 52 0 0
2.5543 8.6753 -2.4758 0.150 -0.923 -0.353 113 66 49 0 0
2.6038 8.6897 -2.4755 0.103 -0.811 -0.575 99 52 36 0 0
2.6373 8.7011 -2.4754 0.256 -0.906 -0.338 106 59 45 0 0
2.6566 8.7217 -2.4770 0.489 -0.805 -0.336 105 59 44 0 0
2.8075 7.3040 -2.3083 -0.228 -0.819 0.527 224 204 177 0 0
3.1570 7.2234 -2.2847 0.059 -0.758 0.649 227 206 177 0 0
3.1734 7.2317 -2.2850 -0.245 -0.708 0.662 229 209 179 0 0
3.7024 7.1060 -2.2489 -0.426 -0.881 0.208 230 211 181 0 0
3.7145 7.0981 -2.2475 -0.556 -0.634 0.537 225 206 176 0 0
3.7260 7.0883 -2.2459 -0.498 -0.668 0.553 226 207 177 0 0
3.9196 7.0499 -2.2336 0.057 -0.785 0.616 229 210 181 0 0
3.9305 7.0389 -2.2319 -0.307 -0.626 0.717 227 207 178 0 0
3.9435 7.0338 -2.2308 -0.307 -0.626 0.717 229 208 179 0 0
4.0011 7.0285 -2.2278 -0.288 -0.936 0.201 227 207 180 0 0
4.0157 7.0277 -2.2271 -0.738 -0.671 0.070 226 206 179 0 0
4.4584 6.8553 -2.1892 -0.210 -0.724 0.657 225 204 173 0 0
4.4857 6.8482 -2.1873 -0.284 -0.643 0.711 228 205 174 0 0
4.5097 6.8335 -2.1846 -0.407 -0.677 0.613 224 202 171 0 0
4.5246 6.8329 -2.1839 0.031 -0.843 0.537 225 203 172 0 0
4.5407 6.8351 -2.1835 -0.343 -0.753 0.562 230 207 176 0 0
4.6466 6.7652 -2.1712 -0.100 -0.728 0.678 226 207 177 0 0
4.6712 6.7523 -2.1687 -0.315 -0.671 0.671 227 206 177 0 0
4.7464 6.7172 -2.1616 -0.393 -0.770 0.503 226 207 177 0 0
4.9693 6.6395 -2.1436 -0.281 -0.707 0.649 230 210 183 0 0
5.1857 6.5499 -2.1244 -0.289 -0.693 0.661 225 206 176 0 0
5.3028 6.5080 -2.1148 -0.260 -0.637 0.726 228 206 179 0 0
6.6674 8.3989 -2.2757 0.510 -0.295 0.808 188 179 169 0 0
6.5435 7.9585 -2.2303 -0.663 -0.377 -0.646 170 152 125 0 0
6.5536 7.9437 -2.2282 -0.803 -0.142 -0.579 165 147 120 0 0
6.5693 7.9068 -2.2233 -0.565 -0.248 -0.787 166 148 122 0 0
6.7920 7.4301 -2.1596 -0.074 -0.865 -0.496 164 149 122 0 0
6.8384 7.3885 -2.1529 -0.503 -0.624 -0.597 171 157 131 0 0
7.1662 7.1418 -2.1112 -0.531 -0.792 -0.301 177 162 139 0 0
7.1996 7.1367 -2.1093 -0.351 -0.770 -0.532 189 175 148 0 0
7.3730 7.1192 -2.1001 -0.052 -0.896 -0.442 180 163 137 0 0
7.4737 7.1281 -2.0970 0.142 -0.955 -0.261 185 167 143 0 0
8.6059 7.7245 -2.1191 -0.604 -0.033 0.797 239 239 237 0 0
0.2287 11.1840 -2.8770 0.251 -0.858 -0.448 239 238 236 0 0
0.4601 11.4052 -2.8934 -0.937 -0.170 0.305 233 232 230 0 0
0.4833 11.2524 -2.8747 -0.905 -0.293 0.309 233 232 228 0 0
0.5029 11.1924 -2.8669 -0.517 -0.775 0.363 232 231 227 0 0
0.5211 11.1646 -2.8630 -0.916 -0.359 0.177 232 231 228 0 0
2.2194 8.4796 -2.4825 0.056 -0.969 0.241 124 75 56 0 0
2.2349 8.4827 -2.4822 -0.095 -0.992 -0.080 121 72 52 0 0
2.2500 8.4824 -2.4816 -0.327 -0.944 -0.038 124 75 55 0 0
2.2677 8.5019 -2.4831 0.166 -0.972 -0.169 117 68 51 0 0
2.3521 8.5608 -2.4865 0.292 -0.946 -0.138 108 63 45 0 0
2.4683 8.6170 -2.4884 0.551 -0.834 -0.022 121 72 57 0 0
2.4855 8.6280 -2.4889 -0.034 -0.932 0.360 118 69 54 0 0
2.5021 8.6346 -2.4890 0.008 -0.982 0.186 111 63 45 0 0
2.6070 8.7023 -2.4927 0.103 -0.811 -0.575 111 64 46 0 0
2.6389 8.7035 -2.4915 0.125 -0.939 -0.321 109 61 47 0 0
2.8630 7.2957 -2.3190 -0.164 -0.701 0.694 225 204 175 0 0
3.1706 7.2165 -2.2973 -0.130 -0.774 0.619 227 207 179 0 0
3.2271 7.2139 -2.2947 -0.223 -0.674 0.704 228 207 178 0 0
3.3469 7.1780 -2.2857 -0.089 -0.750 0.655 227 204 173 0 0
3.6024 7.1102 -2.2675 -0.440 -0.633 0.637 230 209 182 0 0
3.6992 7.0929 -2.2616 -0.378 -0.636 0.672 228 209 181 0 0
3.9171 7.0396 -2.2466 0.057 -0.785 0.616 228 207 179 0 0
3.9479 7.0010 -2.2409 -0.457 -0.489 0.743 227 206 176 0 0
4.0480 6.9908 -2.2356 -0.488 -0.507 0.711 224 202 171 0 0
4.4688 6.8414 -2.2012 -0.210 -0.724 0.657 228 206 177 0 0
4.4817 6.8360 -2.2001 -0.203 -0.719 0.664 227 204 173 0 0
4.5052 6.8203 -2.1973 -0.253 -0.749 0.612 228 205 174 0 0
4.5185 6.8162 -2.1963 0.239 -0.935 0.262 228 205 174 0 0
4.5305 6.8088 -2.1950 -0.157 -0.862 0.481 229 206 175 0 0
4.5608 6.8090 -2.1938 -0.600 -0.522 0.606 229 206 174 0 0
4.8004 6.6676 -2.1676 -0.029 -0.990 0.135 228 205 173 0 0
6.5697 7.9682 -2.2471 -0.493 -0.280 -0.823 161 141 113 0 0
6.9629 7.2974 -2.1533 0.041 -0.980 -0.194 173 160 136 0 0
6.9978 7.2410 -2.1454 -0.681 -0.696 -0.229 175 160 134 0 0
7.0068 7.2275 -2.1434 -0.733 -0.649 -0.206 180 164 139 0 0
7.0457 7.2041 -2.1391 -0.172 -0.908 -0.382 174 159 136 0 0
7.0633 7.2028 -2.1383 -0.128 -0.957 -0.261 176 161 138 0 0
7.0787 7.1985 -2.1371 -0.091 -0.980 -0.174 177 162 139 0 0
7.3212 7.1482 -2.1215 -0.180 -0.805 -0.566 181 165 139 0 0
7.4407 7.1324 -2.1148 -0.070 -0.919 -0.389 186 172 147 0 0
7.4582 7.1306 -2.1139 -0.016 -0.919 -0.394 191 176 152 0 0
8.0854 7.4122 -2.1212 0.481 -0.602 -0.638 200 192 179 0 0
8.5317 7.7594 -2.1435 -0.551 -0.643 -0.532 237 237 235 0 0
8.5986 7.7139 -2.1355 -0.494 -0.149 0.857 238 238 236 0 0
0.5047 11.1771 -2.8836 -0.905 -0.293 0.309 232 231 227 0 0
0.6046 11.9881 -2.9750 -0.113 -0.985 0.131 231 226 226 0 0
0.7344 10.9656 -2.8496 -0.698 -0.706 0.124 226 222 219 0 0
0.8690 11.4650 -2.9029 -0.900 -0.179 -0.398 223 219 216 0 0
0.9060 11.2325 -2.8741 -0.881 -0.192 -0.433 219 215 212 0 0
2.1141 8.4711 -2.5010 -0.010 -0.908 0.418 169 116 95 0 0
2.2217 8.4889 -2.4988 0.214 -0.965 -0.154 119 71 55 0 0
2.2377 8.4955 -2.4990 0.257 -0.953 -0.160 122 73 57 0 0
2.4208 8.6025 -2.5042 0.195 -0.786 -0.587 118 73 54 0 0
2.4374 8.6099 -2.5045 0.218 -0.825 -0.522 106 61 43 0 0
2.4539 8.6169 -2.5046 0.268 -0.805 -0.529 111 64 48 0 0
2.4870 8.6301 -2.5049 -0.210 -0.973 0.098 115 65 50 0 0
2.5772 8.7059 -2.5102 0.100 -0.883 -0.459 121 71 54 0 0
2.5921 8.7000 -2.5089 0.345 -0.887 -0.307 117 66 49 0 0
2.6093 8.7089 -2.5092 0.112 -0.915 -0.388 111 62 45 0 0
2.6411 8.7097 -2.5081 0.087 -0.868 -0.489 110 61 46 0 0
3.0295 7.2168 -2.3170 -0.177 -0.635 0.752 227 206 176 0 0
3.0433 7.2153 -2.3162 -0.157 -0.757 0.635 228 208 177 0 0
3.2356 7.1876 -2.3053 -0.517 -0.467 0.717 226 205 175 0 0
3.3449 7.1671 -2.2985 -0.089 -0.750 0.655 226 205 174 0 0
3.5451 7.1098 -2.2838 -0.132 -0.614 0.778 225 205 177 0 0
3.9342 6.9592 -2.2505 -0.294 -0.923 0.249 228 207 179 0 0
3.9466 6.9528 -2.2493 -0.105 -0.853 0.510 228 208 181 0 0
4.2507 6.8934 -2.2301 -0.306 -0.817 0.489 227 206 175 0 0
4.3944 6.8409 -2.2182 -0.194 -0.717 0.670 227 205 177 0 0
4.5019 6.8100 -2.2103 -0.396 -0.630 0.667 227 204 173 0 0
4.6261 6.7483 -2.1981 -0.412 -0.642 0.647 224 205 176 0 0
4.7702 6.6656 -2.1826 -0.628 -0.752 0.201 227 205 174 0 0
4.7875 6.6701 -2.1824 -0.114 -0.988 -0.105 229 207 176 0 0
4.8037 6.6720 -2.1820 -0.070 -0.979 -0.194 232 210 179 0 0
4.9350 6.6275 -2.1715 -0.268 -0.738 0.619 230 210 184 0 0
4.9531 6.6022 -2.1678 -0.288 -0.735 0.614 225 206 176 0 0
4.9672 6.5999 -2.1670 -0.379 -0.674 0.634 229 210 182 0 0
4.9796 6.5940 -2.1658 -0.379 -0.674 0.634 232 212 185 0 0
5.0208 6.5843 -2.1630 -0.425 -0.689 0.588 229 210 181 0 0
5.0336 6.5793 -2.1619 -0.252 -0.619 0.744 229 209 182 0 0
5.2828 6.4955 -2.1421 -0.361 -0.552 0.752 227 207 178 0 0
6.5888 8.3594 -2.3091 -0.153 -0.495 0.856 199 195 194 0 0
6.6091 8.3606 -2.3085 -0.138 -0.449 0.883 198 194 193 0 0
6.7292 8.3986 -2.3081 0.459 -0.320 0.829 180 169 156 0 0
6.6928 8.2373 -2.2906 -0.434 0.017 -0.901 167 150 127 0 0
6.9672 7.3017 -2.1696 -0.089 -0.988 -0.125 171 157 131 0 0
6.9846 7.3000 -2.1687 -0.089 -0.988 -0.125 174 161 135 0 0
6.9958 7.2894 -2.1670 -0.431 -0.779 -0.456 177 163 137 0 0
7.0026 7.2460 -2.1616 -0.384 -0.692 -0.611 171 155 130 0 0
7.0176 7.2409 -2.1604 -0.548 -0.811 0.205 177 162 137 0 0
7.0463 7.2292 -2.1579 -0.031 -0.957 -0.290 178 163 140 0 0
7.0836 7.2034 -2.1534 0.005 -0.949 -0.314 172 157 134 0 0
7.2006 7.1597 -2.1436 -0.075 -0.887 -0.456 174 160 133 0 0
7.4205 7.1287 -2.1311 -0.251 -0.771 -0.585 187 173 149 0 0
8.3078 7.5351 -2.1435 0.288 -0.785 -0.549 236 236 234 0 0
8.4840 7.7249 -2.1588 -0.894 -0.394 -0.215 235 235 233 0 0
8.5437 7.7721 -2.1619 -0.868 -0.495 -0.051 236 236 234 0 0
8.5788 7.7133 -2.1536 -0.401 -0.223 0.889 237 237 235 0 0
8.5871 7.6982 -2.1515 -0.531 -0.548 -0.647 238 238 236 0 0
0.7021 10.9283 -2.8647 0.159 -0.955 0.252 230 226 223 0 0
0.7710 10.9091 -2.8597 -0.729 -0.587 0.353 226 222 219 0 0
0.8887 11.4026 -2.9139 -0.833 -0.201 -0.516 222 218 215 0 0
2.1283 8.4550 -2.5139 -0.424 -0.868 0.257 125 75 56 0 0
2.1423 8.4463 -2.5123 -0.565 -0.790 0.238 123 75 56 0 0
2.1723 8.4462 -2.5111 -0.510 -0.765 -0.393 110 66 49 0 0
2.1910 8.4763 -2.5139 0.375 -0.847 -0.377 115 73 56 0 0
2.4080 8.6130 -2.5217 0.218 -0.825 -0.522 108 61 45 0 0
2.4402 8.6214 -2.5214 0.218 -0.825 -0.522 115 69 52 0 0
2.5941 8.7054 -2.5253 0.314 -0.941 -0.128 123 72 55 0 0
2.6105 8.7092 -2.5251 0.386 -0.903 -0.191 113 62 45 0 0
2.6271 8.7141 -2.5250 0.492 -0.864 -0.106 123 72 55 0 0
2.6435 8.7174 -2.5248 -0.289 -0.767 -0.573 111 60 43 0 0
2.5944 7.3403 -2.3627 -0.314 -0.648 0.693 225 202 170 0 0
2.6305 7.3111 -2.3578 -0.233 -0.796 0.558 223 202 171 0 0
2.6438 7.3078 -2.3569 -0.540 -0.696 0.473 223 202 173 0 0
2.6565 7.3017 -2.3557 -0.269 -0.737 0.620 222 199 171 0 0
2.6847 7.3037 -2.3548 -0.267 -0.764 0.588 229 206 178 0 0
2.6972 7.2966 -2.3535 -0.206 -0.830 0.519 226 206 177 0 0
2.7378 7.2906 -2.3511 -0.121 -0.717 0.686 226 207 175 0 0
2.9235 7.2417 -2.3380 -0.376 -0.707 0.599 226 205 176 0 0
2.9380 7.2435 -2.3376 -0.570 -0.610 0.550 223 202 173 0 0
3.0273 7.2033 -2.3293 -0.247 -0.670 0.700 225 203 172 0 0
3.0410 7.2014 -2.3286 -0.269 -0.686 0.676 228 205 174 0 0
3.6198 7.0657 -2.2896 -0.261 -0.710 0.654 227 206 176 0 0
3.9338 6.9550 -2.2640 -0.457 -0.852 0.254 228 207 176 0 0
3.9466 6.9497 -2.2628 0.300 -0.933 0.198 228 208 178 0 0
3.9633 6.9551 -2.2628 0.300 -0.933 0.198 227 206 178 0 0
4.1701 6.9135 -2.2497 -0.375 -0.664 0.648 229 208 179 0 0
4.3360 6.8421 -2.2347 -0.268 -0.670 0.693 229 209 179 0 0
4.4982 6.7988 -2.2231 -0.396 -0.630 0.667 225 202 171 0 0
4.7589 6.6715 -2.1976 -0.367 -0.883 0.292 228 206 177 0 0
4.7718 6.6665 -2.1965 -0.367 -0.883 0.292 228 207 178 0 0
4.7847 6.6615 -2.1954 -0.367 -0.883 0.292 229 208 179 0 0
4.7975 6.6566 -2.1943 -0.367 -0.883 0.292 230 210 180 0 0
4.9141 6.6139 -2.1847 -0.432 -0.643 0.632 229 209 181 0 0
4.9758 6.5841 -2.1787 -0.379 -0.674 0.634 231 211 184 0 0
4.9894 6.5806 -2.1777 -0.334 -0.765 0.551 232 213 184 0 0
5.1640 6.5023 -2.1615 -0.184 -0.643 0.743 226 206 178 0 0
5.1779 6.4994 -2.1606 -0.184 -0.643 0.743 226 206 179 0 0
5.1896 6.4925 -2.1593 -0.178 -0.584 0.792 227 207 182 0 0
5.2515 6.4928 -2.1569 -0.318 -0.711 0.627 229 209 182 0 0
5.2614 6.4824 -2.1553 -0.158 -0.766 0.624 226 206 179 0 0
6.7286 8.3616 -2.3212 0.492 -0.347 0.798 185 174 165 0 0
6.8661 8.5272 -2.3355 0.557 -0.365 0.746 171 156 136 0 0
6.6797 8.1801 -2.3015 -0.509 -0.022 -0.860 170 154 129 0 0
6.8484 7.4251 -2.2049 -0.322 -0.750 -0.577 171 155 129 0 0
6.9714 7.3057 -2.1859 -0.299 -0.925 -0.236 153 137 111 0 0
7.0020 7.2964 -2.1836 -0.373 -0.805 -0.461 170 154 128 0 0
7.0224 7.2459 -2.1767 -0.555 -0.609 -0.567 176 161 136 0 0
7.0503 7.2329 -2.1741 -0.093 -0.961 -0.261 176 161 140 0 0
8.5390 7.7898 -2.1817 -0.885 -0.455 0.101 235 235 233 0 0
8.5498 7.7776 -2.1798 -0.809 -0.541 -0.232 236 236 234 0 0
8.5705 7.7772 -2.1789 -0.380 -0.853 0.357 235 235 233 0 0
0.4131 11.7874 -2.9978 0.344 -0.912 -0.222 235 234 232 0 0
0.4309 11.7941 -2.9980 0.344 -0.912 -0.222 235 234 232 0 0
0.6868 10.9068 -2.8810 -0.932 -0.314 -0.182 230 226 223 0 0
0.7035 10.9239 -2.8824 0.159 -0.955 0.252 229 225 223 0 0
0.7552 10.9027 -2.8778 -0.442 -0.882 -0.161 227 223 220 0 0
1.8301 8.4270 -2.5374 -0.252 -0.925 0.284 180 134 118 0 0
2.1934 8.4861 -2.5304 0.143 -0.812 -0.566 116 74 55 0 0
2.4108 8.6245 -2.5386 0.218 -0.825 -0.522 110 63 47 0 0
2.4269 8.6287 -2.5385 0.218 -0.825 -0.522 108 62 46 0 0
2.5633 8.7027 -2.5421 0.359 -0.745 -0.562 118 72 55 0 0
2.5834 8.7301 -2.5446 -0.472 -0.869 0.149 111 63 47 0 0
2.5956 8.7077 -2.5414 0.313 -0.946 -0.084 115 66 49 0 0
2.6124 8.7134 -2.5415 0.386 -0.903 -0.191 117 66 49 0 0
2.6295 8.7214 -2.5418 0.256 -0.908 -0.331 119 68 51 0 0
2.6496 8.7467 -2.5440 -0.166 -0.652 -0.740 116 65 48 0 0
2.6431 7.2990 -2.3697 -0.233 -0.796 0.558 225 204 175 0 0
2.6563 7.2954 -2.3688 -0.022 -0.831 0.556 225 204 175 0 0
2.6696 7.2926 -2.3679 -0.233 -0.796 0.558 223 202 173 0 0
2.7095 7.2831 -2.3652 -0.331 -0.688 0.646 225 204 175 0 0
2.7492 7.2729 -2.3624 -0.048 -0.727 0.685 226 204 173 0 0
2.8668 7.2348 -2.3532 -0.068 -0.732 0.678 226 206 179 0 0
2.9613 7.2178 -2.3475 -0.551 -0.617 0.562 226 203 172 0 0
3.6170 7.0531 -2.3021 -0.276 -0.625 0.731 224 203 172 0 0
3.7735 6.9970 -2.2892 -0.100 -0.709 0.698 228 209 179 0 0
3.9060 6.9563 -2.2792 -0.646 -0.462 0.607 224 203 170 0 0
3.9191 6.9520 -2.2781 -0.242 -0.632 0.736 222 201 169 0 0
3.9305 6.9426 -2.2766 -0.124 -0.802 0.584 224 202 170 0 0
3.9466 6.9465 -2.2764 0.307 -0.900 0.310 225 205 173 0 0
3.9627 6.9502 -2.2762 0.181 -0.892 0.414 228 208 176 0 0
3.9786 6.9536 -2.2760 0.181 -0.892 0.414 227 206 175 0 0
4.7710 6.6624 -2.2100 -0.367 -0.883 0.292 232 211 182 0 0
4.7974 6.6540 -2.2080 0.067 -0.929 0.365 228 209 180 0 0
4.8964 6.6066 -2.1984 -0.200 -0.647 0.736 227 206 177 0 0
4.9339 6.5896 -2.1949 -0.229 -0.724 0.650 228 208 179 0 0
4.9474 6.5862 -2.1940 -0.229 -0.724 0.650 227 207 179 0 0
4.9720 6.5741 -2.1915 -0.379 -0.674 0.634 227 208 180 0 0
4.9952 6.5596 -2.1889 -0.231 -0.731 0.642 230 210 181 0 0
5.1200 6.5042 -2.1773 -0.136 -0.742 0.657 230 209 182 0 0
5.2265 6.4729 -2.1694 -0.174 -0.704 0.688 225 207 180 0 0
5.2516 6.4623 -2.1672 -0.189 -0.665 0.723 229 209 182 0 0
6.7459 8.3552 -2.3372 0.552 -0.328 0.767 184 175 167 0 0
6.8180 8.4101 -2.3410 0.518 -0.519 0.680 171 158 139 0 0
6.7162 8.2064 -2.3204 -0.448 -0.053 -0.892 174 157 136 0 0
6.6545 7.8822 -2.2837 -0.607 -0.177 -0.775 165 148 123 0 0
6.7051 7.7505 -2.2659 -0.388 -0.403 -0.829 168 152 126 0 0
6.7278 7.6673 -2.2549 -0.656 -0.379 -0.652 168 151 125 0 0
6.9515 7.3558 -2.2087 -0.299 -0.710 -0.637 174 160 136 0 0
6.9616 7.3163 -2.2035 -0.346 -0.850 -0.399 174 158 132 0 0
7.1471 7.2365 -2.1867 -0.311 -0.859 -0.406 172 158 132 0 0
7.1644 7.2347 -2.1858 -0.225 -0.817 -0.532 167 152 125 0 0
8.9739 8.3442 -2.2490 0.304 -0.621 0.722 235 235 233 0 0
8.5208 7.7150 -2.1908 -0.230 -0.837 0.497 235 235 233 0 0
8.2888 7.3856 -2.1601 -0.780 -0.373 -0.503 237 237 235 0 0
8.5783 7.7089 -2.1878 -0.009 -0.954 -0.300 237 237 235 0 0
0.4164 11.7399 -3.0113 0.319 -0.733 -0.601 235 234 232 0 0
0.6878 10.9164 -2.9003 -0.926 -0.320 -0.200 230 226 223 0 0
0.7042 10.9484 -2.9036 -0.540 -0.727 0.424 230 226 224 0 0
1.8590 8.4105 -2.5494 -0.091 -0.955 0.284 144 95 77 0 0
2.5841 8.7266 -2.5601 0.127 -0.947 -0.296 111 64 48 0 0
2.5989 8.7208 -2.5588 0.163 -0.918 -0.361 114 66 49 0 0
2.6349 8.7470 -2.5606 -0.064 -0.793 -0.606 114 64 46 0 0
2.6501 8.7430 -2.5595 -0.335 -0.721 -0.607 115 64 47 0 0
2.6661 8.7435 -2.5590 0.627 -0.779 -0.014 113 62 45 0 0
2.5002 7.4232 -2.4042 -0.887 -0.146 0.438 106 64 47 0 0
2.5081 7.3888 -2.3997 -0.887 -0.146 0.438 122 85 66 0 0
2.5767 7.3085 -2.3872 -0.160 -0.624 0.765 224 200 167 0 0
2.6281 7.2876 -2.3827 -0.247 -0.560 0.791 228 207 178 0 0
2.6425 7.2903 -2.3825 -0.233 -0.796 0.558 225 205 175 0 0
2.6833 7.2861 -2.3804 -0.281 -0.772 0.571 223 202 173 0 0
2.6915 7.2576 -2.3766 -0.619 -0.507 0.599 225 203 173 0 0
2.7082 7.2719 -2.3777 -0.331 -0.688 0.646 225 204 173 0 0
3.0235 7.1783 -2.3542 -0.161 -0.674 0.721 222 202 173 0 0
3.9334 6.9478 -2.2910 -0.228 -0.849 0.478 227 205 175 0 0
3.9612 6.9430 -2.2894 0.205 -0.812 0.547 225 202 171 0 0
4.1556 6.8700 -2.2730 -0.391 -0.774 0.498 228 205 174 0 0
4.2757 6.8352 -2.2641 -0.550 -0.545 0.632 229 208 180 0 0
4.2844 6.8197 -2.2619 -0.295 -0.620 0.727 228 207 180 0 0
4.3531 6.8054 -2.2575 -0.314 -0.610 0.727 228 209 179 0 0
4.7702 6.6583 -2.2235 -0.367 -0.883 0.292 229 209 181 0 0
4.7831 6.6533 -2.2224 -0.367 -0.883 0.292 228 208 181 0 0
4.7956 6.6478 -2.2212 0.132 -0.884 0.449 227 210 182 0 0
4.9413 6.5715 -2.2063 -0.131 -0.713 0.689 229 209 182 0 0
5.1788 6.4680 -2.1845 -0.163 -0.726 0.668 229 209 180 0 0
5.2437 6.4740 -2.1828 -0.432 -0.653 0.622 228 209 182 0 0
5.2464 6.4506 -2.1798 -0.104 -0.710 0.697 229 209 182 0 0
5.4996 6.5966 -2.1879 0.084 -0.906 -0.415 206 202 199 0 0
6.7549 8.3347 -2.3517 0.582 -0.450 0.677 183 176 170 0 0
6.7968 8.3720 -2.3547 0.495 -0.513 0.702 173 162 151 0 0
6.7999 8.3442 -2.3512 -0.039 -0.996 0.077 169 155 138 0 0
6.7628 8.2494 -2.3410 -0.504 0.043 -0.863 170 154 132 0 0
6.7101 7.7863 -2.2865 -0.400 -0.374 -0.837 170 153 128 0 0
6.8949 7.4348 -2.2365 -0.275 -0.600 -0.751 165 150 121 0 0
6.9091 7.4283 -2.2352 -0.444 -0.560 -0.699 166 151 123 0 0
6.9233 7.4218 -2.2338 -0.264 -0.692 -0.672 165 150 123 0 0
6.9607 7.3672 -2.2257 -0.299 -0.710 -0.637 176 162 136 0 0
7.0436 7.2987 -2.2142 -0.309 -0.787 -0.534 169 155 128 0 0
7.1049 7.3065 -2.2128 0.158 -0.905 -0.394 175 160 136 0 0
7.3281 7.2261 -2.1944 0.073 -0.900 -0.431 181 166 136 0 0
7.4191 7.1963 -2.1872 0.014 -0.806 -0.592 186 170 145 0 0
7.5895 7.2207 -2.1836 0.187 -0.825 -0.533 193 178 158 0 0
0.7058 10.9335 -2.9200 -0.705 -0.528 0.474 230 226 223 0 0
1.6337 8.5056 -2.5848 -0.568 -0.693 0.445 188 142 121 0 0
1.6479 8.5000 -2.5835 -0.621 -0.609 0.494 181 133 113 0 0
1.7178 8.4586 -2.5758 -0.515 -0.808 0.286 172 122 102 0 0
1.8597 8.4061 -2.5639 -0.091 -0.955 0.284 138 90 73 0 0
2.2963 8.5596 -2.5663 0.162 -0.813 -0.559 111 66 51 0 0
2.3133 8.5725 -2.5672 0.344 -0.890 -0.299 112 67 52 0 0
2.3986 8.6315 -2.5713 0.201 -0.966 -0.163 113 66 48 0 0
2.4307 8.6385 -2.5709 -0.076 -0.987 -0.144 115 69 53 0 0
2.5538 8.7278 -2.5773 0.489 -0.839 -0.238 117 73 55 0 0
2.5691 8.7247 -2.5763 0.226 -0.814 -0.535 109 64 47 0 0
2.5856 8.7289 -2.5762 0.328 -0.803 -0.497 108 62 46 0 0
2.6377 8.7569 -2.5777 -0.229 -0.802 -0.552 114 63 48 0 0
2.6535 8.7561 -2.5770 -0.335 -0.721 -0.607 117 66 51 0 0
2.6146 7.2841 -2.3966 -0.154 -0.733 0.662 225 202 171 0 0
2.6283 7.2834 -2.3960 -0.403 -0.600 0.691 225 202 172 0 0
2.6787 7.2575 -2.3909 -0.413 -0.589 0.694 225 203 174 0 0
2.7320 7.2470 -2.3875 -0.271 -0.665 0.696 227 204 172 0 0
2.9556 7.1839 -2.3713 -0.411 -0.519 0.749 223 199 168 0 0
3.0467 7.1536 -2.3641 -0.044 -0.699 0.714 228 207 181 0 0
3.0588 7.1452 -2.3626 -0.230 -0.779 0.584 223 203 176 0 0
3.2985 7.0871 -2.3463 -0.164 -0.555 0.816 232 209 178 0 0
3.6845 6.9849 -2.3190 -0.436 -0.705 0.560 225 204 175 0 0
3.6967 6.9781 -2.3177 -0.481 -0.730 0.486 226 206 176 0 0
3.7090 6.9712 -2.3164 -0.242 -0.826 0.509 224 204 175 0 0
3.7210 6.9637 -2.3150 -0.494 -0.847 0.194 225 205 175 0 0
3.7479 6.9574 -2.3132 -0.323 -0.890 0.321 227 207 176 0 0
3.8770 6.9509 -2.3075 -0.599 -0.669 0.440 228 207 178 0 0
3.9010 6.9360 -2.3047 -0.295 -0.717 0.631 226 207 177 0 0
3.9265 6.9251 -2.3024 -0.316 -0.659 0.683 229 208 179 0 0
4.1640 6.8505 -2.2842 -0.393 -0.808 0.439 229 207 178 0 0
4.2787 6.8030 -2.2739 -0.206 -0.703 0.681 228 208 180 0 0
4.6094 6.6674 -2.2446 -0.319 -0.639 0.700 226 203 173 0 0
4.9049 6.5571 -2.2198 -0.059 -0.819 0.571 231 212 183 0 0
4.9661 6.5577 -2.2175 -0.069 -0.762 0.644 230 211 181 0 0
5.1071 6.4753 -2.2020 -0.231 -0.664 0.711 227 208 180 0 0
5.2555 6.4368 -2.1916 -0.129 -0.744 0.656 224 204 176 0 0
5.2983 6.4024 -2.1857 -0.672 -0.434 0.600 226 207 177 0 0
6.5805 8.3010 -2.3716 0.688 -0.725 -0.033 197 193 192 0 0
6.8012 8.3438 -2.3685 0.038 -0.999 0.031 173 163 152 0 0
6.8090 8.3239 -2.3658 0.133 -0.975 0.180 167 155 138 0 0
6.8068 8.2875 -2.3613 -0.381 -0.022 -0.924 174 158 137 0 0
6.8291 8.2919 -2.3610 -0.283 -0.055 -0.957 172 154 133 0 0
6.6883 7.9327 -2.3220 -0.457 -0.223 -0.861 167 151 127 0 0
6.9335 7.4348 -2.2512 -0.264 -0.692 -0.672 167 152 124 0 0
6.9729 7.3831 -2.2433 -0.264 -0.660 -0.703 173 159 133 0 0
7.0269 7.3262 -2.2342 -0.459 -0.551 -0.697 179 164 140 0 0
7.0338 7.3093 -2.2319 -0.373 -0.805 -0.461 175 160 135 0 0
7.0503 7.3064 -2.2309 -0.298 -0.832 -0.467 154 138 112 0 0
7.0684 7.3056 -2.2301 0.010 -0.979 -0.201 163 147 121 0 0
7.2659 7.2419 -2.2147 -0.195 -0.810 -0.553 159 143 117 0 0
7.6017 7.2347 -2.2011 0.187 -0.825 -0.533 196 180 158 0 0
8.7826 8.1598 -2.2705 0.136 -0.751 0.646 233 234 231 0 0
9.0624 8.1538 -2.2592 0.399 -0.884 0.243 237 237 235 0 0
9.1018 8.1743 -2.2602 0.589 -0.807 0.045 238 238 236 0 0
9.1000 8.1201 -2.2536 -0.206 -0.201 0.958 239 239 237 0 0
0.7584 10.9382 -2.9369 -0.857 -0.390 0.336 228 223 222 0 0
0.8455 10.8239 -2.9193 -0.134 -0.924 0.359 225 221 218 0 0
0.8627 10.8218 -2.9184 -0.134 -0.924 0.359 225 220 216 0 0
1.8605 8.4028 -2.5785 -0.206 -0.908 0.365 127 80 64 0 0
2.1999 8.5118 -2.5794 0.314 -0.886 -0.342 100 60 42 0 0
2.3152 8.5781 -2.5834 0.149 -0.931 -0.332 105 60 45 0 0
2.3309 8.5805 -2.5831 0.149 -0.931 -0.332 105 60 45 0 0
2.4165 8.6402 -2.5874 -0.064 -0.980 -0.191 108 61 45 0 0
2.5564 8.7368 -2.5942 0.500 -0.866 -0.016 115 71 54 0 0
2.5736 8.7457 -2.5947 0.307 -0.882 -0.357 112 68 51 0 0
2.5911 8.7559 -2.5953 0.348 -0.830 -0.436 111 65 49 0 0
2.6948 8.8045 -2.5975 0.071 -0.864 -0.499 96 51 34 0 0
3.0447 7.1411 -2.3764 -0.044 -0.699 0.714 226 205 178 0 0
3.2828 7.0781 -2.3596 -0.225 -0.589 0.776 229 206 175 0 0
3.2961 7.0745 -2.3586 -0.198 -0.622 0.758 230 207 176 0 0
3.3046 7.0537 -2.3557 -0.572 -0.512 0.641 228 205 174 0 0
3.4315 7.0490 -2.3504 -0.231 -0.647 0.727 229 205 177 0 0
3.5763 7.0050 -2.3394 -0.071 -0.716 0.695 223 200 171 0 0
3.6602 6.9962 -2.3352 -0.376 -0.688 0.621 228 207 176 0 0
3.6737 6.9930 -2.3343 -0.259 -0.704 0.661 225 206 175 0 0
3.6826 6.9759 -2.3318 -0.436 -0.705 0.560 225 206 176 0 0
3.6953 6.9704 -2.3306 -0.481 -0.730 0.486 225 206 176 0 0
3.7065 6.9603 -2.3290 -0.506 -0.823 0.257 227 208 178 0 0
3.7211 6.9608 -2.3285 -0.367 -0.874 0.318 228 209 179 0 0
3.7334 6.9538 -2.3271 -0.370 -0.872 0.321 227 207 177 0 0
3.7462 6.9488 -2.3260 -0.370 -0.872 0.321 228 207 176 0 0
3.8755 6.9436 -2.3205 -0.599 -0.669 0.440 227 206 177 0 0
4.2072 6.8066 -2.2910 -0.261 -0.596 0.759 225 204 175 0 0
4.2194 6.8001 -2.2897 -0.167 -0.686 0.708 229 206 176 0 0
4.2753 6.7917 -2.2866 -0.206 -0.703 0.681 230 211 181 0 0
4.2886 6.7879 -2.2856 -0.383 -0.664 0.642 229 209 182 0 0
4.3004 6.7803 -2.2842 -0.445 -0.568 0.692 231 211 184 0 0
4.3267 6.7719 -2.2821 -0.271 -0.686 0.675 229 210 181 0 0
4.3365 6.7596 -2.2802 -0.428 -0.551 0.717 229 210 181 0 0
4.5280 6.7183 -2.2679 -0.663 -0.550 0.508 225 204 175 0 0
4.6070 6.6595 -2.2576 -0.315 -0.821 0.475 227 204 173 0 0
4.9472 6.5481 -2.2309 -0.069 -0.762 0.644 227 208 178 0 0
5.2864 6.3789 -2.1970 -0.052 -0.666 0.745 225 206 176 0 0
5.3009 6.3774 -2.1963 -0.576 -0.541 0.613 224 203 174 0 0
6.8824 8.8213 -2.4426 0.072 -0.589 0.805 197 193 192 0 0
6.8022 8.6476 -2.4239 0.528 -0.817 0.232 193 191 190 0 0
6.7759 8.2989 -2.3813 0.557 -0.477 0.680 179 173 165 0 0
6.8459 8.3500 -2.3850 0.489 -0.510 0.707 169 157 141 0 0
6.8909 8.3918 -2.3886 -0.356 -0.025 -0.934 171 156 138 0 0
6.7462 8.0882 -2.3560 -0.546 0.012 -0.838 171 155 130 0 0
6.7280 8.0267 -2.3490 -0.461 -0.039 -0.886 171 156 131 0 0
7.0504 7.3313 -2.2500 -0.482 -0.466 -0.742 170 155 132 0 0
7.0721 7.3090 -2.2464 0.010 -0.979 -0.201 158 142 117 0 0
7.2620 7.2603 -2.2332 -0.223 -0.691 -0.688 180 165 139 0 0
9.1930 8.2273 -2.2817 -0.635 -0.376 0.675 238 238 236 0 0
9.0114 7.9632 -2.2555 -0.876 -0.374 -0.306 237 237 235 0 0
0.7108 10.8129 -2.9411 -0.132 -0.989 0.068 230 226 223 0 0
0.7386 11.1640 -2.9845 -0.929 -0.249 0.272 229 225 223 0 0
0.7601 10.9123 -2.9519 -0.543 -0.705 0.456 228 224 223 0 0
0.8466 10.8506 -2.9408 -0.498 -0.587 0.639 226 222 219 0 0
0.8640 10.8149 -2.9357 -0.134 -0.924 0.359 224 221 216 0 0
2.0737 8.4525 -2.5920 0.273 -0.908 -0.317 121 71 56 0 0
2.1532 8.4907 -2.5939 0.287 -0.926 -0.244 111 69 53 0 0
2.2859 8.5795 -2.6002 0.127 -0.891 -0.437 107 65 50 0 0
2.3864 8.6383 -2.6040 0.217 -0.955 -0.201 118 71 55 0 0
2.4184 8.6451 -2.6036 -0.076 -0.987 -0.141 113 66 50 0 0
2.4333 8.6409 -2.6026 0.085 -0.942 -0.326 117 71 55 0 0
2.4491 8.6423 -2.6021 0.165 -0.948 -0.273 112 65 49 0 0
2.5584 8.7418 -2.6107 0.572 -0.820 -0.031 108 64 47 0 0
2.5760 8.7534 -2.6115 0.307 -0.882 -0.357 111 68 51 0 0
2.5937 8.7650 -2.6123 0.448 -0.837 -0.315 115 69 53 0 0
2.6120 8.7798 -2.6135 0.553 -0.726 -0.409 102 56 40 0 0
2.6818 8.8157 -2.6155 0.198 -0.822 -0.534 107 61 45 0 0
2.4580 7.3205 -2.4346 0.285 -0.706 0.648 92 50 32 0 0
2.4743 7.3356 -2.4359 0.058 -0.706 0.706 108 66 49 0 0
2.4883 7.3371 -2.4355 0.058 -0.706 0.706 107 66 49 0 0
2.7813 7.2068 -2.4082 -0.452 -0.792 0.410 224 203 174 0 0
3.2247 7.0689 -2.3744 -0.264 -0.633 0.727 226 203 172 0 0
3.5356 7.0094 -2.3553 -0.188 -0.666 0.722 224 204 175 0 0
3.6428 6.9836 -2.3481 -0.455 -0.452 0.767 227 207 177 0 0
3.6580 6.9860 -2.3478 -0.259 -0.704 0.661 228 207 176 0 0
3.6819 6.9704 -2.3450 -0.248 -0.586 0.771 227 208 178 0 0
3.6948 6.9656 -2.3439 -0.230 -0.648 0.726 226 207 177 0 0
3.7077 6.9607 -2.3428 -0.402 -0.851 0.338 229 210 180 0 0
3.7308 6.9429 -2.3397 -0.379 -0.914 0.147 226 206 176 0 0
3.7454 6.9432 -2.3392 -0.434 -0.861 0.264 229 206 175 0 0
3.8740 6.9362 -2.3336 -0.348 -0.785 0.513 225 204 175 0 0
3.9805 6.8654 -2.3207 -0.154 -0.632 0.760 227 206 177 0 0
4.0656 6.8574 -2.3165 -0.485 -0.600 0.636 228 205 177 0 0
4.2029 6.7928 -2.3032 -0.261 -0.596 0.759 224 201 173 0 0
4.2157 6.7881 -2.3022 -0.167 -0.686 0.708 229 206 176 0 0
4.2338 6.7963 -2.3025 0.015 -0.746 0.665 229 205 177 0 0
4.2868 6.7808 -2.2986 -0.346 -0.681 0.646 227 207 180 0 0
4.7558 6.5884 -2.2569 -0.369 -0.685 0.629 227 207 179 0 0
5.2823 6.3694 -2.2097 -0.137 -0.665 0.734 225 206 176 0 0
5.2968 6.3678 -2.2090 -0.240 -0.719 0.652 224 203 174 0 0
6.3996 8.0811 -2.3850 0.496 -0.537 0.682 201 197 196 0 0
6.8638 8.7162 -2.4482 0.034 -0.867 0.497 193 189 188 0 0
6.8366 8.3320 -2.4006 -0.450 -0.654 -0.608 175 166 158 0 0
6.8473 8.3171 -2.3983 -0.444 -0.826 -0.348 170 159 146 0 0
6.7682 8.0902 -2.3725 -0.455 -0.047 -0.889 169 153 129 0 0
7.0759 7.3123 -2.2627 0.010 -0.979 -0.201 179 163 140 0 0
7.2888 7.2693 -2.2494 0.008 -0.759 -0.651 162 148 122 0 0
8.3420 7.7943 -2.2769 0.395 -0.560 -0.729 229 229 227 0 0
9.0093 8.1916 -2.3024 -0.120 -0.799 0.590 236 236 234 0 0
8.9458 8.0636 -2.2886 -0.051 -0.663 0.747 235 235 233 0 0
9.0907 8.1833 -2.2984 0.247 -0.954 0.167 237 237 235 0 0
0.7116 10.8332 -2.9618 -0.280 -0.633 0.721 230 226 223 0 0
0.8308 10.8425 -2.9586 -0.307 -0.663 0.683 227 223 220 0 0
0.8481 10.8204 -2.9551 -0.271 -0.600 0.753 225 221 218 0 0
0.9000 10.7121 -2.9394 -0.573 -0.623 -0.533 224 220 218 0 0
1.0206 10.9770 -2.9689 -0.830 -0.254 -0.497 219 215 212 0 0
1.8756 8.3850 -2.6059 -0.163 -0.859 0.486 142 89 72 0 0
2.0272 8.4251 -2.6055 0.249 -0.884 -0.396 118 71 55 0 0
2.0416 8.4214 -2.6045 -0.083 -0.855 -0.511 117 70 54 0 0
2.2034 8.5212 -2.6113 0.458 -0.884 -0.095 120 77 61 0 0
2.2882 8.5883 -2.6168 0.020 -0.877 -0.480 107 64 48 0 0
2.3036 8.5888 -2.6163 0.068 -0.910 -0.409 96 54 38 0 0
2.3192 8.5905 -2.6160 0.077 -0.896 -0.437 108 65 49 0 0
2.3885 8.6449 -2.6204 -0.006 -0.931 -0.365 112 65 49 0 0
2.4206 8.6520 -2.6201 -0.225 -0.966 -0.128 114 67 51 0 0
2.4353 8.6466 -2.6189 -0.379 -0.925 -0.027 117 69 54 0 0
2.4511 8.6481 -2.6185 0.106 -0.986 -0.132 116 67 52 0 0
2.5597 8.7431 -2.6267 0.558 -0.814 -0.163 108 65 48 0 0
2.5783 8.7602 -2.6282 0.106 -0.926 -0.363 111 67 51 0 0
2.5958 8.7708 -2.6290 0.331 -0.889 -0.316 103 57 41 0 0
2.6135 8.7815 -2.6297 0.561 -0.805 -0.193 108 62 46 0 0
2.6495 8.8066 -2.6316 -0.489 -0.736 -0.469 112 65 49 0 0
2.6998 8.8203 -2.6315 0.195 -0.901 -0.389 113 66 50 0 0
2.4573 7.3108 -2.4471 0.258 -0.761 0.596 114 68 52 0 0
2.4736 7.3258 -2.4484 0.013 -0.762 0.647 109 65 48 0 0
2.7787 7.1896 -2.4199 -0.589 -0.632 0.504 226 205 176 0 0
2.9569 7.1160 -2.4039 -0.114 -0.704 0.701 227 206 176 0 0
3.2227 7.0574 -2.3867 -0.250 -0.597 0.762 226 205 177 0 0
3.3147 7.0316 -2.3801 -0.077 -0.912 0.404 225 203 173 0 0
3.3287 7.0307 -2.3794 -0.077 -0.912 0.404 225 203 174 0 0
3.6554 6.9745 -2.3603 -0.142 -0.792 0.593 227 206 175 0 0
3.6651 6.9598 -2.3581 -0.088 -0.677 0.731 226 205 176 0 0
3.6799 6.9609 -2.3577 -0.064 -0.756 0.651 224 203 174 0 0
3.6921 6.9537 -2.3563 -0.540 -0.765 0.351 226 205 176 0 0
3.7312 6.9407 -2.3532 -0.542 -0.770 0.337 227 205 176 0 0
4.1583 6.7891 -2.3182 -0.392 -0.583 0.712 227 206 175 0 0
4.1747 6.7934 -2.3182 -0.205 -0.814 0.543 230 209 180 0 0
4.2118 6.7752 -2.3145 -0.223 -0.757 0.614 226 203 173 0 0
4.2396 6.7709 -2.3129 -0.253 -0.804 0.538 226 204 173 0 0
6.8985 8.7732 -2.4722 0.044 -0.897 0.439 193 189 188 0 0
6.9206 8.7762 -2.4718 0.165 -0.844 0.510 189 186 183 0 0
6.8622 8.3393 -2.4180 -0.110 -0.907 -0.406 170 164 156 0 0
6.8170 8.1678 -2.3977 -0.360 -0.100 -0.927 167 152 133 0 0
6.8091 8.1230 -2.3923 -0.322 -0.118 -0.939 164 148 125 0 0
6.8211 7.8634 -2.3586 -0.603 -0.261 -0.754 167 149 125 0 0
7.0949 7.3374 -2.2812 -0.418 -0.542 -0.729 176 162 140 0 0
7.2144 7.3208 -2.2748 -0.027 -0.953 -0.302 179 164 141 0 0
7.2843 7.2872 -2.2679 -0.427 -0.613 -0.665 165 149 123 0 0
7.8706 7.4513 -2.2675 0.357 -0.555 -0.751 195 181 160 0 0
8.0739 7.5836 -2.2770 0.200 -0.705 -0.681 226 225 220 0 0
8.9855 8.1349 -2.3143 -0.913 -0.406 0.050 236 236 234 0 0
9.0988 8.2436 -2.3241 -0.547 -0.350 0.760 235 235 233 0 0
9.1109 8.2316 -2.3221 0.328 -0.750 0.574 235 235 233 0 0
9.2205 8.0744 -2.2980 0.379 -0.758 0.531 239 239 237 0 0
0.7132 10.8145 -2.9774 -0.336 -0.657 0.675 230 226 223 0 0
0.7779 11.0451 -3.0049 -0.944 -0.330 -0.000 227 223 220 0 0
0.7966 10.9361 -2.9902 -0.908 -0.356 -0.222 228 224 221 0 0
0.9009 10.7779 -2.9659 -0.930 -0.354 0.094 224 220 217 0 0
0.9182 10.7270 -2.9587 -0.950 -0.310 -0.031 224 219 216 0 0
1.0218 10.9604 -2.9852 -0.739 -0.352 -0.574 220 216 213 0 0
1.8768 8.3858 -2.6210 -0.280 -0.939 0.202 172 120 102 0 0
1.8911 8.3817 -2.6199 -0.280 -0.939 0.202 175 123 105 0 0
1.9987 8.4258 -2.6218 0.093 -0.935 -0.343 122 76 60 0 0
2.0772 8.4634 -2.6238 0.396 -0.905 -0.157 114 67 51 0 0
2.3216 8.5995 -2.6326 0.251 -0.863 -0.439 116 71 55 0 0
2.3905 8.6512 -2.6368 -0.136 -0.985 -0.104 115 68 52 0 0
2.5628 8.7547 -2.6441 0.454 -0.774 -0.442 104 59 44 0 0
2.5809 8.7691 -2.6453 0.064 -0.891 -0.449 105 59 44 0 0
2.5981 8.7776 -2.6457 0.331 -0.889 -0.316 111 65 49 0 0
2.6155 8.7869 -2.6463 0.561 -0.805 -0.193 111 64 48 0 0
2.6333 8.7981 -2.6471 -0.155 -0.764 -0.627 105 57 42 0 0
2.6522 8.8158 -2.6487 -0.489 -0.736 -0.469 106 58 42 0 0
2.6657 8.8009 -2.6463 0.317 -0.942 -0.110 113 65 49 0 0
2.4630 7.3378 -2.4642 -0.726 -0.553 0.410 108 61 45 0 0
2.4729 7.3154 -2.4609 -0.326 -0.779 0.535 95 48 33 0 0
2.4869 7.3169 -2.4606 -0.650 -0.502 0.570 114 76 57 0 0
2.9402 7.0997 -2.4161 0.030 -0.819 0.573 227 204 174 0 0
3.0860 7.0681 -2.4068 -0.284 -0.751 0.596 226 205 176 0 0
3.2872 7.0306 -2.3947 -0.341 -0.902 0.265 226 205 175 0 0
3.3000 7.0257 -2.3936 -0.264 -0.957 0.121 223 204 174 0 0
3.3144 7.0267 -2.3932 -0.264 -0.946 0.189 226 205 176 0 0
3.3287 7.0269 -2.3927 0.054 -0.892 0.449 230 206 178 0 0
3.3972 7.0179 -2.3891 -0.236 -0.577 0.781 229 207 176 0 0
3.7606 6.8957 -2.3602 -0.019 -0.841 0.541 229 208 179 0 0
3.7725 6.8881 -2.3588 0.177 -0.795 0.580 227 204 176 0 0
4.6135 6.6003 -2.2912 0.108 -0.941 0.321 225 203 172 0 0
4.6451 6.6041 -2.2906 0.077 -0.868 0.491 230 210 180 0 0
4.7549 6.5501 -2.2796 -0.415 -0.594 0.690 223 202 175 0 0
4.7669 6.5437 -2.2783 -0.286 -0.639 0.714 225 204 175 0 0
4.9771 6.4503 -2.2587 -0.230 -0.626 0.745 227 207 180 0 0
6.8668 8.3445 -2.4360 -0.022 -0.918 -0.397 169 167 163 0 0
6.8545 8.1949 -2.4170 -0.299 -0.097 -0.949 164 150 132 0 0
6.8531 8.1290 -2.4086 -0.432 -0.049 -0.900 167 151 130 0 0
6.8444 8.0833 -2.4029 -0.536 -0.025 -0.844 166 150 127 0 0
7.0232 7.4760 -2.3179 -0.311 -0.516 -0.798 170 156 131 0 0
7.2195 7.3259 -2.2913 0.112 -0.986 -0.120 167 151 128 0 0
7.2393 7.3273 -2.2908 -0.177 -0.971 -0.159 174 158 135 0 0
7.7479 7.4433 -2.2875 0.567 -0.714 -0.411 191 179 157 0 0
7.8236 7.4396 -2.2843 0.298 -0.496 -0.816 191 175 156 0 0
7.8658 7.4687 -2.2866 0.298 -0.496 -0.816 192 178 162 0 0
8.0698 7.6277 -2.2998 0.357 -0.543 -0.760 224 222 215 0 0
8.2274 7.6472 -2.2967 0.389 -0.842 -0.374 228 228 226 0 0
8.9164 8.3429 -2.3620 0.625 -0.670 0.400 232 232 231 0 0
0.7801 10.9803 -3.0148 -0.941 -0.128 -0.312 228 224 221 0 0
1.9213 8.3796 -2.6336 -0.024 -0.978 -0.206 123 76 60 0 0
2.0154 8.4332 -2.6373 0.093 -0.935 -0.343 121 74 60 0 0
2.0304 8.4345 -2.6370 0.093 -0.935 -0.343 127 80 65 0 0
2.4605 8.6958 -2.6559 0.156 -0.849 -0.505 104 53 38 0 0
2.5838 8.7800 -2.6626 0.013 -0.966 -0.260 112 67 52 0 0
2.6005 8.7851 -2.6626 0.440 -0.878 -0.189 107 61 45 0 0
2.6178 8.7933 -2.6631 0.364 -0.915 -0.173 113 65 50 0 0
2.4738 7.3150 -2.4746 -0.601 -0.599 0.529 101 55 39 0 0
2.4857 7.3042 -2.4727 -0.721 -0.438 0.536 119 82 63 0 0
3.2976 7.0130 -2.4058 -0.442 -0.766 0.467 223 203 175 0 0
3.3112 7.0112 -2.4050 -0.095 -0.758 0.645 228 206 177 0 0
3.3253 7.0112 -2.4045 -0.185 -0.834 0.520 228 205 177 0 0
3.4673 6.9623 -2.3931 0.050 -0.786 0.616 228 204 176 0 0
3.6679 6.9171 -2.3800 -0.041 -0.658 0.752 229 205 177 0 0
3.7587 6.8867 -2.3728 0.033 -0.922 0.386 230 209 180 0 0
3.7711 6.8806 -2.3716 0.275 -0.885 0.376 230 207 178 0 0
3.7844 6.8774 -2.3707 -0.225 -0.808 0.544 230 205 178 0 0
3.9161 6.8395 -2.3611 -0.227 -0.903 0.365 226 203 172 0 0
3.9310 6.8404 -2.3607 -0.143 -0.817 0.559 227 204 174 0 0
3.9426 6.8324 -2.3592 -0.180 -0.682 0.709 229 207 178 0 0
4.3682 6.6826 -2.3245 -0.040 -0.739 0.673 224 205 175 0 0
4.7614 6.5299 -2.2905 -0.303 -0.657 0.691 227 207 177 0 0
5.1335 6.3987 -2.2601 -0.141 -0.709 0.691 225 205 178 0 0
5.1469 6.3953 -2.2592 -0.376 -0.647 0.664 225 206 177 0 0
5.1590 6.3894 -2.2580 -0.446 -0.562 0.697 223 203 175 0 0
5.1883 6.3589 -2.2529 -0.464 -0.636 0.616 228 208 181 0 0
6.8650 8.7103 -2.5014 0.695 -0.687 0.214 192 189 187 0 0
6.9461 8.7795 -2.5076 0.442 -0.710 0.548 187 187 184 0 0
6.9633 8.7739 -2.5062 0.042 -0.739 0.672 187 184 183 0 0
6.9272 8.6437 -2.4905 -0.567 -0.409 0.715 183 180 179 0 0
6.8781 8.3607 -2.4551 0.007 -0.780 -0.625 168 166 164 0 0
6.8577 7.8865 -2.3938 -0.342 -0.239 -0.909 173 155 131 0 0
7.0353 7.4917 -2.3357 -0.116 -0.670 -0.733 173 158 134 0 0
7.2226 7.3282 -2.3077 0.112 -0.986 -0.120 157 141 117 0 0
7.2442 7.3321 -2.3074 -0.182 -0.980 -0.083 148 132 107 0 0
8.0313 7.6281 -2.3182 0.357 -0.543 -0.760 220 217 208 0 0
8.8938 8.3130 -2.3773 0.643 -0.665 0.379 232 232 232 0 0
0.6199 11.9215 -3.1635 -0.857 -0.103 -0.504 232 228 226 0 0
1.0590 10.9187 -3.0153 -0.914 -0.232 -0.333 222 217 216 0 0
1.9227 8.3828 -2.6491 -0.024 -0.978 -0.206 119 75 61 0 0
2.0475 8.4451 -2.6530 0.066 -0.830 -0.554 125 78 62 0 0
2.3644 8.6695 -2.6716 0.170 -0.980 -0.104 105 59 44 0 0
2.4285 8.6830 -2.6712 -0.057 -0.716 -0.696 116 67 52 0 0
2.4632 8.7065 -2.6731 0.156 -0.849 -0.505 115 67 52 0 0
2.5856 8.7839 -2.6790 0.105 -0.838 -0.536 97 54 38 0 0
2.6032 8.7947 -2.6798 0.449 -0.840 -0.304 99 55 39 0 0
2.6378 8.8111 -2.6808 0.355 -0.890 -0.287 107 59 44 0 0
2.5113 7.2116 -2.4733 -0.535 -0.527 0.660 221 201 168 0 0
2.8366 7.1228 -2.4502 -0.121 -0.717 0.686 224 203 174 0 0
2.9511 7.0778 -2.4402 0.016 -0.718 0.696 223 202 171 0 0
3.3079 6.9955 -2.4168 -0.087 -0.664 0.742 226 204 175 0 0
3.4801 6.9537 -2.4052 0.060 -0.698 0.714 225 204 173 0 0
3.7081 6.9046 -2.3907 -0.575 -0.783 0.237 227 204 172 0 0
3.7571 6.8789 -2.3856 0.222 -0.951 0.216 227 206 177 0 0
3.7715 6.8787 -2.3851 0.278 -0.954 -0.112 229 208 179 0 0
3.8747 6.8425 -2.3767 -0.314 -0.598 0.737 229 208 177 0 0
4.1235 6.7664 -2.3579 -0.409 -0.582 0.703 225 204 175 0 0
4.5555 6.5988 -2.3206 -0.347 -0.604 0.718 227 207 180 0 0
4.7845 6.5130 -2.3012 -0.235 -0.677 0.698 221 201 171 0 0
5.0085 6.4480 -2.2847 -0.020 -0.689 0.725 229 209 182 0 0
5.4858 6.5572 -2.2825 0.746 -0.548 0.379 205 201 194 0 0
5.4728 6.5066 -2.2762 0.517 -0.777 0.359 202 200 197 0 0
6.9057 8.9195 -2.5457 0.268 -0.917 -0.294 198 197 193 0 0
6.8214 8.6675 -2.5153 0.692 -0.669 0.271 194 193 191 0 0
6.9227 8.7718 -2.5255 0.702 -0.616 0.358 189 188 186 0 0
7.0073 8.8112 -2.5278 0.439 -0.631 0.639 185 182 181 0 0
6.9064 8.5720 -2.4996 -0.506 -0.396 0.766 181 180 178 0 0
6.9261 7.7233 -2.3865 -0.639 -0.276 -0.718 171 156 133 0 0
6.9937 7.5394 -2.3598 -0.339 -0.557 -0.758 171 155 132 0 0
7.0054 7.5288 -2.3580 -0.315 -0.638 -0.703 172 158 134 0 0
7.0187 7.5205 -2.3564 -0.315 -0.638 -0.703 173 159 133 0 0
7.0333 7.5144 -2.3551 -0.248 -0.716 -0.652 174 158 132 0 0
7.0487 7.5092 -2.3539 -0.116 -0.670 -0.733 174 158 132 0 0
7.0644 7.5046 -2.3527 -0.230 -0.641 -0.732 176 160 135 0 0
7.0766 7.4948 -2.3510 -0.137 -0.684 -0.717 176 160 136 0 0
7.2257 7.3306 -2.3240 0.112 -0.986 -0.120 179 164 141 0 0
7.2479 7.3354 -2.3239 -0.292 -0.882 -0.370 178 162 138 0 0
7.4267 7.3205 -2.3156 0.037 -0.729 -0.684 186 170 146 0 0
8.0167 7.6074 -2.3330 0.111 -0.790 -0.603 222 220 215 0 0
8.6545 8.1231 -2.3790 -0.624 -0.747 -0.227 229 229 228 0 0
8.8690 8.2805 -2.3923 0.624 -0.651 0.432 231 231 231 0 0
1.0605 10.9440 -3.0371 -0.914 -0.232 -0.333 222 217 216 0 0
1.0771 10.8588 -3.0251 -0.918 -0.229 -0.322 223 215 215 0 0
2.0507 8.4641 -2.6706 0.014 -0.990 -0.141 114 67 52 0 0
2.3822 8.6774 -2.6878 0.231 -0.865 -0.446 120 71 56 0 0
2.4322 8.7004 -2.6891 0.010 -0.718 -0.696 119 71 57 0 0
2.4656 8.7143 -2.6898 0.321 -0.823 -0.468 120 71 58 0 0
2.5888 8.7967 -2.6966 0.145 -0.813 -0.564 107 63 48 0 0
2.5467 7.1760 -2.4810 -0.172 -0.590 0.789 225 202 170 0 0
2.6864 7.1225 -2.4690 0.114 -0.735 0.668 225 203 174 0 0
2.7144 7.1254 -2.4684 -0.297 -0.686 0.664 230 207 178 0 0
3.0279 7.0463 -2.4470 -0.351 -0.535 0.768 227 207 180 0 0
4.1299 6.7425 -2.3682 -0.431 -0.602 0.672 226 204 176 0 0
4.2044 6.7085 -2.3611 -0.334 -0.618 0.712 224 201 170 0 0
4.4799 6.5930 -2.3361 -0.021 -0.790 0.612 228 207 178 0 0
