ply
format ascii 1.0
element vertex 816
property float x
property float y
property float z
property float nx
property float ny
property float nz
property uchar diffuse_red
property uchar diffuse_green
property uchar diffuse_blue
property uchar class
property uchar detection
end_header
6.2857 7.7931 -0.8041 -0.871 -0.491 -0.036 218 197 166 0 0
6.4064 7.5763 -0.8686 -0.763 -0.614 -0.204 215 194 165 0 0
6.4035 7.5097 -0.8838 -0.541 -0.783 0.308 219 198 167 0 0
6.4577 7.3571 -0.9256 -0.534 -0.819 0.211 212 195 165 0 0
6.4838 7.3333 -0.9342 -0.780 -0.581 0.234 212 195 165 0 0
6.5682 7.2244 -0.9694 -0.775 -0.624 0.104 210 189 157 0 0
6.6782 7.1124 -1.0084 -0.568 -0.799 0.196 201 182 152 0 0
7.1733 6.8774 -1.1213 -0.450 -0.893 0.009 195 177 145 0 0
4.0191 11.9958 0.4172 -0.343 -0.463 0.817 246 246 242 0 0
4.0310 11.9777 0.4116 -0.265 -0.532 0.804 247 246 242 0 0
4.0451 11.9630 0.4066 -0.265 -0.532 0.804 247 241 235 0 0
4.1868 11.5347 0.2908 -0.312 -0.617 0.723 189 144 128 0 0
4.2071 11.5297 0.2872 -0.493 -0.507 0.707 197 151 134 0 0
4.2182 11.5111 0.2816 -0.493 -0.507 0.707 197 150 132 0 0
4.3112 11.4044 0.2459 -0.387 -0.516 0.765 198 152 129 0 0
4.3501 11.3914 0.2383 -0.169 -0.845 0.507 198 149 126 0 0
4.5368 11.2462 0.1825 -0.163 -0.652 0.741 188 140 118 0 0
4.5578 11.2082 0.1712 -0.294 -0.505 0.811 207 158 138 0 0
4.8284 10.9441 0.0780 -0.116 -0.705 0.699 185 135 115 0 0
4.8479 10.9370 0.0741 -0.116 -0.705 0.699 188 137 116 0 0
4.9951 10.8354 0.0331 -0.202 -0.643 0.739 183 132 111 0 0
5.0542 10.8137 0.0210 -0.412 -0.589 0.695 197 149 129 0 0
5.0468 10.7731 0.0126 -0.349 -0.566 0.747 198 150 130 0 0
5.0592 10.7569 0.0073 -0.334 -0.526 0.782 191 142 122 0 0
5.2310 10.5910 -0.0514 -0.162 -0.886 0.434 190 141 120 0 0
5.2514 10.5843 -0.0554 -0.194 -0.872 0.449 172 121 100 0 0
5.2973 10.5462 -0.0697 -0.404 -0.537 0.740 175 120 100 0 0
5.5491 10.3498 -0.1450 -0.629 -0.374 0.681 193 140 120 0 0
5.5558 10.3276 -0.1509 -0.629 -0.374 0.681 192 140 120 0 0
5.6014 10.2593 -0.1721 -0.389 -0.504 0.771 175 123 103 0 0
5.8606 9.9833 -0.2667 -0.444 -0.472 0.762 190 142 122 0 0
5.9277 9.9951 -0.2720 -0.158 -0.817 0.555 197 149 128 0 0
5.9470 9.9863 -0.2763 -0.388 -0.733 0.559 182 134 112 0 0
6.0979 9.8830 -0.3181 -0.129 -0.827 0.546 186 137 114 0 0
6.3615 9.8314 -0.3614 -0.063 -0.779 0.623 197 154 138 0 0
6.2803 7.9733 -0.7808 -0.952 -0.210 0.221 220 196 165 0 0
6.3255 7.6524 -0.8602 -0.694 -0.719 0.036 216 195 164 0 0
6.3374 7.6394 -0.8646 -0.722 -0.677 0.139 215 194 163 0 0
6.3833 7.5863 -0.8824 -0.823 -0.567 -0.023 218 199 169 0 0
6.4031 7.4718 -0.9112 -0.552 -0.789 0.271 219 199 169 0 0
6.4507 7.4205 -0.9287 -0.607 -0.795 0.009 214 195 164 0 0
6.4682 7.4117 -0.9328 -0.516 -0.834 0.197 213 193 164 0 0
6.4654 7.3464 -0.9475 -0.534 -0.819 0.211 214 197 168 0 0
6.5129 7.2956 -0.9649 -0.654 -0.755 0.036 210 189 158 0 0
6.5621 7.2666 -0.9775 -0.611 -0.786 0.096 204 187 154 0 0
6.6780 7.1171 -1.0258 -0.766 -0.643 0.023 192 173 141 0 0
3.9262 12.0064 0.4095 -0.317 -0.719 0.619 247 246 244 0 0
3.9771 11.9762 0.3965 -0.654 -0.325 0.683 250 246 243 0 0
3.9959 11.9689 0.3926 -0.355 -0.450 0.819 249 246 241 0 0
4.0619 11.8889 0.3662 0.026 -0.644 0.765 188 136 115 0 0
4.2580 11.4052 0.2316 -0.335 -0.504 0.796 194 147 129 0 0
4.3522 11.3011 0.1963 -0.352 -0.528 0.773 194 145 123 0 0
5.0456 10.7169 -0.0212 -0.403 -0.465 0.789 200 152 133 0 0
5.2661 10.5479 -0.0865 -0.485 -0.817 0.311 186 134 113 0 0
5.2731 10.5256 -0.0925 -0.672 -0.573 0.469 175 123 102 0 0
5.3137 10.4513 -0.1144 -0.238 -0.631 0.738 198 148 128 0 0
5.5088 10.3423 -0.1629 -0.400 -0.576 0.713 190 139 121 0 0
5.5148 10.3192 -0.1690 -0.371 -0.571 0.732 185 134 115 0 0
5.7276 10.0812 -0.2492 -0.177 -0.609 0.773 193 145 124 0 0
5.9261 9.9719 -0.2982 -0.201 -0.747 0.633 194 143 122 0 0
5.9924 9.8411 -0.3362 -0.222 -0.727 0.650 172 123 102 0 0
6.6817 8.8755 -0.6408 0.279 -0.744 -0.607 246 242 234 0 0
6.7398 8.8986 -0.6425 0.279 -0.744 -0.607 218 205 186 0 0
6.3537 7.6131 -0.8914 -0.720 -0.682 -0.126 217 198 168 0 0
6.4407 7.4185 -0.9466 -0.506 -0.858 0.085 214 195 165 0 0
6.4826 7.3214 -0.9739 -0.654 -0.755 0.036 209 188 158 0 0
6.5572 7.2682 -0.9951 -0.611 -0.786 0.096 204 186 153 0 0
6.5601 7.2286 -1.0046 -0.775 -0.624 0.104 208 189 156 0 0
6.7415 7.0612 -1.0648 -0.655 -0.731 0.191 205 184 153 0 0
6.7583 7.0518 -1.0690 -0.486 -0.839 -0.244 203 185 152 0 0
6.7740 7.0415 -1.0732 -0.483 -0.875 0.037 203 185 153 0 0
3.8753 11.9719 0.3866 0.133 -0.905 0.404 247 246 244 0 0
3.9723 11.9413 0.3679 -0.334 -0.429 0.839 245 243 237 0 0
3.9725 11.9050 0.3596 -0.339 -0.435 0.834 194 171 161 0 0
4.4545 11.2169 0.1438 -0.342 -0.544 0.766 190 143 121 0 0
4.4681 11.2023 0.1388 -0.277 -0.620 0.734 196 149 129 0 0
5.2133 10.5547 -0.0996 -0.308 -0.640 0.704 184 134 112 0 0
5.2604 10.5183 -0.1136 -0.359 -0.595 0.719 187 135 114 0 0
5.3089 10.4231 -0.1412 -0.437 -0.453 0.777 203 153 134 0 0
5.4122 10.3310 -0.1748 -0.349 -0.492 0.797 177 127 107 0 0
5.4767 10.2843 -0.1933 -0.320 -0.946 -0.043 187 138 117 0 0
5.4973 10.2775 -0.1974 -0.320 -0.946 -0.043 177 128 110 0 0
5.5553 10.2234 -0.2167 -0.586 -0.463 0.665 198 145 125 0 0
5.5643 10.2040 -0.2223 -0.586 -0.463 0.665 171 117 97 0 0
5.9059 9.9582 -0.3199 -0.244 -0.647 0.722 199 148 128 0 0
5.9065 9.9304 -0.3263 -0.628 -0.271 0.729 193 143 123 0 0
6.1248 9.8110 -0.3801 -0.166 -0.805 0.570 179 129 108 0 0
6.6425 8.8740 -0.6570 0.279 -0.744 -0.607 252 254 247 0 0
6.7004 8.8971 -0.6588 0.279 -0.744 -0.607 235 229 217 0 0
6.7590 8.9206 -0.6605 0.261 -0.743 -0.616 217 198 180 0 0
6.7449 8.8836 -0.6672 -0.245 -0.808 -0.535 220 198 173 0 0
6.3055 8.0265 -0.8099 -0.545 -0.629 0.555 219 195 164 0 0
6.2710 7.7978 -0.8580 -0.655 -0.622 0.429 220 197 168 0 0
6.2892 7.7894 -0.8621 -0.870 -0.487 0.074 219 197 168 0 0
6.2900 7.7678 -0.8671 -0.816 -0.501 0.289 219 200 170 0 0
6.3704 7.6088 -0.9132 -0.664 -0.729 -0.169 213 193 162 0 0
6.4496 7.3453 -0.9830 -0.591 -0.796 0.128 211 194 162 0 0
6.4789 7.3238 -0.9915 -0.654 -0.755 0.036 209 191 162 0 0
3.9391 11.9350 0.3493 -0.379 -0.369 0.849 247 244 238 0 0
4.1474 11.4339 0.2099 -0.318 -0.810 0.493 197 150 129 0 0
4.1978 11.3700 0.1892 -0.573 -0.380 0.726 178 132 112 0 0
4.4343 11.1975 0.1210 -0.342 -0.544 0.766 192 145 123 0 0
5.2659 10.4413 -0.1527 -0.364 -0.545 0.755 194 141 120 0 0
6.0602 9.8100 -0.3935 -0.183 -0.812 0.553 183 134 112 0 0
6.1064 9.7997 -0.4015 -0.166 -0.805 0.570 179 130 110 0 0
6.6663 8.9000 -0.6746 0.223 -0.776 -0.590 250 252 243 0 0
6.7133 8.9140 -0.6772 0.209 -0.777 -0.594 223 215 201 0 0
6.7617 8.9289 -0.6797 0.209 -0.777 -0.594 218 198 178 0 0
6.2925 8.2526 -0.7761 -0.935 -0.040 0.354 227 204 173 0 0
6.3364 7.6324 -0.9225 -0.438 -0.835 0.334 216 196 163 0 0
6.3600 7.5847 -0.9362 -0.766 -0.582 0.272 211 192 160 0 0
6.7253 7.0603 -1.1002 -0.506 -0.840 0.198 196 177 146 0 0
6.9350 6.9508 -1.1507 -0.852 -0.519 0.069 194 173 141 0 0
3.7192 11.8145 0.3281 -0.316 -0.914 0.252 247 246 244 0 0
4.1047 11.4490 0.1978 -0.295 -0.545 0.785 201 154 133 0 0
4.8170 10.8021 -0.0365 -0.388 -0.453 0.803 193 144 124 0 0
6.5866 9.9611 -0.4453 0.253 -0.908 -0.334 143 99 83 0 0
6.6821 8.9193 -0.6928 0.210 -0.807 -0.552 244 243 233 0 0
6.7161 8.9224 -0.6963 -0.067 -0.802 -0.594 216 204 188 0 0
6.7768 8.9477 -0.6981 0.201 -0.787 -0.583 217 197 174 0 0
6.6728 7.1124 -1.1004 -0.522 -0.853 0.012 196 176 143 0 0
8.4661 7.1577 -1.3116 0.364 -0.931 0.028 252 252 251 0 0
3.8092 11.9314 0.3224 -0.653 -0.589 0.476 247 246 244 0 0
3.8212 11.9137 0.3169 -0.653 -0.589 0.476 246 246 241 0 0
3.8382 11.9041 0.3127 -0.001 -0.934 0.357 248 245 240 0 0
3.8980 11.5663 0.2292 -0.397 -0.388 0.832 196 149 133 0 0
4.0622 11.4296 0.1779 -0.344 -0.593 0.728 194 148 129 0 0
4.1916 11.3101 0.1349 -0.426 -0.710 0.561 184 136 114 0 0
4.2092 11.3014 0.1308 -0.221 -0.693 0.686 196 146 124 0 0
4.5212 11.0028 0.0247 -0.116 -0.749 0.652 198 148 126 0 0
5.0162 10.5267 -0.1441 -0.515 -0.404 0.756 192 138 118 0 0
6.2849 8.2577 -0.8129 -0.676 -0.322 0.663 217 192 162 0 0
6.2604 7.7834 -0.9166 -0.894 -0.442 -0.072 214 192 163 0 0
6.2979 7.7454 -0.9298 -0.403 -0.913 -0.065 216 197 164 0 0
6.3105 7.7328 -0.9342 -0.567 -0.809 -0.158 218 199 167 0 0
6.2736 7.6616 -0.9457 -0.668 -0.733 0.127 217 196 165 0 0
6.3088 7.6224 -0.9589 -0.564 -0.775 0.285 204 184 151 0 0
7.1463 6.8490 -1.2373 -0.537 -0.841 0.064 187 167 130 0 0
8.4282 7.1413 -1.3311 0.333 -0.942 -0.036 251 251 250 0 0
3.7764 11.8882 0.2958 0.137 -0.950 0.282 248 246 244 0 0
4.1918 11.2851 0.1086 -0.188 -0.732 0.654 195 144 123 0 0
4.4724 11.0106 0.0119 -0.298 -0.554 0.777 189 138 116 0 0
4.4856 10.9959 0.0069 -0.238 -0.621 0.747 184 134 112 0 0
4.6335 10.8369 -0.0473 -0.324 -0.545 0.774 184 131 112 0 0
4.6467 10.8223 -0.0522 -0.312 -0.510 0.802 188 135 117 0 0
5.1635 10.3752 -0.2173 -0.463 -0.559 0.688 183 132 113 0 0
5.2661 10.2843 -0.2505 -0.291 -0.534 0.794 200 156 140 0 0
5.5258 10.0456 -0.3366 -0.252 -0.534 0.807 209 163 143 0 0
6.3590 8.5382 -0.7788 -0.942 0.257 0.213 213 188 157 0 0
6.2664 8.2718 -0.8268 -0.679 -0.262 0.685 215 190 159 0 0
6.2842 7.7403 -0.9481 -0.869 -0.436 0.232 215 195 162 0 0
6.3930 7.4522 -1.0263 -0.640 -0.704 0.307 214 193 164 0 0
6.4336 7.3540 -1.0534 -0.579 -0.803 -0.138 205 188 158 0 0
6.4759 7.2579 -1.0802 -0.701 -0.692 0.173 209 190 160 0 0
6.4831 7.2420 -1.0847 -0.535 -0.839 -0.099 204 185 155 0 0
6.4985 7.2318 -1.0889 -0.763 -0.645 0.049 205 186 155 0 0
6.6642 7.1164 -1.1356 -0.428 -0.903 0.049 200 179 148 0 0
6.7088 7.0842 -1.1484 -0.522 -0.850 0.064 198 179 149 0 0
7.2757 6.8311 -1.2763 -0.198 -0.972 0.123 192 172 139 0 0
7.2979 6.8242 -1.2806 -0.357 -0.934 -0.019 190 170 137 0 0
3.7884 11.8800 0.2716 0.037 -0.879 0.476 247 245 242 0 0
4.5706 10.8268 -0.0622 -0.124 -0.943 0.310 183 128 106 0 0
4.5911 10.8216 -0.0659 -0.132 -0.931 0.340 190 135 115 0 0
4.8193 10.6715 -0.1283 -0.198 -0.704 0.682 171 120 99 0 0
4.8787 10.5593 -0.1608 -0.545 -0.395 0.739 182 131 112 0 0
5.0464 10.4259 -0.2118 -0.281 -0.687 0.671 189 140 119 0 0
5.1500 10.3370 -0.2447 -0.551 -0.397 0.734 186 134 117 0 0
5.6356 9.8838 -0.4072 -0.213 -0.686 0.696 189 144 126 0 0
5.6633 9.8563 -0.4169 -0.274 -0.636 0.722 194 146 128 0 0
6.0025 9.7522 -0.4831 -0.230 -0.781 0.581 167 114 95 0 0
6.0259 9.7476 -0.4871 -0.122 -0.846 0.518 183 132 114 0 0
6.3712 8.5541 -0.7967 -0.825 0.154 0.544 216 191 159 0 0
6.3402 8.5043 -0.8039 -0.903 0.229 0.365 213 189 157 0 0
6.2617 8.2737 -0.8453 -0.934 -0.084 0.348 214 189 157 0 0
6.2568 8.2462 -0.8508 -0.741 -0.540 0.400 212 187 155 0 0
6.2659 8.2302 -0.8555 -0.741 -0.540 0.400 214 189 157 0 0
6.4810 7.2455 -1.1021 -0.535 -0.839 -0.099 207 189 159 0 0
6.5125 7.2255 -1.1106 -0.438 -0.891 0.118 206 189 160 0 0
8.3985 7.1345 -1.3699 0.349 -0.926 -0.142 252 252 252 0 0
3.7734 11.8654 0.2493 0.001 -0.786 0.619 240 229 221 0 0
4.0820 11.2792 0.0800 -0.348 -0.530 0.773 196 149 131 0 0
4.0943 11.2632 0.0749 -0.350 -0.528 0.774 188 141 122 0 0
4.5573 10.8173 -0.0831 -0.208 -0.782 0.588 176 122 100 0 0
4.5756 10.8094 -0.0872 -0.208 -0.782 0.588 191 136 115 0 0
4.8597 10.5436 -0.1825 -0.411 -0.458 0.788 189 137 116 0 0
5.0048 10.4445 -0.2230 -0.372 -0.547 0.750 183 133 115 0 0
5.2349 10.2339 -0.2991 -0.517 -0.569 0.640 181 128 110 0 0
5.4684 9.9980 -0.3812 -0.412 -0.435 0.800 196 146 125 0 0
5.4777 9.9794 -0.3865 -0.412 -0.435 0.800 203 155 135 0 0
5.9665 9.7512 -0.4996 -0.150 -0.837 0.527 185 134 112 0 0
5.9944 9.7510 -0.5032 -0.367 -0.813 0.452 186 133 114 0 0
6.0145 9.7431 -0.5075 -0.272 -0.873 0.404 182 131 113 0 0
6.2435 8.2645 -0.8644 -0.762 -0.474 0.441 213 190 156 0 0
6.2486 8.2453 -0.8694 -0.775 -0.535 0.336 213 189 155 0 0
6.2641 7.7578 -0.9794 -0.771 -0.571 0.283 209 186 154 0 0
6.4511 7.3132 -1.1018 -0.847 -0.516 0.129 210 191 159 0 0
6.4766 7.2474 -1.1197 -0.572 -0.807 0.146 208 191 161 0 0
6.6046 7.1480 -1.1580 -0.763 -0.642 -0.081 207 184 153 0 0
6.8040 6.9926 -1.2180 -0.526 -0.830 -0.185 198 180 150 0 0
6.8554 6.9647 -1.2307 -0.320 -0.935 0.153 193 177 144 0 0
6.9009 6.9530 -1.2391 -0.544 -0.838 -0.042 197 178 145 0 0
8.1859 7.0196 -1.3887 -0.445 -0.875 -0.190 252 252 252 0 0
4.0444 11.2670 0.0616 -0.301 -0.567 0.767 198 151 133 0 0
4.0519 11.2441 0.0556 -0.257 -0.676 0.690 183 135 116 0 0
4.2375 11.0742 -0.0058 -0.143 -0.685 0.715 195 146 123 0 0
4.2486 11.0567 -0.0111 -0.271 -0.571 0.775 190 142 120 0 0
4.5421 10.8054 -0.1043 -0.208 -0.782 0.588 185 132 111 0 0
4.5604 10.7975 -0.1084 -0.208 -0.782 0.588 177 122 102 0 0
5.0126 10.4310 -0.2475 -0.634 -0.322 0.703 195 140 122 0 0
5.3210 10.1035 -0.3595 -0.180 -0.763 0.621 205 156 134 0 0
5.3341 10.0891 -0.3644 -0.284 -0.699 0.656 196 145 124 0 0
5.3645 10.0647 -0.3737 -0.302 -0.638 0.708 193 141 120 0 0
5.5646 9.8797 -0.4403 -0.285 -0.653 0.702 205 155 135 0 0
5.7287 9.7691 -0.4858 -0.598 -0.623 0.505 180 132 110 0 0
5.7472 9.7601 -0.4902 -0.458 -0.704 0.543 177 126 105 0 0
5.9714 9.7350 -0.5246 -0.169 -0.906 0.387 185 135 116 0 0
6.0024 9.7379 -0.5280 -0.238 -0.898 0.370 188 139 122 0 0
6.9131 9.2226 -0.7590 -0.681 0.519 0.516 253 253 250 0 0
6.2503 8.2522 -0.8875 -0.922 -0.300 0.247 214 190 156 0 0
6.2166 7.9950 -0.9398 -0.943 -0.251 0.218 218 193 161 0 0
6.2218 7.9764 -0.9446 -0.764 -0.584 0.274 219 194 161 0 0
6.3111 7.6013 -1.0388 -0.801 -0.578 -0.159 208 189 157 0 0
6.4583 7.2813 -1.1283 -0.861 -0.497 0.107 208 189 158 0 0
6.7755 6.9994 -1.2314 -0.719 -0.695 0.001 191 172 140 0 0
7.2015 6.8408 -1.3213 -0.395 -0.891 -0.222 192 173 140 0 0
3.6826 11.8112 0.2075 -0.125 -0.962 0.241 176 141 130 0 0
3.7993 11.4246 0.1075 -0.539 -0.499 0.679 189 140 123 0 0
3.9231 11.3012 0.0643 -0.609 -0.381 0.695 193 146 126 0 0
4.4891 10.8075 -0.1175 -0.332 -0.707 0.624 191 140 121 0 0
4.5069 10.7991 -0.1217 -0.282 -0.677 0.680 197 147 128 0 0
5.7237 9.7708 -0.5054 -0.532 -0.615 0.582 188 140 118 0 0
5.7364 9.7559 -0.5103 -0.363 -0.674 0.643 178 127 106 0 0
6.8750 9.1965 -0.7810 -0.701 0.533 0.473 253 253 248 0 0
6.2540 8.2608 -0.9055 -0.925 -0.218 0.310 216 192 158 0 0
6.2163 7.9775 -0.9627 -0.654 -0.699 0.290 206 182 148 0 0
6.2822 7.6068 -1.0526 -0.832 -0.553 -0.037 205 183 152 0 0
6.3018 7.5779 -1.0614 -0.832 -0.553 -0.037 210 189 158 0 0
6.3518 7.4429 -1.0976 -0.642 -0.742 -0.192 200 181 149 0 0
6.4762 7.2361 -1.1591 -0.738 -0.641 0.211 202 185 155 0 0
8.3222 7.1274 -1.4230 0.396 -0.912 -0.103 251 251 251 0 0
3.5663 11.8880 0.2187 -0.299 -0.660 0.690 247 246 243 0 0
3.7374 11.4427 0.0992 -0.202 -0.619 0.759 183 134 119 0 0
3.8937 11.3000 0.0476 -0.495 -0.600 0.629 192 145 123 0 0
3.9076 11.2867 0.0428 -0.609 -0.381 0.695 196 149 129 0 0
4.0973 11.1250 -0.0173 -0.302 -0.599 0.741 192 141 120 0 0
4.3892 10.8426 -0.1172 -0.382 -0.559 0.736 189 139 118 0 0
4.4460 10.8222 -0.1291 -0.320 -0.785 0.531 186 135 114 0 0
4.4580 10.8063 -0.1341 -0.284 -0.737 0.613 192 141 121 0 0
4.4741 10.7957 -0.1386 -0.309 -0.751 0.584 194 143 124 0 0
4.4855 10.7788 -0.1437 -0.296 -0.700 0.650 193 142 125 0 0
5.0812 10.1979 -0.3486 -0.158 -0.707 0.689 198 148 127 0 0
5.7098 9.7635 -0.5258 -0.532 -0.615 0.582 182 133 111 0 0
5.8059 9.7219 -0.5474 -0.113 -0.865 0.489 172 117 96 0 0
6.2178 7.8269 -1.0148 -0.777 -0.511 0.367 214 190 159 0 0
6.3475 7.4449 -1.1152 -0.804 -0.557 -0.209 196 176 144 0 0
6.9688 6.9491 -1.3048 -0.504 -0.861 -0.071 192 173 141 0 0
8.3014 7.1205 -1.4421 0.396 -0.912 -0.103 251 251 251 0 0
3.6443 11.8044 0.1696 -0.584 -0.646 0.492 190 159 145 0 0
3.8321 11.3191 0.0394 -0.156 -0.748 0.646 203 155 133 0 0
3.8752 11.2811 0.0255 -0.551 -0.481 0.682 192 144 123 0 0
3.8925 11.2728 0.0214 -0.640 -0.341 0.689 200 154 134 0 0
4.0844 11.0817 -0.0454 -0.585 -0.451 0.674 188 136 115 0 0
5.0321 10.2074 -0.3604 -0.417 -0.423 0.804 177 120 100 0 0
5.7901 9.7128 -0.5680 -0.243 -0.749 0.617 163 107 85 0 0
6.3426 8.5838 -0.8860 -0.908 0.253 0.335 207 178 144 0 0
6.2087 7.8253 -1.0329 -0.674 -0.661 0.329 215 191 159 0 0
6.2346 7.7344 -1.0560 -0.832 -0.525 0.179 213 190 159 0 0
6.2559 7.7065 -1.0649 -0.761 -0.637 0.124 211 188 156 0 0
6.2603 7.6879 -1.0695 -0.576 -0.815 0.059 214 191 159 0 0
6.3866 7.3089 -1.1684 -0.779 -0.627 0.024 208 190 159 0 0
6.4549 7.2313 -1.1943 -0.699 -0.619 -0.358 192 174 142 0 0
7.3313 6.8319 -1.3968 -0.214 -0.974 -0.078 191 175 145 0 0
7.3567 6.8268 -1.4013 -0.255 -0.965 -0.057 190 174 142 0 0
3.5143 11.8209 0.1698 0.095 -0.808 0.582 247 247 242 0 0
3.5371 11.8216 0.1669 -0.152 -0.590 0.793 245 246 245 0 0
3.6466 11.4240 0.0665 -0.360 -0.546 0.756 209 164 145 0 0
3.8237 11.2808 0.0120 -0.009 -0.958 0.286 193 142 121 0 0
3.8343 11.2626 0.0066 -0.498 -0.478 0.724 190 138 117 0 0
3.8395 11.2362 0.0003 -0.506 -0.542 0.671 193 143 122 0 0
5.2840 9.9759 -0.4643 -0.375 -0.572 0.730 185 129 106 0 0
5.2889 9.9526 -0.4700 -0.697 -0.555 0.454 174 118 95 0 0
5.3002 9.9364 -0.4750 -0.725 -0.427 0.540 180 126 102 0 0
5.4159 9.8064 -0.5185 -0.243 -0.664 0.707 193 141 120 0 0
5.4913 9.7740 -0.5355 -0.151 -0.742 0.653 199 148 129 0 0
6.2562 7.7120 -1.0825 -0.803 -0.571 -0.171 213 190 156 0 0
6.2739 7.6814 -1.0915 -0.811 -0.580 0.079 209 186 152 0 0
6.3390 7.5343 -1.1319 -0.744 -0.632 0.218 196 173 140 0 0
6.4333 7.3254 -1.1896 -0.800 -0.548 0.242 204 183 152 0 0
6.4547 7.2360 -1.2117 -0.554 -0.799 -0.233 200 182 150 0 0
6.7038 7.0533 -1.2844 -0.712 -0.625 0.320 193 175 143 0 0
3.5157 11.7958 0.1436 -0.152 -0.590 0.793 247 246 243 0 0
3.5466 11.7734 0.1347 -0.184 -0.546 0.817 177 150 138 0 0
3.5605 11.7595 0.1298 -0.224 -0.505 0.834 188 147 133 0 0
3.6163 11.4204 0.0495 -0.360 -0.546 0.756 194 148 130 0 0
3.6290 11.4053 0.0446 -0.360 -0.546 0.756 188 141 123 0 0
3.7609 11.2972 0.0037 -0.452 -0.591 0.669 190 142 122 0 0
3.7943 11.2793 -0.0047 -0.433 -0.608 0.665 200 150 128 0 0
3.8841 11.1757 -0.0390 -0.314 -0.576 0.755 190 140 119 0 0
4.8321 10.2831 -0.3580 -0.194 -0.764 0.615 188 141 122 0 0
4.9872 10.1699 -0.4032 -0.444 -0.377 0.813 204 150 131 0 0
5.2745 9.9724 -0.4842 -0.161 -0.759 0.631 197 141 118 0 0
5.2892 9.9599 -0.4888 -0.349 -0.825 0.444 192 136 113 0 0
6.6399 9.0729 -0.8608 -0.913 0.221 0.343 253 253 250 0 0
6.5118 8.9376 -0.8726 -0.372 -0.923 0.100 253 253 251 0 0
6.4714 8.8778 -0.8800 0.512 -0.832 -0.214 253 253 248 0 0
6.5795 8.9445 -0.8803 0.512 -0.832 -0.214 234 229 219 0 0
6.4888 7.2435 -1.2332 -0.560 -0.803 0.204 200 182 150 0 0
6.5314 7.2104 -1.2460 -0.574 -0.740 0.352 202 182 151 0 0
6.8641 6.9986 -1.3362 -0.597 -0.802 0.014 186 166 133 0 0
6.8853 6.9917 -1.3405 -0.845 -0.530 0.066 191 172 139 0 0
3.4718 11.7692 0.1234 0.010 -0.995 0.098 246 240 236 0 0
3.4931 11.7678 0.1202 -0.171 -0.887 0.429 251 243 238 0 0
3.5988 11.4018 0.0277 -0.365 -0.613 0.701 174 126 108 0 0
3.7457 11.2827 -0.0176 -0.321 -0.577 0.751 193 145 125 0 0
3.7704 11.2518 -0.0276 -0.443 -0.441 0.781 194 146 124 0 0
4.7749 10.3113 -0.3645 -0.504 -0.614 0.607 197 148 128 0 0
4.8140 10.2687 -0.3789 -0.218 -0.778 0.589 177 129 109 0 0
5.1661 10.0029 -0.4833 -0.277 -0.595 0.755 189 137 116 0 0
5.2556 9.9302 -0.5110 -0.273 -0.691 0.669 193 138 115 0 0
5.5236 9.7101 -0.5943 -0.296 -0.852 0.433 181 132 112 0 0
5.5365 9.6957 -0.5991 -0.695 -0.637 0.333 180 132 112 0 0
5.5573 9.6895 -0.6033 -0.384 -0.901 0.200 158 111 91 0 0
6.6356 9.0754 -0.8805 -0.987 0.095 0.130 252 252 250 0 0
6.4849 8.8954 -0.8985 0.470 -0.846 -0.253 254 253 247 0 0
6.1738 8.0393 -1.0391 -0.783 -0.398 0.478 205 180 147 0 0
6.1913 8.0304 -1.0434 -0.986 -0.150 -0.074 211 187 156 0 0
6.2572 7.7012 -1.1226 -0.766 -0.627 0.143 203 180 146 0 0
6.3112 7.5673 -1.1585 -0.629 -0.729 0.270 205 182 150 0 0
6.3353 7.5417 -1.1672 -0.863 -0.477 0.169 192 169 136 0 0
6.3483 7.5297 -1.1716 -0.840 -0.534 -0.100 194 174 139 0 0
6.4392 7.2559 -1.2423 -0.734 -0.642 -0.223 203 186 156 0 0
6.5329 7.2162 -1.2635 -0.578 -0.720 0.383 199 181 151 0 0
7.0294 6.9248 -1.3930 -0.503 -0.857 -0.117 193 175 143 0 0
3.3945 11.7232 0.1037 -0.395 -0.897 -0.200 247 244 241 0 0
3.4281 11.7426 0.1032 -0.372 -0.861 0.347 218 205 198 0 0
3.4916 11.4864 0.0402 -0.482 -0.292 0.826 201 155 136 0 0
3.5310 11.4085 0.0182 -0.465 -0.542 0.700 194 150 134 0 0
3.7964 11.1299 -0.0772 -0.380 -0.597 0.706 204 154 132 0 0
3.8070 11.1121 -0.0824 -0.376 -0.617 0.691 199 150 128 0 0
3.8213 11.0997 -0.0870 -0.455 -0.560 0.692 199 150 130 0 0
3.9687 11.0155 -0.1250 -0.334 -0.536 0.775 211 162 141 0 0
4.0335 10.9765 -0.1422 -0.128 -0.832 0.539 209 160 138 0 0
4.0490 10.9329 -0.1535 -0.282 -0.567 0.774 197 149 127 0 0
4.3974 10.6084 -0.2700 -0.224 -0.725 0.651 210 166 149 0 0
4.5612 10.4482 -0.3264 -0.510 -0.556 0.656 191 142 125 0 0
4.7059 10.3248 -0.3724 -0.240 -0.657 0.714 183 135 115 0 0
5.1225 9.9899 -0.5004 -0.169 -0.645 0.746 189 137 116 0 0
5.1687 9.9555 -0.5140 -0.186 -0.600 0.778 186 133 112 0 0
6.6339 9.0801 -0.9001 -0.997 -0.064 0.029 253 253 251 0 0
6.8310 9.2230 -0.8967 -0.755 0.633 0.171 253 253 251 0 0
6.2548 7.7046 -1.1404 -0.844 -0.485 0.229 202 179 145 0 0
6.2485 7.6780 -1.1451 -0.878 -0.469 0.101 208 184 151 0 0
6.5143 7.2292 -1.2767 -0.669 -0.735 0.108 199 182 152 0 0
6.5216 7.2134 -1.2811 -0.611 -0.760 0.221 198 181 151 0 0
6.5347 7.2016 -1.2854 -0.611 -0.760 0.221 200 181 150 0 0
3.4739 11.4318 0.0109 -0.452 -0.341 0.825 206 162 146 0 0
3.4882 11.4194 0.0063 -0.258 -0.544 0.798 197 154 138 0 0
3.5093 11.3829 -0.0043 -0.219 -0.651 0.727 187 140 126 0 0
3.5846 11.3275 -0.0264 -0.307 -0.539 0.784 201 154 138 0 0
3.5972 11.3126 -0.0313 -0.348 -0.452 0.822 197 150 134 0 0
3.7660 11.1943 -0.0795 -0.857 -0.300 0.420 193 145 121 0 0
3.7744 11.1730 -0.0851 -0.773 -0.408 0.485 188 139 116 0 0
3.7821 11.1507 -0.0909 -0.787 -0.378 0.488 198 148 126 0 0
3.7882 11.1261 -0.0969 -0.776 -0.489 0.399 190 142 122 0 0
3.7977 11.1067 -0.1024 -0.776 -0.489 0.399 211 163 143 0 0
3.8086 11.0893 -0.1075 -0.704 -0.575 0.417 211 163 144 0 0
3.9095 11.0375 -0.1324 -0.221 -0.576 0.787 182 132 109 0 0
4.0342 10.9202 -0.1743 -0.307 -0.596 0.742 193 142 121 0 0
4.0836 10.8597 -0.1939 -0.378 -0.568 0.731 194 142 120 0 0
4.1197 10.8130 -0.2087 -0.387 -0.518 0.763 188 140 118 0 0
4.1306 10.7959 -0.2138 -0.432 -0.424 0.796 196 148 127 0 0
4.3080 10.6865 -0.2614 -0.666 -0.305 0.680 195 145 123 0 0
4.5429 10.4327 -0.3473 -0.375 -0.515 0.771 193 142 125 0 0
4.5909 10.4017 -0.3605 -0.303 -0.688 0.659 177 130 114 0 0
5.5046 9.6762 -0.6395 -0.467 -0.503 0.728 185 134 112 0 0
5.5166 9.6609 -0.6444 -0.399 -0.608 0.686 159 108 87 0 0
6.2059 7.8943 -1.1124 -0.650 -0.674 0.351 208 187 156 0 0
6.2194 7.8824 -1.1168 -0.770 -0.586 0.251 213 190 159 0 0
6.2320 7.7146 -1.1539 -0.692 -0.664 0.283 205 182 148 0 0
6.2876 7.6251 -1.1805 -0.738 -0.663 0.126 198 178 146 0 0
6.2960 7.6095 -1.1849 -0.643 -0.749 0.161 194 175 143 0 0
6.3090 7.5974 -1.1892 -0.643 -0.749 0.161 198 180 148 0 0
6.3443 7.4302 -1.2294 -0.662 -0.705 0.254 203 182 153 0 0
6.6932 7.0859 -1.3502 -0.841 -0.503 -0.197 200 184 156 0 0
6.9036 6.9568 -1.4064 -0.746 -0.655 -0.122 189 170 137 0 0
3.3006 11.8416 0.1009 -0.383 -0.162 0.909 247 245 243 0 0
3.3395 11.7966 0.0861 -0.184 -0.490 0.852 248 246 244 0 0
3.4149 11.7027 0.0559 -0.372 -0.565 0.736 180 136 120 0 0
3.4278 11.6878 0.0510 -0.372 -0.565 0.736 163 122 102 0 0
3.5668 11.3085 -0.0480 -0.432 -0.446 0.784 193 147 129 0 0
3.7586 11.0905 -0.1204 -0.106 -0.819 0.563 192 144 123 0 0
3.7776 11.0853 -0.1241 -0.247 -0.849 0.468 196 148 127 0 0
3.8026 11.0889 -0.1268 -0.718 -0.649 0.250 198 150 130 0 0
3.8866 11.0125 -0.1545 -0.332 -0.553 0.764 208 162 139 0 0
3.8994 10.9981 -0.1594 -0.332 -0.553 0.764 215 174 150 0 0
4.0543 10.8591 -0.2100 -0.398 -0.573 0.717 190 141 119 0 0
4.0666 10.8440 -0.2149 -0.378 -0.568 0.731 197 149 127 0 0
4.0780 10.8276 -0.2199 -0.280 -0.591 0.757 201 153 132 0 0
4.3087 10.6638 -0.2864 -0.208 -0.782 0.588 196 144 123 0 0
4.5233 10.4156 -0.3683 -0.375 -0.515 0.771 193 142 122 0 0
4.5342 10.3989 -0.3733 -0.442 -0.473 0.762 191 141 123 0 0
5.1582 9.8160 -0.5823 -0.277 -0.634 0.722 200 148 127 0 0
5.5073 9.6581 -0.6640 -0.311 -0.888 0.340 169 118 97 0 0
5.5298 9.6538 -0.6680 -0.089 -0.972 0.215 172 120 96 0 0
6.3205 8.5761 -1.0041 -0.919 -0.134 0.370 203 176 143 0 0
6.2120 7.8151 -1.1488 -0.858 -0.512 -0.037 198 174 143 0 0
6.2213 7.7999 -1.1533 -0.858 -0.512 -0.037 182 159 127 0 0
6.2289 7.7394 -1.1671 -0.671 -0.733 -0.116 207 184 152 0 0
6.2560 7.6286 -1.1941 -0.668 -0.717 0.200 197 174 142 0 0
6.2683 7.6159 -1.1985 -0.668 -0.717 0.200 195 173 141 0 0
6.3974 7.4093 -1.2598 -0.677 -0.720 0.154 202 183 151 0 0
6.4097 7.3969 -1.2641 -0.677 -0.720 0.154 204 185 153 0 0
3.2820 11.8192 0.0785 -0.359 -0.490 0.794 246 245 243 0 0
3.3963 11.6812 0.0336 -0.241 -0.692 0.680 206 165 147 0 0
3.6906 11.1653 -0.1153 -0.554 -0.353 0.754 194 145 123 0 0
3.8692 10.9956 -0.1757 -0.193 -0.695 0.693 190 146 124 0 0
3.8810 10.9797 -0.1807 -0.332 -0.553 0.764 202 163 141 0 0
4.0389 10.8457 -0.2308 -0.394 -0.583 0.711 191 143 121 0 0
4.2725 10.5923 -0.3164 -0.358 -0.554 0.752 190 138 119 0 0
4.8301 10.1105 -0.4950 -0.549 -0.471 0.690 189 137 117 0 0
4.8626 10.0611 -0.5099 -0.461 -0.628 0.627 182 130 110 0 0
5.1386 9.8014 -0.6027 -0.277 -0.634 0.722 191 141 121 0 0
5.3408 9.6566 -0.6612 -0.243 -0.912 0.332 181 128 108 0 0
5.5971 9.6195 -0.7048 -0.306 -0.789 0.533 185 133 112 0 0
5.6455 9.6137 -0.7128 0.002 -0.867 0.498 190 139 120 0 0
6.3184 8.5802 -1.0228 -0.892 -0.337 0.301 206 177 145 0 0
6.2143 8.2791 -1.0711 -0.966 -0.134 0.221 204 178 142 0 0
6.2043 7.8145 -1.1668 -0.758 -0.651 -0.034 199 175 144 0 0
6.2133 7.7991 -1.1712 -0.634 -0.741 0.223 191 168 136 0 0
6.2268 7.7872 -1.1756 -0.730 -0.669 0.141 209 186 154 0 0
6.2383 7.7739 -1.1800 -0.716 -0.677 0.170 212 189 157 0 0
6.2274 7.7436 -1.1848 -0.671 -0.733 -0.116 208 185 153 0 0
6.2358 7.6405 -1.2075 -0.674 -0.704 0.222 202 178 147 0 0
6.2478 7.6276 -1.2119 -0.674 -0.704 0.222 201 178 146 0 0
6.2653 7.6189 -1.2162 -0.639 -0.728 0.248 194 171 139 0 0
6.3820 7.4247 -1.2730 -0.848 -0.527 -0.056 205 184 153 0 0
6.3927 7.4110 -1.2774 -0.714 -0.700 0.015 203 184 152 0 0
6.4030 7.3971 -1.2817 -0.502 -0.863 -0.060 205 186 155 0 0
6.4633 7.3131 -1.3077 -0.796 -0.544 -0.265 200 179 148 0 0
6.5335 7.1948 -1.3423 -0.808 -0.581 -0.101 195 175 146 0 0
6.5641 7.1330 -1.3594 -0.611 -0.790 -0.060 197 182 153 0 0
6.6948 7.0965 -1.3853 -0.649 -0.716 -0.258 193 176 150 0 0
4.1584 10.6670 -0.3048 -0.317 -0.565 0.761 191 143 124 0 0
4.4223 10.4245 -0.3923 -0.495 -0.391 0.776 189 140 122 0 0
4.4413 10.4183 -0.3963 -0.419 -0.468 0.778 195 147 127 0 0
4.6128 10.2705 -0.4512 -0.497 -0.425 0.757 194 146 127 0 0
4.7320 10.1481 -0.4934 -0.222 -0.655 0.722 197 148 131 0 0
4.7943 10.1048 -0.5112 -0.373 -0.576 0.728 188 137 117 0 0
4.8077 10.0915 -0.5158 -0.262 -0.859 0.440 170 118 97 0 0
5.0777 9.8823 -0.5973 -0.368 -0.726 0.581 190 138 116 0 0
5.0880 9.8655 -0.6023 -0.591 -0.672 0.446 203 148 128 0 0
5.0973 9.8475 -0.6073 -0.728 -0.472 0.498 195 142 122 0 0
5.3286 9.6505 -0.6809 -0.233 -0.884 0.406 175 122 101 0 0
6.3039 8.5739 -1.0420 -0.853 -0.233 0.467 204 175 142 0 0
6.2115 8.0736 -1.1329 -0.951 -0.109 -0.288 198 172 137 0 0
6.1946 7.8123 -1.1847 -0.538 -0.815 0.214 204 180 149 0 0
6.2119 7.8033 -1.1890 -0.543 -0.792 0.278 200 177 145 0 0
6.2414 7.6281 -1.2296 -0.674 -0.704 0.222 201 177 145 0 0
6.2994 7.5626 -1.2514 -0.491 -0.846 0.207 207 185 154 0 0
6.3048 7.5450 -1.2558 -0.699 -0.647 0.305 206 183 152 0 0
6.3827 7.4302 -1.2906 -0.841 -0.541 0.021 204 183 152 0 0
6.4096 7.3857 -1.3037 -0.564 -0.772 0.293 202 184 154 0 0
6.5472 7.1470 -1.3726 -0.611 -0.790 -0.060 197 180 152 0 0
6.5590 7.1344 -1.3769 -0.429 -0.881 -0.202 195 179 151 0 0
6.6983 7.0628 -1.4114 -0.767 -0.639 0.055 191 174 146 0 0
4.3964 10.4295 -0.4076 -0.613 -0.423 0.667 203 153 135 0 0
4.4045 10.4094 -0.4129 -0.613 -0.423 0.667 206 157 138 0 0
4.7412 10.1076 -0.5230 -0.549 -0.513 0.660 192 143 124 0 0
4.9130 9.9031 -0.5897 -0.326 -0.635 0.700 185 130 109 0 0
5.0672 9.8493 -0.6227 -0.371 -0.614 0.697 184 127 108 0 0
5.2370 9.6706 -0.6838 -0.572 -0.593 0.567 153 101 77 0 0
5.2868 9.6407 -0.6970 -0.476 -0.868 0.137 180 130 109 0 0
5.3180 9.6461 -0.7003 -0.137 -0.950 0.282 188 139 118 0 0
6.2125 8.2889 -1.1077 -0.977 -0.039 0.207 206 178 143 0 0
6.2147 8.2672 -1.1125 -0.993 -0.080 0.081 202 174 137 0 0
6.2160 7.7454 -1.2205 -0.907 -0.353 0.229 202 177 146 0 0
6.3710 7.4480 -1.3039 -0.863 -0.500 -0.075 203 181 150 0 0
6.3907 7.3563 -1.3257 -0.624 -0.751 0.214 198 178 149 0 0
3.2523 11.8714 0.0324 -0.630 -0.162 0.759 247 246 243 0 0
3.2781 11.4408 -0.0597 -0.276 -0.427 0.861 187 137 119 0 0
3.8016 10.8891 -0.2480 -0.193 -0.672 0.715 191 143 121 0 0
4.0745 10.6316 -0.3399 -0.235 -0.714 0.660 186 135 114 0 0
4.4149 10.3694 -0.4425 -0.316 -0.638 0.702 184 133 114 0 0
4.4326 10.3616 -0.4467 -0.347 -0.766 0.540 196 145 128 0 0
4.4918 10.2853 -0.4708 -0.422 -0.647 0.635 197 144 125 0 0
4.5442 10.2606 -0.4834 -0.193 -0.746 0.637 194 145 126 0 0
4.8953 9.8900 -0.6098 -0.326 -0.635 0.700 162 104 83 0 0
5.2288 9.6686 -0.7030 -0.645 -0.730 0.226 165 111 86 0 0
5.2480 9.6615 -0.7072 -0.367 -0.926 0.083 143 88 65 0 0
5.2619 9.6487 -0.7118 -0.449 -0.879 -0.162 186 135 113 0 0
5.2807 9.6410 -0.7161 -0.476 -0.868 0.137 193 145 124 0 0
6.1744 7.8519 -1.2115 -0.856 -0.380 0.351 201 177 144 0 0
6.3040 7.5331 -1.2955 -0.754 -0.654 0.059 208 187 156 0 0
6.5102 7.2350 -1.3863 -0.531 -0.847 0.025 199 182 152 0 0
6.5238 7.2235 -1.3906 -0.568 -0.790 0.232 197 179 149 0 0
6.5358 7.2109 -1.3949 -0.745 -0.634 -0.206 194 177 147 0 0
6.5537 7.2023 -1.3992 -0.747 -0.665 -0.007 192 175 146 0 0
6.7729 7.0596 -1.4599 -0.567 -0.784 -0.251 183 167 137 0 0
3.1384 11.7953 0.0129 0.132 -0.854 -0.503 246 245 243 0 0
3.2594 11.4903 -0.0668 -0.503 -0.285 0.816 198 149 127 0 0
3.2600 11.4199 -0.0812 -0.419 -0.354 0.836 201 155 137 0 0
3.4433 11.2269 -0.1471 -0.568 -0.519 0.639 190 143 123 0 0
3.4521 11.2065 -0.1526 -0.306 -0.574 0.759 197 150 130 0 0
3.7141 10.9333 -0.2461 -0.419 -0.510 0.752 188 136 114 0 0
3.7252 10.9168 -0.2511 -0.419 -0.510 0.752 192 141 120 0 0
3.7602 10.8372 -0.2724 -0.121 -0.973 -0.194 192 141 120 0 0
3.7831 10.8378 -0.2756 0.014 -0.995 -0.097 193 143 122 0 0
4.2054 10.5033 -0.4048 -0.398 -0.362 0.843 183 134 115 0 0
4.3975 10.3547 -0.4629 -0.274 -0.646 0.713 193 144 124 0 0
4.4137 10.3451 -0.4672 -0.093 -0.858 0.505 198 149 130 0 0
4.4738 10.2702 -0.4912 -0.402 -0.578 0.710 178 126 106 0 0
4.5283 10.1888 -0.5156 -0.349 -0.618 0.705 199 150 130 0 0
4.5419 10.1759 -0.5202 -0.349 -0.618 0.705 197 149 130 0 0
4.5573 10.1652 -0.5247 -0.115 -0.795 0.595 176 129 112 0 0
4.5694 10.1504 -0.5294 -0.477 -0.523 0.706 191 143 126 0 0
4.5806 10.1347 -0.5342 -0.478 -0.538 0.695 192 142 123 0 0
4.6813 10.0800 -0.5599 -0.428 -0.522 0.738 195 144 124 0 0
4.8919 9.8647 -0.6343 -0.199 -0.766 0.612 194 136 114 0 0
5.0781 9.6790 -0.6991 -0.150 -0.843 0.516 164 108 86 0 0
5.1171 9.6660 -0.7074 -0.341 -0.856 0.389 162 106 83 0 0
5.2602 9.6260 -0.7362 -0.364 -0.735 0.571 166 114 94 0 0
6.2293 7.6345 -1.2827 -0.751 -0.588 -0.300 195 171 140 0 0
6.2475 7.6263 -1.2870 -0.738 -0.669 -0.090 195 172 140 0 0
6.2568 7.6115 -1.2914 -0.752 -0.652 -0.097 191 168 136 0 0
6.4563 7.3280 -1.3780 -0.773 -0.624 0.114 198 181 153 0 0
6.4643 7.3125 -1.3823 -0.875 -0.480 -0.068 198 181 153 0 0
6.5643 7.1937 -1.4211 -0.646 -0.750 0.141 197 180 150 0 0
3.2211 11.5430 -0.0705 -0.487 -0.312 0.816 202 157 138 0 0
3.7509 10.8317 -0.2919 -0.075 -0.887 0.456 178 126 107 0 0
3.8284 10.7817 -0.3133 -0.500 -0.429 0.753 194 145 123 0 0
4.5186 10.1547 -0.5410 -0.510 -0.643 0.572 185 133 115 0 0
4.5313 10.1407 -0.5457 -0.666 -0.518 0.537 175 126 108 0 0
4.5433 10.1260 -0.5504 -0.559 -0.685 0.467 211 163 145 0 0
4.5562 10.1123 -0.5551 -0.739 -0.451 0.500 214 166 147 0 0
5.0882 9.6414 -0.7280 -0.484 -0.656 0.579 176 118 96 0 0
6.1895 7.8741 -1.2470 -0.915 -0.369 0.163 192 166 133 0 0
6.2521 7.6132 -1.3091 -0.861 -0.482 -0.160 196 173 140 0 0
6.4316 7.3788 -1.3827 -0.600 -0.746 0.288 198 177 148 0 0
6.4538 7.3312 -1.3956 -0.840 -0.537 -0.070 200 182 155 0 0
6.6710 7.1254 -1.4690 -0.591 -0.790 -0.164 189 172 144 0 0
6.8020 7.0471 -1.5039 -0.685 -0.721 0.104 179 161 132 0 0
7.1741 6.9146 -1.5850 -0.619 -0.785 0.027 189 170 140 0 0
8.2277 7.1424 -1.6919 0.400 -0.900 -0.175 250 250 248 0 0
3.1528 11.6177 -0.0653 -0.155 -0.707 0.690 219 202 193 0 0
3.8798 10.7024 -0.3566 -0.251 -0.726 0.640 191 142 120 0 0
4.1818 10.4258 -0.4567 -0.383 -0.509 0.771 202 155 137 0 0
4.1918 10.4084 -0.4617 -0.166 -0.644 0.747 186 139 120 0 0
4.3882 10.2078 -0.5309 -0.373 -0.622 0.688 194 141 123 0 0
4.5181 10.1319 -0.5653 -0.454 -0.470 0.757 190 139 122 0 0
4.5291 10.1160 -0.5701 -0.536 -0.459 0.708 200 150 132 0 0
4.5382 10.0976 -0.5751 -0.536 -0.459 0.708 206 155 136 0 0
5.3941 9.5604 -0.8090 -0.194 -0.892 0.408 169 117 93 0 0
6.1777 8.0741 -1.2238 -0.978 -0.179 0.108 203 178 145 0 0
6.8970 6.9702 -1.5521 -0.493 -0.857 -0.150 189 172 144 0 0
3.1281 11.5846 -0.0883 -0.236 -0.628 0.742 183 153 136 0 0
3.1639 11.5369 -0.1031 -0.209 -0.608 0.766 205 156 137 0 0
4.3725 10.1954 -0.5508 -0.341 -0.667 0.662 179 126 107 0 0
4.4887 10.1326 -0.5805 -0.424 -0.456 0.783 195 143 123 0 0
4.4915 10.1066 -0.5862 -0.330 -0.570 0.752 190 137 120 0 0
4.8238 9.8081 -0.6951 -0.283 -0.630 0.723 187 131 110 0 0
4.8369 9.7949 -0.6997 -0.327 -0.617 0.716 180 125 104 0 0
4.8470 9.7782 -0.7046 -0.357 -0.643 0.678 191 138 117 0 0
5.1404 9.6010 -0.7834 -0.094 -0.773 0.627 183 124 100 0 0
5.1534 9.5875 -0.7881 -0.105 -0.777 0.620 172 114 92 0 0
5.3836 9.5563 -0.8283 -0.194 -0.884 0.426 185 131 107 0 0
6.3942 7.4048 -1.4093 -0.656 -0.703 0.275 197 176 146 0 0
8.1806 7.1252 -1.7291 0.369 -0.893 -0.256 249 249 248 0 0
8.3316 7.1903 -1.7383 0.369 -0.893 -0.256 249 249 249 0 0
3.2894 11.1542 -0.2181 -0.369 -0.527 0.765 197 150 132 0 0
3.8889 10.6041 -0.4170 -0.418 -0.465 0.780 197 141 121 0 0
4.1935 10.3344 -0.5161 -0.061 -0.728 0.682 182 129 108 0 0
4.9668 9.6398 -0.7697 -0.273 -0.549 0.790 176 124 102 0 0
5.1012 9.5931 -0.7990 -0.094 -0.773 0.627 166 109 87 0 0
6.6705 9.1803 -1.1147 -0.622 -0.414 -0.665 253 251 249 0 0
6.1645 8.1437 -1.2463 -0.942 -0.334 0.027 197 171 138 0 0
6.1865 7.8655 -1.3051 -0.952 -0.297 -0.074 198 172 139 0 0
6.2779 7.6260 -1.3665 -0.911 -0.344 0.227 199 175 142 0 0
6.2777 7.5825 -1.3752 -0.867 -0.456 -0.200 196 171 140 0 0
6.4602 7.3086 -1.4570 -0.537 -0.761 -0.364 196 181 152 0 0
7.3051 6.8865 -1.6668 -0.347 -0.932 -0.106 194 174 147 0 0
8.1801 7.1299 -1.7483 0.353 -0.878 -0.322 249 249 247 0 0
8.3286 7.1936 -1.7577 0.352 -0.877 -0.328 250 250 250 0 0
3.3607 11.0374 -0.2715 -0.242 -0.667 0.704 185 135 112 0 0
3.5537 10.8346 -0.3407 -0.669 -0.390 0.632 198 146 122 0 0
3.8698 10.5852 -0.4375 -0.553 -0.418 0.721 181 129 108 0 0
4.1809 10.2952 -0.5416 -0.390 -0.541 0.745 185 131 110 0 0
4.7002 9.8215 -0.7134 -0.300 -0.739 0.603 186 128 104 0 0
4.7161 9.8115 -0.7177 -0.300 -0.739 0.603 180 124 100 0 0
4.8050 9.7725 -0.7388 -0.926 -0.362 -0.107 182 127 106 0 0
4.8130 9.7535 -0.7438 -0.926 -0.362 -0.107 189 136 115 0 0
4.9462 9.6239 -0.7894 -0.150 -0.712 0.685 193 141 119 0 0
4.9799 9.6057 -0.7981 -0.227 -0.645 0.729 170 118 97 0 0
4.9955 9.5953 -0.8025 -0.227 -0.645 0.729 183 135 114 0 0
5.0140 9.5880 -0.8067 -0.431 -0.476 0.766 197 148 128 0 0
5.3846 9.5161 -0.8765 -0.085 -0.862 0.499 175 130 108 0 0
6.6243 9.1466 -1.1355 -0.947 0.317 -0.058 254 250 249 0 0
6.1620 7.9191 -1.3098 -0.778 -0.575 0.255 195 170 139 0 0
6.2306 7.7051 -1.3625 -0.697 -0.710 -0.101 192 169 137 0 0
6.2805 7.5896 -1.3929 -0.882 -0.404 -0.241 194 169 137 0 0
6.4096 7.3622 -1.4573 -0.799 -0.590 -0.118 191 172 140 0 0
6.4383 7.3402 -1.4660 -0.602 -0.792 -0.103 193 177 146 0 0
6.6410 7.1248 -1.5391 -0.592 -0.776 -0.218 196 179 151 0 0
6.7726 7.0676 -1.5701 -0.492 -0.807 0.327 186 171 142 0 0
6.8966 6.9841 -1.6053 -0.492 -0.859 -0.144 188 172 145 0 0
8.2008 7.1466 -1.7684 0.345 -0.871 -0.350 250 249 248 0 0
8.2900 7.1551 -1.7801 0.231 -0.697 -0.679 249 249 249 0 0
2.9808 11.7613 -0.0909 -0.461 -0.336 0.821 246 245 243 0 0
2.9759 11.7154 -0.0993 -0.084 -0.642 0.762 246 245 245 0 0
3.2350 11.1182 -0.2561 -0.617 -0.327 0.716 199 152 133 0 0
3.3270 11.0268 -0.2881 -0.328 -0.665 0.671 185 137 114 0 0
3.4606 10.9328 -0.3267 -0.242 -0.860 0.449 191 136 116 0 0
3.5419 10.8251 -0.3603 -0.682 -0.445 0.581 184 128 104 0 0
3.5474 10.8006 -0.3659 -0.591 -0.485 0.644 193 136 112 0 0
3.8301 10.6005 -0.4480 -0.399 -0.540 0.742 207 158 136 0 0
3.8409 10.5842 -0.4529 -0.481 -0.477 0.736 197 148 127 0 0
3.8532 10.5699 -0.4576 -0.446 -0.495 0.746 193 142 122 0 0
3.8766 10.5397 -0.4670 -0.410 -0.438 0.800 181 124 100 0 0
3.8861 10.5217 -0.4720 -0.410 -0.438 0.800 185 126 102 0 0
4.0153 10.4191 -0.5118 -0.409 -0.525 0.746 183 136 118 0 0
4.0341 10.4135 -0.5157 -0.651 -0.463 0.601 191 145 127 0 0
4.0429 10.3946 -0.5208 -0.651 -0.463 0.601 181 135 119 0 0
4.0968 10.3137 -0.5448 -0.288 -0.584 0.759 194 145 128 0 0
4.1703 10.2588 -0.5668 -0.495 -0.474 0.729 181 130 109 0 0
4.1931 10.2282 -0.5762 -0.346 -0.464 0.815 185 133 112 0 0
4.3904 10.0626 -0.6387 -0.399 -0.502 0.767 207 156 136 0 0
4.6651 9.8160 -0.7287 -0.325 -0.662 0.675 190 134 114 0 0
4.6804 9.8056 -0.7331 -0.339 -0.663 0.667 180 125 103 0 0
4.6860 9.7838 -0.7383 -0.340 -0.724 0.600 176 123 99 0 0
4.8207 9.6574 -0.7835 -0.401 -0.511 0.761 190 138 116 0 0
5.2617 9.5037 -0.8804 -0.385 -0.715 0.584 187 136 115 0 0
6.6279 9.1561 -1.1551 -0.952 0.304 -0.027 251 250 248 0 0
6.2051 8.3517 -1.2499 -0.990 -0.139 -0.005 195 166 132 0 0
6.1628 8.1765 -1.2781 -0.934 -0.332 -0.136 198 172 137 0 0
6.2215 7.7034 -1.3803 -0.652 -0.735 0.189 190 166 135 0 0
6.2373 7.6934 -1.3846 -0.651 -0.703 0.285 192 169 137 0 0
6.2475 7.6791 -1.3890 -0.683 -0.704 -0.195 195 172 140 0 0
6.2909 7.6025 -1.4106 -0.946 -0.227 -0.229 193 170 137 0 0
6.2960 7.5845 -1.4149 -0.892 -0.254 -0.375 193 170 136 0 0
6.4238 7.3351 -1.4834 -0.662 -0.709 -0.242 191 173 143 0 0
6.4401 7.3254 -1.4878 -0.855 -0.496 0.153 191 174 146 0 0
8.2383 7.1731 -1.7892 0.350 -0.864 -0.363 250 249 246 0 0
2.9900 11.7499 -0.1145 -0.616 -0.183 0.766 247 245 244 0 0
3.6645 10.6901 -0.4248 -0.573 -0.310 0.759 196 149 129 0 0
3.8348 10.5520 -0.4778 -0.532 -0.353 0.770 191 139 118 0 0
4.7920 9.6597 -0.7982 -0.427 -0.672 0.605 190 135 112 0 0
4.8041 9.6456 -0.8028 -0.544 -0.633 0.551 189 136 112 0 0
4.8198 9.6355 -0.8072 -0.537 -0.577 0.615 186 133 111 0 0
5.2440 9.4919 -0.8998 -0.354 -0.781 0.515 184 136 114 0 0
5.3117 9.5082 -0.9069 -0.355 -0.731 0.582 184 139 119 0 0
6.7177 9.2402 -1.1732 -0.968 0.190 0.167 251 250 248 0 0
6.7878 9.2481 -1.1823 -0.758 0.615 0.217 252 250 246 0 0
6.2044 8.3568 -1.2684 -0.990 -0.139 -0.005 195 166 132 0 0
6.1682 8.1632 -1.3008 -0.979 -0.190 0.079 197 170 136 0 0
6.2158 7.7263 -1.3937 -0.828 -0.561 -0.009 193 169 134 0 0
6.2585 7.6925 -1.4068 -0.508 -0.765 -0.396 198 175 142 0 0
6.3787 7.4138 -1.4797 -0.771 -0.624 0.125 190 169 138 0 0
6.8062 7.0580 -1.6145 -0.801 -0.599 0.027 186 171 142 0 0
6.8164 7.0442 -1.6187 -0.611 -0.792 -0.002 190 175 145 0 0
8.2302 7.1734 -1.8083 0.326 -0.842 -0.431 249 249 248 0 0
8.3720 7.2333 -1.8181 0.326 -0.842 -0.431 249 249 249 0 0
2.8078 11.5080 -0.1537 -0.575 -0.603 -0.553 246 245 244 0 0
3.1758 11.1082 -0.2880 -0.468 -0.512 0.720 196 150 130 0 0
3.1866 11.0914 -0.2929 -0.468 -0.512 0.720 181 134 113 0 0
3.3650 10.9354 -0.3507 -0.778 -0.455 0.434 203 155 132 0 0
3.4520 10.8701 -0.3767 -0.419 -0.514 0.748 155 103 81 0 0
3.4926 10.8330 -0.3901 -0.503 -0.592 0.629 160 104 83 0 0
3.5005 10.8122 -0.3954 -0.310 -0.622 0.719 171 115 94 0 0
3.5152 10.8016 -0.3997 -0.662 -0.489 0.568 154 98 76 0 0
3.6551 10.6845 -0.4440 -0.803 -0.214 0.556 208 163 144 0 0
3.6608 10.6608 -0.4495 -0.683 -0.340 0.646 195 150 130 0 0
3.6695 10.6415 -0.4546 -0.530 -0.590 0.609 192 145 123 0 0
3.6754 10.6181 -0.4600 -0.481 -0.488 0.729 181 133 111 0 0
3.9930 10.3736 -0.5563 -0.460 -0.478 0.748 180 133 117 0 0
4.5437 9.8580 -0.7411 -0.471 -0.420 0.776 194 142 124 0 0
5.1920 9.4982 -0.9105 -0.180 -0.832 0.524 175 126 104 0 0
5.2319 9.4858 -0.9190 -0.210 -0.878 0.430 169 122 99 0 0
5.2503 9.4780 -0.9233 -0.027 -0.945 0.326 177 130 109 0 0
6.7209 9.2493 -1.1930 -0.841 0.099 0.532 251 250 248 0 0
6.2288 8.4542 -1.2726 -0.967 -0.107 0.230 193 163 128 0 0
6.1902 7.8673 -1.3811 -0.963 -0.261 -0.068 188 163 127 0 0
6.2123 7.7289 -1.4115 -0.633 -0.774 -0.013 191 167 132 0 0
6.2843 7.5862 -1.4503 -0.907 -0.407 -0.106 196 173 141 0 0
6.3004 7.5548 -1.4589 -0.786 -0.476 -0.394 195 173 142 0 0
6.4384 7.3341 -1.5230 -0.787 -0.556 -0.268 190 173 145 0 0
8.4126 7.2616 -1.8394 0.320 -0.828 -0.461 249 249 249 0 0
3.4183 10.8931 -0.3865 -0.166 -0.698 0.696 191 137 113 0 0
3.4224 10.8663 -0.3923 -0.413 -0.468 0.781 188 134 111 0 0
3.4359 10.8539 -0.3968 -0.419 -0.514 0.748 188 135 113 0 0
3.6392 10.6695 -0.4639 -0.669 -0.318 0.672 203 158 139 0 0
3.6904 10.5841 -0.4883 -0.623 -0.651 0.435 198 149 127 0 0
3.7080 10.5777 -0.4923 -0.329 -0.898 0.291 192 141 122 0 0
3.8748 10.4051 -0.5514 -0.343 -0.564 0.751 177 130 112 0 0
4.1935 10.1317 -0.6535 -0.339 -0.545 0.767 190 138 119 0 0
4.4111 9.9354 -0.7251 -0.176 -0.690 0.702 188 141 123 0 0
5.0039 9.4946 -0.9019 -0.297 -0.751 0.589 170 120 98 0 0
5.1715 9.4832 -0.9300 -0.269 -0.737 0.619 187 135 114 0 0
5.2151 9.4748 -0.9383 -0.178 -0.856 0.486 184 135 114 0 0
6.7128 9.2486 -1.2130 -0.831 0.071 0.552 250 250 248 0 0
6.7921 9.2645 -1.2222 -0.763 0.618 0.189 251 250 245 0 0
6.2294 8.4605 -1.2912 -0.990 -0.057 0.129 199 169 135 0 0
6.2251 8.4090 -1.3005 -0.963 -0.164 -0.212 193 164 128 0 0
6.1760 8.2272 -1.3282 -0.667 -0.490 -0.561 187 158 124 0 0
6.1790 8.0448 -1.3640 -0.848 -0.319 -0.424 195 167 134 0 0
6.3123 7.5686 -1.4768 -0.843 -0.479 -0.244 192 169 138 0 0
6.4406 7.3406 -1.5407 -0.700 -0.669 -0.249 186 169 141 0 0
6.5984 7.1776 -1.5967 -0.673 -0.739 0.028 186 170 144 0 0
6.6495 7.1292 -1.6139 -0.484 -0.874 0.034 187 171 144 0 0
6.8189 7.0554 -1.6543 -0.729 -0.674 0.118 188 171 143 0 0
6.8394 7.0277 -1.6629 -0.528 -0.844 -0.095 188 171 145 0 0
7.2301 6.9255 -1.7429 -0.657 -0.732 -0.182 183 167 137 0 0
3.4104 10.8562 -0.4118 -0.522 -0.420 0.742 194 140 116 0 0
3.4202 10.8382 -0.4168 -0.427 -0.517 0.742 193 139 118 0 0
3.4217 10.8076 -0.4229 -0.612 -0.292 0.735 187 136 113 0 0
3.4574 10.7962 -0.4307 -0.359 -0.676 0.643 172 122 99 0 0
3.5318 10.6804 -0.4645 -0.288 -0.598 0.748 195 148 126 0 0
3.8494 10.4089 -0.5661 -0.528 -0.420 0.738 196 147 127 0 0
4.0414 10.2406 -0.6284 -0.394 -0.549 0.737 177 129 110 0 0
4.0568 10.2308 -0.6326 -0.202 -0.732 0.651 166 115 94 0 0
4.0665 10.2135 -0.6375 -0.237 -0.669 0.704 176 122 101 0 0
4.0819 10.2036 -0.6418 -0.237 -0.669 0.704 157 104 83 0 0
4.0804 10.1718 -0.6477 -0.015 -0.779 0.626 180 128 107 0 0
4.0916 10.1565 -0.6523 -0.204 -0.731 0.652 176 124 103 0 0
4.1586 10.1538 -0.6633 -0.482 -0.464 0.743 186 134 113 0 0
5.2259 9.4657 -0.9615 0.190 -0.974 0.122 172 125 105 0 0
6.2179 8.4327 -1.3145 -1.000 -0.024 -0.004 196 167 133 0 0
6.1699 8.2512 -1.3420 -0.667 -0.490 -0.561 192 164 128 0 0
6.1711 8.1822 -1.3555 -0.949 -0.211 -0.234 190 162 127 0 0
6.1887 8.0350 -1.3865 -0.887 -0.442 -0.135 189 160 128 0 0
6.3235 7.5603 -1.4989 -0.843 -0.479 -0.244 192 167 136 0 0
6.3559 7.4764 -1.5201 -0.832 -0.411 -0.373 188 163 132 0 0
6.5773 7.1890 -1.6098 -0.797 -0.603 0.032 190 173 145 0 0
6.5884 7.1758 -1.6141 -0.710 -0.676 0.199 182 165 137 0 0
6.6799 7.1748 -1.6285 -0.685 -0.706 0.180 187 171 145 0 0
6.7891 7.0818 -1.6633 -0.800 -0.599 -0.035 190 173 145 0 0
7.1608 6.9489 -1.7466 -0.597 -0.801 0.040 183 167 138 0 0
7.1767 6.9383 -1.7511 -0.763 -0.643 -0.066 185 168 140 0 0
7.2048 6.9352 -1.7561 -0.521 -0.802 -0.293 183 166 137 0 0
7.2219 6.9253 -1.7607 -0.630 -0.776 -0.033 185 168 140 0 0
2.9235 11.1999 -0.2893 -0.322 -0.532 0.784 181 131 110 0 0
3.4442 10.7846 -0.4502 -0.359 -0.676 0.643 190 137 114 0 0
3.8251 10.4139 -0.5807 -0.644 -0.502 0.578 179 128 107 0 0
3.8337 10.3949 -0.5857 -0.621 -0.371 0.691 185 136 115 0 0
3.8392 10.3716 -0.5910 -0.392 -0.506 0.769 180 132 111 0 0
4.0062 10.2318 -0.6439 -0.322 -0.594 0.738 197 148 128 0 0
4.0258 10.2276 -0.6478 -0.199 -0.656 0.728 181 134 113 0 0
4.2361 10.0238 -0.7197 -0.405 -0.594 0.695 175 122 101 0 0
4.2923 9.9773 -0.7373 -0.275 -0.583 0.765 161 111 90 0 0
4.6683 9.6026 -0.8679 -0.119 -0.689 0.715 188 137 115 0 0
6.6807 9.2334 -1.2532 -0.985 0.147 -0.090 249 249 248 0 0
6.7797 9.2665 -1.2624 -0.780 0.622 0.068 250 249 245 0 0
6.7115 9.1813 -1.2680 -0.779 0.621 0.085 250 250 243 0 0
6.2112 7.9671 -1.4222 -0.667 -0.733 -0.132 183 157 124 0 0
6.1947 7.7975 -1.4521 -0.720 -0.600 -0.348 187 163 128 0 0
6.2073 7.7849 -1.4565 -0.720 -0.600 -0.348 196 172 139 0 0
6.2197 7.7722 -1.4608 -0.698 -0.614 -0.370 191 166 135 0 0
6.2408 7.7661 -1.4653 -0.775 -0.614 -0.149 187 162 131 0 0
6.2444 7.7467 -1.4696 -0.824 -0.553 -0.122 187 161 129 0 0
6.3011 7.5923 -1.5080 -0.670 -0.709 -0.220 195 172 140 0 0
6.3156 7.5813 -1.5124 -0.517 -0.848 -0.117 193 168 138 0 0
6.4566 7.3406 -1.5805 -0.661 -0.699 -0.274 188 169 140 0 0
6.6727 7.1749 -1.6460 -0.727 -0.685 0.056 187 172 145 0 0
7.1551 6.9502 -1.7645 -0.685 -0.728 0.037 183 168 139 0 0
7.1883 6.9501 -1.7697 -0.648 -0.753 0.110 184 169 140 0 0
7.2026 6.9386 -1.7741 -0.634 -0.767 -0.100 185 168 139 0 0
3.0618 11.0592 -0.3571 -0.237 -0.631 0.738 183 132 111 0 0
3.1604 10.9478 -0.3938 -0.533 -0.369 0.762 190 140 117 0 0
3.1717 10.9322 -0.3986 -0.442 -0.385 0.810 184 133 112 0 0
3.2992 10.8333 -0.4374 -0.552 -0.415 0.723 186 132 109 0 0
3.7681 10.4045 -0.5929 -0.437 -0.448 0.780 195 144 123 0 0
3.8101 10.4009 -0.6002 -0.692 -0.450 0.564 182 132 111 0 0
3.9345 10.2645 -0.6457 -0.279 -0.677 0.681 194 147 128 0 0
3.9444 10.2475 -0.6505 -0.249 -0.628 0.737 192 142 121 0 0
3.9550 10.2315 -0.6552 -0.218 -0.721 0.658 190 139 117 0 0
3.9686 10.2195 -0.6596 -0.059 -0.886 0.460 181 130 108 0 0
4.0163 10.1925 -0.6723 -0.333 -0.653 0.680 182 136 117 0 0
4.0394 10.1629 -0.6815 -0.551 -0.567 0.612 197 151 131 0 0
4.2562 9.9687 -0.7526 -0.198 -0.588 0.784 187 136 117 0 0
4.5385 9.6823 -0.8516 -0.170 -0.717 0.675 185 135 114 0 0
4.5546 9.6732 -0.8559 -0.002 -0.807 0.590 189 138 117 0 0
4.8206 9.4782 -0.9348 -0.244 -0.914 0.325 191 144 122 0 0
4.8415 9.4739 -0.9389 -0.123 -0.923 0.365 182 133 110 0 0
4.8599 9.4670 -0.9432 -0.407 -0.908 0.096 180 130 107 0 0
5.0992 9.4537 -0.9834 -0.171 -0.852 0.495 175 125 102 0 0
6.7402 10.3568 -1.0700 0.078 -0.863 -0.499 116 73 57 0 0
6.6867 9.2186 -1.2781 -0.925 0.323 -0.201 250 249 246 0 0
6.7905 9.2822 -1.2823 -0.796 0.603 0.052 251 250 246 0 0
6.1614 8.1391 -1.4008 -0.940 -0.311 0.137 187 158 124 0 0
6.1683 8.1215 -1.4052 -0.907 -0.400 0.128 187 158 125 0 0
6.2096 7.9713 -1.4403 -0.814 -0.580 -0.018 180 154 121 0 0
6.3051 7.5787 -1.5300 -0.622 -0.711 -0.328 189 165 135 0 0
6.5252 7.3301 -1.6120 -0.667 -0.724 -0.174 186 169 140 0 0
7.1608 6.9584 -1.7828 -0.630 -0.743 -0.225 184 167 139 0 0
7.1850 6.9529 -1.7876 -0.630 -0.757 -0.174 184 169 140 0 0
7.2006 6.9421 -1.7921 -0.468 -0.810 -0.354 189 172 144 0 0
7.2215 6.9345 -1.7969 -0.452 -0.869 0.200 189 173 145 0 0
3.0217 11.0360 -0.3744 -0.506 -0.630 0.589 187 136 115 0 0
3.0361 11.0256 -0.3786 -0.368 -0.828 0.423 188 137 115 0 0
3.0951 11.0200 -0.3890 -0.278 -0.719 0.637 193 145 123 0 0
3.1407 10.9246 -0.4143 -0.440 -0.471 0.765 180 130 108 0 0
3.1508 10.9072 -0.4192 -0.440 -0.471 0.765 188 137 116 0 0
3.2334 10.8381 -0.4453 -0.018 -0.936 0.353 193 142 120 0 0
3.2468 10.8260 -0.4498 -0.113 -0.810 0.575 194 143 121 0 0
3.2834 10.8171 -0.4573 -0.400 -0.638 0.658 174 118 97 0 0
3.3091 10.7583 -0.4725 -0.492 -0.422 0.762 200 145 122 0 0
3.3303 10.7581 -0.4758 -0.281 -0.695 0.662 183 129 107 0 0
3.4899 10.6106 -0.5290 -0.332 -0.588 0.737 181 133 113 0 0
3.8092 10.3458 -0.6298 -0.457 -0.462 0.760 181 131 112 0 0
3.8799 10.2896 -0.6516 -0.613 -0.645 0.455 186 138 118 0 0
3.8892 10.2718 -0.6564 -0.695 -0.428 0.578 190 142 123 0 0
3.9058 10.2638 -0.6606 -0.640 -0.417 0.646 201 152 135 0 0
4.0151 10.1684 -0.6959 -0.333 -0.653 0.680 186 139 120 0 0
4.0343 10.1637 -0.6999 -0.461 -0.575 0.676 184 138 117 0 0
4.5310 9.6527 -0.8753 -0.233 -0.548 0.803 188 137 116 0 0
4.5424 9.6380 -0.8798 -0.067 -0.681 0.729 182 129 107 0 0
4.7872 9.4752 -0.9494 -0.058 -0.886 0.459 187 140 119 0 0
4.8086 9.4717 -0.9535 -0.058 -0.886 0.459 190 144 122 0 0
