ply
format ascii 1.0
element vertex 813
property float x
property float y
property float z
property float nx
property float ny
property float nz
property uchar diffuse_red
property uchar diffuse_green
property uchar diffuse_blue
property uchar class
property uchar detection
end_header
1.9317 8.3841 -2.6030 -0.212 -0.838 0.502 173 119 99 0 0
3.7391 9.6832 -3.1145 0.361 -0.722 -0.590 195 185 176 0 0
3.7927 9.7198 -3.1298 0.389 -0.737 -0.553 196 186 177 0 0
3.7151 9.5750 -3.1143 0.481 -0.869 -0.115 198 188 178 0 0
3.6993 9.4253 -3.1197 0.153 -0.824 0.545 203 193 183 0 0
3.7014 9.4018 -3.1221 -0.531 0.092 0.842 202 192 182 0 0
3.6849 9.3570 -3.1198 -0.265 -0.594 0.760 202 192 183 0 0
3.6859 9.3323 -3.1219 -0.589 -0.128 0.798 203 193 184 0 0
3.7181 9.3178 -3.1338 -0.494 -0.327 0.806 205 196 187 0 0
2.6463 7.6495 -2.8950 -0.987 -0.156 -0.031 206 173 138 0 0
2.6491 7.6320 -2.8972 -0.987 -0.156 -0.031 202 170 134 0 0
2.5623 7.3795 -2.8863 -0.968 -0.139 -0.207 210 184 150 0 0
2.5598 7.1633 -2.9010 -0.959 -0.184 -0.214 212 188 154 0 0
2.5540 6.8591 -2.9210 -0.852 -0.485 -0.195 207 183 149 0 0
2.5602 6.8468 -2.9239 -0.879 -0.380 -0.287 208 184 150 0 0
2.6038 6.6024 -2.9561 -0.894 -0.414 -0.174 209 185 153 0 0
2.6084 6.5891 -2.9586 -0.871 -0.426 -0.243 208 187 154 0 0
2.6628 6.4478 -2.9870 -0.779 -0.612 0.137 201 177 144 0 0
2.7585 6.3107 -3.0289 -0.802 -0.595 0.058 198 172 135 0 0
2.7755 6.2917 -3.0359 -0.517 -0.849 0.109 200 174 138 0 0
2.7771 6.2763 -3.0376 -0.741 -0.617 0.264 195 170 135 0 0
2.7801 6.2623 -3.0396 -0.701 -0.707 -0.092 198 174 137 0 0
2.7984 6.2444 -3.0470 -0.770 -0.633 -0.079 204 178 141 0 0
2.9197 6.1459 -3.0947 -0.740 -0.642 -0.202 205 182 145 0 0
3.2234 5.9119 -3.2132 -0.502 -0.843 -0.193 187 167 134 0 0
3.2648 5.8787 -3.2294 -0.710 -0.627 -0.322 190 171 140 0 0
3.5594 5.8336 -3.3313 -0.339 -0.785 -0.519 191 174 148 0 0
1.0366 9.6873 -2.2254 -0.933 -0.336 -0.127 190 139 120 0 0
1.1596 9.4562 -2.2830 -0.843 -0.358 -0.402 172 118 98 0 0
1.1828 9.4139 -2.2938 -0.739 -0.635 -0.226 179 124 103 0 0
1.3122 9.0955 -2.3598 -0.674 -0.680 -0.288 185 133 112 0 0
1.3251 9.0904 -2.3645 -0.714 -0.631 -0.304 176 123 102 0 0
1.3531 9.0578 -2.3762 -0.746 -0.635 -0.200 193 139 120 0 0
1.5614 8.7008 -2.4715 -0.690 -0.670 0.272 206 151 130 0 0
1.9256 8.3827 -2.6163 -0.020 -0.913 0.407 161 108 89 0 0
3.7824 9.7694 -3.1419 0.414 -0.655 -0.632 193 183 174 0 0
3.5714 9.4656 -3.0925 0.453 -0.814 0.363 198 188 178 0 0
3.6691 9.3462 -3.1338 -0.265 -0.594 0.760 202 193 184 0 0
3.6891 9.2921 -3.1444 -0.404 -0.374 0.835 205 197 187 0 0
3.6864 9.2634 -3.1455 -0.455 -0.169 0.874 205 198 190 0 0
2.6538 7.6428 -2.9133 -0.977 -0.173 -0.123 206 175 140 0 0
2.5685 7.1775 -2.9176 -0.860 -0.200 -0.470 211 187 153 0 0
2.5640 7.1347 -2.9191 -0.908 -0.140 -0.396 213 187 154 0 0
2.5612 7.1130 -2.9197 -0.854 -0.396 -0.337 212 186 153 0 0
2.5717 6.8448 -2.9423 -0.661 -0.574 -0.483 211 187 153 0 0
2.6129 6.6156 -2.9723 -0.850 -0.244 -0.466 209 186 154 0 0
2.9151 6.1467 -3.1070 -0.718 -0.671 -0.185 191 165 129 0 0
3.1202 5.9510 -3.1898 -0.459 -0.888 -0.014 183 163 131 0 0
3.1322 5.9441 -3.1943 -0.482 -0.875 -0.033 188 168 136 0 0
3.1373 5.9320 -3.1969 -0.533 -0.812 0.235 190 170 138 0 0
3.2443 5.9156 -3.2340 -0.599 -0.777 -0.193 189 170 139 0 0
3.4155 5.8485 -3.2962 -0.629 -0.568 -0.531 193 172 147 0 0
3.5445 5.8434 -3.3399 -0.256 -0.826 -0.503 195 178 152 0 0
0.7299 10.4392 -2.0853 -0.773 -0.456 -0.441 176 122 101 0 0
0.8238 10.2495 -2.1302 -0.916 -0.297 -0.269 170 114 97 0 0
1.3441 9.0770 -2.3873 -0.860 -0.423 -0.285 188 132 112 0 0
1.3543 9.0676 -2.3914 -0.789 -0.529 -0.314 190 134 116 0 0
1.5211 8.7458 -2.4700 -0.650 -0.754 0.092 195 148 128 0 0
1.5415 8.7272 -2.4782 -0.650 -0.754 0.092 198 148 129 0 0
1.7024 8.5035 -2.5480 -0.615 -0.789 0.007 162 111 89 0 0
1.8842 8.3801 -2.6179 -0.011 -0.945 0.326 193 143 123 0 0
2.2194 8.5906 -2.7162 0.446 -0.808 -0.385 153 106 88 0 0
3.6816 9.4198 -3.1514 -0.487 -0.067 0.871 201 193 182 0 0
3.6968 9.3597 -3.1607 -0.530 0.050 0.847 204 195 188 0 0
3.6648 9.2462 -3.1578 -0.405 -0.240 0.882 205 198 190 0 0
2.6562 7.6513 -2.9289 -0.973 -0.011 -0.230 201 172 135 0 0
2.5698 7.1459 -2.9349 -0.956 -0.144 -0.255 210 185 151 0 0
2.5677 6.9562 -2.9475 -0.974 -0.221 0.058 208 185 150 0 0
2.5715 6.8498 -2.9562 -0.730 -0.476 -0.491 211 187 153 0 0
2.6222 6.5939 -2.9911 -0.861 -0.410 -0.301 206 183 151 0 0
2.7004 6.4562 -3.0270 -0.652 -0.589 -0.477 204 180 147 0 0
2.6988 6.4207 -3.0290 -0.827 -0.431 -0.361 201 177 145 0 0
3.0161 6.0684 -3.1605 -0.817 -0.576 0.036 194 171 140 0 0
3.0817 5.9742 -3.1891 -0.739 -0.670 0.074 190 169 138 0 0
3.7807 5.8652 -3.4324 -0.309 -0.807 -0.504 196 178 153 0 0
0.8194 10.2821 -2.1426 -0.895 -0.337 -0.292 165 111 93 0 0
0.8268 10.2655 -2.1462 -0.895 -0.337 -0.292 175 121 103 0 0
1.0731 9.6856 -2.2693 -0.697 -0.546 -0.464 168 116 94 0 0
1.1521 9.5719 -2.3038 -0.497 -0.850 -0.174 182 129 111 0 0
1.3906 8.9785 -2.4251 -0.923 -0.332 -0.195 161 109 88 0 0
1.6041 8.6322 -2.5211 -0.693 -0.716 0.084 180 128 107 0 0
3.5675 9.3721 -3.1346 -0.133 -0.775 0.618 200 190 178 0 0
2.5657 7.1855 -2.9455 -0.892 -0.414 -0.181 212 188 154 0 0
2.5719 7.1725 -2.9485 -0.871 -0.401 -0.283 208 184 150 0 0
2.5725 7.1541 -2.9500 -0.956 -0.144 -0.255 208 184 148 0 0
2.5731 7.1356 -2.9514 -0.969 -0.122 0.216 211 187 151 0 0
2.7516 6.3356 -3.0666 -0.741 -0.618 -0.262 205 182 149 0 0
2.8522 6.2198 -3.1086 -0.703 -0.711 0.002 201 178 147 0 0
2.8614 6.2108 -3.1123 -0.703 -0.711 0.002 201 178 146 0 0
2.9263 6.1158 -3.1408 -0.804 -0.585 -0.109 193 170 137 0 0
2.9484 6.1171 -3.1482 -0.768 -0.627 -0.131 196 173 141 0 0
2.9703 6.1018 -3.1566 -0.602 -0.730 -0.323 195 175 143 0 0
3.4247 5.8635 -3.3267 -0.489 -0.600 -0.634 188 168 140 0 0
3.7860 5.8731 -3.4483 -0.309 -0.807 -0.504 196 179 154 0 0
3.8283 5.8694 -3.4629 -0.155 -0.879 -0.451 195 178 154 0 0
1.0111 9.8417 -2.2535 -0.837 -0.489 -0.246 175 122 103 0 0
1.1374 9.5825 -2.3138 -0.497 -0.850 -0.174 183 130 112 0 0
1.1497 9.5763 -2.3184 -0.497 -0.850 -0.174 179 126 108 0 0
1.5778 8.6492 -2.5262 -0.737 -0.676 -0.003 202 150 128 0 0
1.5924 8.6463 -2.5314 -0.730 -0.683 0.028 182 129 107 0 0
1.6014 8.6354 -2.5352 -0.712 -0.702 -0.023 180 127 104 0 0
1.7579 8.4071 -2.6037 -0.360 -0.741 0.567 192 144 123 0 0
1.7680 8.3977 -2.6077 -0.671 -0.586 0.454 179 134 115 0 0
1.7885 8.3795 -2.6159 -0.383 -0.879 0.285 199 159 139 0 0
3.7369 9.7386 -3.1859 0.433 -0.734 -0.524 195 184 174 0 0
3.8022 9.5485 -3.2208 -0.604 0.438 0.665 203 194 185 0 0
2.5913 7.3728 -2.9563 -0.984 -0.058 0.171 211 185 152 0 0
2.5904 7.1775 -2.9692 -0.989 -0.110 0.103 211 187 152 0 0
2.6273 6.6965 -3.0141 -0.938 -0.288 0.194 209 185 153 0 0
2.7001 6.4827 -3.0532 -0.617 -0.694 -0.371 202 178 144 0 0
2.7990 6.2799 -3.1005 -0.593 -0.655 -0.467 202 179 148 0 0
2.8881 6.1878 -3.1369 -0.593 -0.671 -0.445 200 178 147 0 0
2.9091 6.1391 -3.1473 -0.751 -0.535 -0.386 194 171 139 0 0
4.0060 5.9107 -3.5351 -0.180 -0.841 -0.510 194 178 153 0 0
4.2531 5.9732 -3.6148 -0.086 -0.794 -0.602 199 182 158 0 0
0.6751 10.6510 -2.1013 -0.821 -0.463 -0.335 166 114 93 0 0
0.6841 10.6032 -2.1075 -0.772 -0.463 -0.435 177 126 106 0 0
0.9547 10.0124 -2.2388 -0.513 -0.859 0.004 180 127 109 0 0
1.0920 9.6801 -2.3076 -0.711 -0.634 -0.304 181 124 106 0 0
1.1026 9.6707 -2.3118 -0.841 -0.540 -0.032 195 140 123 0 0
1.5468 8.7079 -2.5270 -0.824 -0.565 -0.042 179 132 115 0 0
1.6787 8.4908 -2.5863 -0.417 -0.762 0.496 179 131 110 0 0
1.7544 8.4090 -2.6175 -0.587 -0.806 -0.078 197 148 127 0 0
1.7616 8.3957 -2.6208 -0.718 -0.660 0.220 198 152 135 0 0
3.6487 9.6143 -3.1831 0.495 -0.764 -0.413 198 185 176 0 0
3.7793 9.5295 -3.2332 -0.620 0.446 0.646 202 193 184 0 0
3.6932 9.3778 -3.2139 -0.558 0.301 0.773 205 196 187 0 0
3.4958 9.0255 -3.1700 -0.794 0.603 0.075 208 200 192 0 0
2.5841 6.8955 -3.0004 -0.879 -0.202 -0.432 210 187 154 0 0
2.5897 6.8826 -3.0032 -0.848 -0.275 -0.453 207 184 150 0 0
2.5980 6.8540 -3.0079 -0.953 -0.195 -0.230 210 187 154 0 0
2.6470 6.6137 -3.0405 -0.412 -0.723 -0.555 206 181 148 0 0
2.7276 6.4772 -3.0770 -0.744 -0.565 -0.357 200 176 142 0 0
2.8254 6.2566 -3.1250 -0.911 -0.331 -0.248 199 178 147 0 0
2.8314 6.2449 -3.1278 -0.805 -0.521 -0.285 200 179 148 0 0
3.1058 6.0056 -3.2371 -0.604 -0.468 -0.645 192 171 144 0 0
3.3219 5.9258 -3.3161 -0.501 -0.695 -0.516 189 168 139 0 0
3.8156 5.8856 -3.4869 -0.249 -0.832 -0.496 193 177 152 0 0
0.5615 11.1787 -2.0445 -0.857 -0.104 -0.505 241 240 236 0 0
0.5778 11.1811 -2.0499 -0.876 -0.198 -0.440 241 240 236 0 0
1.2005 9.4588 -2.3749 -0.740 -0.611 -0.281 174 119 98 0 0
1.2464 9.4280 -2.3926 -0.684 -0.660 -0.312 168 113 92 0 0
1.2969 9.2690 -2.4202 -0.850 -0.527 -0.011 166 112 95 0 0
1.6513 8.5060 -2.5911 -0.526 -0.796 0.299 168 116 97 0 0
1.6678 8.4822 -2.5982 -0.601 -0.682 0.418 196 159 136 0 0
1.7561 8.3950 -2.6341 -0.572 -0.775 0.268 190 141 124 0 0
1.7910 8.3733 -2.6475 -0.556 -0.798 0.230 164 120 103 0 0
3.6789 9.5517 -3.2163 0.416 -0.702 -0.577 199 189 179 0 0
2.6029 7.2977 -2.9951 -0.987 -0.155 -0.041 209 184 153 0 0
2.5921 7.0948 -3.0046 -0.946 -0.165 -0.277 211 186 151 0 0
2.6010 6.8620 -3.0228 -0.896 -0.226 -0.383 212 189 157 0 0
2.6106 6.7986 -3.0302 -0.925 -0.250 -0.288 209 186 153 0 0
2.6063 6.7406 -3.0325 -0.656 -0.590 -0.471 210 187 155 0 0
2.6673 6.6019 -3.0624 -0.958 -0.267 -0.107 208 184 152 0 0
2.6734 6.5551 -3.0675 -0.908 -0.285 -0.306 206 181 150 0 0
2.6883 6.5163 -3.0751 -0.815 -0.309 -0.489 205 183 149 0 0
2.7823 6.3254 -3.1197 -0.774 -0.371 -0.513 200 177 146 0 0
3.3249 5.9323 -3.3308 -0.576 -0.577 -0.579 184 163 134 0 0
3.3507 5.9350 -3.3395 -0.348 -0.800 -0.489 187 166 138 0 0
3.7764 5.8957 -3.4876 -0.214 -0.831 -0.514 192 175 149 0 0
0.5685 11.2071 -2.0619 -0.768 -0.125 -0.628 241 240 237 0 0
0.5816 11.2016 -2.0667 -0.747 -0.337 -0.573 241 240 236 0 0
1.2113 9.4582 -2.3943 -0.661 -0.562 -0.497 175 120 100 0 0
1.2368 9.4472 -2.4038 -0.876 -0.365 -0.314 171 119 98 0 0
1.3793 9.0686 -2.4769 -0.869 -0.376 -0.322 147 94 76 0 0
1.3874 9.0558 -2.4805 -0.821 -0.451 -0.350 166 113 95 0 0
1.4231 8.9581 -2.4990 -0.695 -0.712 -0.098 183 129 109 0 0
1.5269 8.7416 -2.5484 -0.665 -0.626 -0.408 180 129 113 0 0
1.5351 8.7293 -2.5520 -0.764 -0.521 -0.379 172 123 107 0 0
1.5427 8.7162 -2.5555 -0.850 -0.452 -0.273 177 127 110 0 0
1.6206 8.5403 -2.5935 -0.679 -0.722 0.135 190 144 121 0 0
1.8202 8.3737 -2.6726 -0.273 -0.859 -0.433 143 100 84 0 0
2.7776 8.0033 -3.0248 -0.965 0.258 -0.044 194 164 128 0 0
2.6014 7.4002 -3.0029 -0.856 -0.249 -0.453 211 183 149 0 0
2.5890 7.2116 -3.0107 -0.934 -0.353 -0.049 209 185 151 0 0
2.6242 6.7804 -3.0504 -0.965 -0.190 -0.180 211 188 156 0 0
2.6096 6.7488 -3.0474 -0.656 -0.590 -0.471 207 184 151 0 0
2.6192 6.7397 -3.0512 -0.921 -0.348 -0.175 206 183 149 0 0
2.6237 6.7083 -3.0548 -0.832 -0.375 -0.408 208 184 150 0 0
2.6890 6.5739 -3.0858 -0.902 -0.346 -0.260 206 182 149 0 0
2.9017 6.2124 -3.1819 -0.841 -0.327 -0.431 194 171 140 0 0
2.9077 6.2008 -3.1847 -0.841 -0.327 -0.431 196 173 141 0 0
2.9070 6.1838 -3.1856 -0.893 -0.342 -0.292 197 174 142 0 0
2.9195 6.1610 -3.1913 -0.917 -0.314 -0.245 190 169 138 0 0
3.0384 6.0918 -3.2365 -0.361 -0.753 -0.551 194 170 141 0 0
3.1529 6.0018 -3.2816 -0.532 -0.555 -0.640 188 166 135 0 0
3.1668 5.9962 -3.2867 -0.550 -0.527 -0.648 190 167 137 0 0
3.2765 5.9654 -3.3263 -0.399 -0.732 -0.552 193 172 143 0 0
3.3342 5.9434 -3.3475 -0.792 -0.495 -0.357 189 168 140 0 0
3.5153 5.9127 -3.4116 -0.062 -0.990 -0.126 188 171 143 0 0
3.5326 5.9088 -3.4178 -0.115 -0.965 -0.235 192 175 147 0 0
3.6030 5.9098 -3.4419 -0.357 -0.789 -0.500 191 171 145 0 0
0.5806 11.2478 -2.0804 -0.917 -0.114 -0.381 241 240 238 0 0
0.7314 10.5699 -2.1749 -0.860 -0.415 -0.296 167 115 93 0 0
0.8810 10.2349 -2.2475 -0.774 -0.535 -0.340 155 104 85 0 0
0.9751 10.0192 -2.2934 -0.835 -0.393 -0.385 176 124 102 0 0
1.1615 9.6317 -2.3820 -0.718 -0.577 -0.389 188 135 118 0 0
1.2351 9.4526 -2.4185 -0.826 -0.417 -0.379 183 131 110 0 0
1.4476 8.9277 -2.5247 -0.872 -0.469 -0.140 177 126 107 0 0
1.4563 8.9159 -2.5284 -0.837 -0.534 -0.120 171 120 102 0 0
1.6409 8.5051 -2.6178 -0.797 -0.564 -0.217 175 121 101 0 0
1.6588 8.4833 -2.6253 -0.691 -0.716 0.093 175 124 104 0 0
1.7233 8.4098 -2.6522 -0.701 -0.703 -0.117 173 118 95 0 0
1.8191 8.3789 -2.6871 -0.338 -0.826 -0.450 151 108 92 0 0
2.9714 9.2012 -3.0322 0.284 -0.911 -0.300 118 74 57 0 0
3.5985 9.6575 -3.2194 0.440 -0.725 -0.531 196 185 176 0 0
2.7810 8.0132 -3.0412 -0.965 0.258 -0.044 193 164 130 0 0
2.7795 7.9899 -3.0422 -0.967 0.242 -0.075 191 161 125 0 0
2.5783 7.0729 -3.0305 -0.898 -0.317 -0.307 207 181 147 0 0
2.9950 6.1438 -3.2324 -0.919 -0.328 -0.217 193 170 139 0 0
3.0299 6.1223 -3.2457 -0.638 -0.550 -0.539 194 171 140 0 0
3.0346 6.1096 -3.2481 -0.271 -0.814 -0.514 196 173 142 0 0
3.5118 5.9146 -3.4247 -0.062 -0.990 -0.126 186 169 141 0 0
3.6089 5.9183 -3.4579 -0.396 -0.753 -0.526 192 172 144 0 0
0.5913 11.2480 -2.1011 -0.938 0.003 -0.346 240 239 237 0 0
0.7316 10.5807 -2.1907 -0.860 -0.415 -0.296 184 133 112 0 0
1.0784 9.8065 -2.3583 -0.968 -0.244 -0.058 158 109 93 0 0
1.2257 9.4723 -2.4298 -0.798 -0.514 -0.314 181 128 107 0 0
1.2371 9.4645 -2.4342 -0.943 -0.326 -0.065 179 127 107 0 0
1.4844 8.8659 -2.5566 -0.842 -0.529 -0.104 182 131 110 0 0
1.5285 8.7587 -2.5784 -0.886 -0.403 -0.230 186 133 115 0 0
1.5823 8.6917 -2.6012 -0.747 -0.607 -0.270 181 130 112 0 0
1.6135 8.5921 -2.6181 -0.869 -0.362 -0.338 186 135 114 0 0
1.8198 8.3867 -2.7020 -0.421 -0.808 -0.412 143 99 84 0 0
2.9239 9.1744 -3.0349 0.301 -0.852 -0.428 123 76 61 0 0
2.9805 9.2200 -3.0517 0.238 -0.845 -0.479 120 76 61 0 0
3.5744 9.1941 -3.2585 -0.786 -0.618 -0.005 207 199 191 0 0
2.5953 7.1905 -3.0438 -0.967 -0.163 -0.196 207 183 151 0 0
2.6060 7.1247 -3.0515 -0.928 -0.181 -0.326 209 185 151 0 0
2.6051 7.0482 -3.0559 -0.978 -0.211 -0.009 211 186 152 0 0
2.7358 6.5037 -3.1347 -0.832 -0.431 -0.349 205 181 147 0 0
2.7395 6.4897 -3.1368 -0.921 -0.307 -0.239 207 183 150 0 0
2.7445 6.4768 -3.1393 -0.921 -0.307 -0.239 202 179 147 0 0
2.9932 6.1633 -3.2446 -0.820 -0.397 -0.412 190 166 135 0 0
3.1787 6.0462 -3.3159 -0.650 -0.495 -0.577 192 169 138 0 0
3.4848 5.9319 -3.4287 -0.466 -0.651 -0.599 188 168 141 0 0
0.5762 11.2229 -2.1143 -0.765 -0.369 -0.528 240 239 237 0 0
1.1604 9.6469 -2.4123 -0.739 -0.630 -0.239 174 122 101 0 0
1.3831 9.1244 -2.5212 -0.870 -0.382 -0.312 169 116 97 0 0
1.3903 9.1098 -2.5245 -0.811 -0.419 -0.408 184 132 113 0 0
1.4578 8.9334 -2.5586 -0.898 -0.390 -0.206 179 128 110 0 0
1.4652 8.9194 -2.5620 -0.878 -0.424 -0.222 178 126 107 0 0
1.6449 8.5248 -2.6482 -0.678 -0.546 -0.493 174 126 105 0 0
1.7381 8.4206 -2.6868 -0.768 -0.503 -0.396 163 112 92 0 0
3.0038 9.2309 -3.0766 0.309 -0.818 -0.486 114 74 56 0 0
3.5039 9.5587 -3.2302 -0.004 -0.735 -0.678 197 187 178 0 0
2.6483 7.5465 -3.0553 -0.981 -0.166 -0.099 205 176 141 0 0
2.6078 7.0563 -3.0710 -0.865 -0.279 -0.417 211 188 152 0 0
2.7345 6.5246 -3.1471 -0.879 -0.413 -0.236 199 176 143 0 0
2.7408 6.5129 -3.1500 -0.879 -0.413 -0.236 204 181 149 0 0
2.7428 6.4974 -3.1516 -0.913 -0.280 -0.296 202 179 148 0 0
2.7472 6.4841 -3.1540 -0.931 -0.362 0.047 203 180 149 0 0
2.8747 6.3039 -3.2091 -0.645 -0.475 -0.599 200 177 146 0 0
3.2417 6.0333 -3.3527 -0.448 -0.763 -0.466 192 171 139 0 0
3.5072 5.9361 -3.4506 -0.466 -0.651 -0.599 190 169 142 0 0
0.6508 11.4155 -2.1458 -0.977 0.183 -0.106 240 239 237 0 0
0.7078 10.6844 -2.2091 -0.905 -0.293 -0.309 169 115 95 0 0
0.8509 10.3942 -2.2761 -0.491 -0.704 -0.513 178 126 108 0 0
1.4652 8.9271 -2.5770 -0.878 -0.424 -0.222 176 123 104 0 0
1.6495 8.5623 -2.6627 -0.923 -0.377 0.073 174 125 106 0 0
1.7488 8.4191 -2.7058 -0.768 -0.503 -0.396 160 111 95 0 0
3.0134 9.2503 -3.0964 0.162 -0.731 -0.663 120 78 61 0 0
3.5829 9.6887 -3.2685 0.333 -0.667 -0.666 197 188 179 0 0
3.5059 9.5688 -3.2488 0.125 -0.827 -0.548 198 188 179 0 0
3.5107 9.4954 -3.2548 0.448 -0.844 -0.295 199 189 180 0 0
3.5237 9.4585 -3.2616 0.470 -0.817 -0.334 198 188 179 0 0
2.6417 7.5453 -3.0683 -0.964 -0.073 0.254 205 176 141 0 0
2.6059 7.1354 -3.0803 -0.877 -0.340 -0.340 211 187 155 0 0
2.6121 7.1225 -3.0832 -0.877 -0.340 -0.340 211 187 155 0 0
2.6200 7.1113 -3.0866 -0.757 -0.445 -0.478 210 186 152 0 0
2.7828 6.4339 -3.1835 -0.802 -0.456 -0.386 201 176 145 0 0
2.8764 6.3099 -3.2234 -0.549 -0.698 -0.459 201 178 147 0 0
3.2411 6.0535 -3.3655 -0.559 -0.698 -0.449 191 170 139 0 0
3.4889 5.9597 -3.4573 -0.522 -0.577 -0.628 184 164 135 0 0
0.6472 11.3806 -2.1638 -0.962 0.177 -0.207 239 238 236 0 0
0.9716 10.1420 -2.3492 -0.937 -0.344 -0.058 178 125 107 0 0
1.0729 9.8822 -2.3998 -0.776 -0.480 -0.409 165 112 94 0 0
1.4512 9.0149 -2.5823 -0.903 -0.337 -0.267 183 131 116 0 0
1.6385 8.6016 -2.6718 -0.895 -0.326 -0.305 163 115 98 0 0
1.6721 8.5064 -2.6891 -0.896 -0.372 -0.244 167 114 93 0 0
1.8283 8.4187 -2.7487 -0.435 -0.727 -0.531 144 98 82 0 0
3.0156 9.2605 -3.1142 0.308 -0.797 -0.520 130 86 71 0 0
3.5524 9.6595 -3.2783 0.352 -0.690 -0.633 199 189 182 0 0
3.5371 9.6142 -3.2756 0.391 -0.806 -0.445 198 188 180 0 0
3.2121 9.1956 -3.1866 -0.585 -0.562 -0.584 199 189 180 0 0
2.6393 7.5486 -3.0826 -0.991 -0.133 -0.026 209 181 146 0 0
2.6238 6.9332 -3.1130 -0.920 -0.316 -0.231 211 187 153 0 0
2.8521 6.4126 -3.2230 -0.833 -0.465 -0.299 202 178 147 0 0
2.8707 6.3267 -3.2345 -0.461 -0.774 -0.435 201 178 147 0 0
2.8980 6.3158 -3.2447 -0.545 -0.791 -0.277 196 171 140 0 0
2.9155 6.3134 -3.2509 -0.941 -0.235 0.243 190 165 134 0 0
2.9313 6.2929 -3.2577 -0.797 -0.457 -0.395 197 174 143 0 0
3.0859 6.1514 -3.3199 -0.787 -0.597 -0.157 195 173 142 0 0
3.0902 6.1220 -3.3231 -0.647 -0.755 -0.104 192 171 142 0 0
3.1129 6.1232 -3.3309 -0.610 -0.785 -0.108 193 172 143 0 0
3.1839 6.0798 -3.3583 -0.735 -0.488 -0.470 187 168 139 0 0
3.6858 5.9568 -3.5406 -0.246 -0.792 -0.559 190 170 143 0 0
0.6384 11.3708 -2.1785 -0.914 0.094 -0.395 239 238 236 0 0
0.9522 10.2064 -2.3550 -0.925 -0.349 -0.146 182 129 108 0 0
0.9593 10.1893 -2.3584 -0.932 -0.285 -0.225 167 115 94 0 0
0.9739 10.1559 -2.3654 -0.952 -0.233 -0.199 171 118 100 0 0
1.3288 9.3250 -2.5372 -0.962 -0.239 -0.131 160 108 88 0 0
1.6729 8.5145 -2.7041 -0.896 -0.372 -0.244 166 113 92 0 0
1.8292 8.4267 -2.7638 -0.351 -0.784 -0.512 143 96 80 0 0
3.5581 9.6742 -3.2982 0.396 -0.729 -0.558 199 188 182 0 0
3.2272 9.2467 -3.2067 -0.810 -0.428 -0.400 200 190 182 0 0
3.2225 9.2155 -3.2069 -0.814 -0.382 -0.438 200 190 181 0 0
2.6390 7.5541 -3.0974 -0.991 -0.133 -0.026 209 180 145 0 0
2.6324 7.0211 -3.1255 -0.915 -0.393 -0.095 209 186 152 0 0
2.6382 7.0082 -3.1283 -0.915 -0.393 -0.095 210 187 153 0 0
2.6718 6.8193 -3.1508 -0.632 -0.769 -0.094 204 180 146 0 0
2.7181 6.6119 -3.1789 -0.779 -0.622 -0.079 204 180 146 0 0
2.7257 6.5836 -3.1832 -0.642 -0.602 -0.474 204 181 147 0 0
2.7619 6.5286 -3.1990 -0.864 -0.220 -0.454 202 179 147 0 0
2.8550 6.4199 -3.2379 -0.867 -0.368 -0.335 203 179 148 0 0
2.9126 6.3157 -3.2640 -0.922 -0.304 -0.238 190 165 134 0 0
2.9219 6.3066 -3.2677 -0.724 -0.684 0.088 189 165 134 0 0
3.1893 6.1047 -3.3730 -0.816 -0.513 -0.267 195 175 148 0 0
3.1884 6.0877 -3.3736 -0.735 -0.488 -0.470 190 172 144 0 0
3.3271 6.0452 -3.4246 -0.743 -0.588 -0.318 190 172 142 0 0
3.4380 5.9966 -3.4663 -0.418 -0.704 -0.574 192 174 144 0 0
3.5329 5.9836 -3.5002 -0.508 -0.786 -0.351 191 171 143 0 0
0.6511 11.4133 -2.1978 -0.914 0.094 -0.395 239 238 236 0 0
0.6441 11.3586 -2.1984 -0.968 0.150 -0.200 239 237 234 0 0
0.6196 10.9342 -2.2136 -0.874 -0.410 -0.261 185 129 109 0 0
0.9531 10.2178 -2.3709 -0.896 -0.351 -0.273 190 135 114 0 0
0.9650 10.1789 -2.3773 -0.937 -0.272 -0.218 190 137 116 0 0
1.0543 9.9848 -2.4195 -0.839 -0.413 -0.355 180 130 111 0 0
1.0897 9.9021 -2.4366 -0.770 -0.467 -0.434 176 124 106 0 0
1.6785 8.5773 -2.7177 -0.791 -0.496 -0.357 179 131 110 0 0
1.6867 8.5651 -2.7213 -0.848 -0.426 -0.316 178 130 108 0 0
1.6945 8.5523 -2.7247 -0.851 -0.446 -0.276 179 126 105 0 0
1.7049 8.5433 -2.7289 -0.791 -0.496 -0.357 174 118 99 0 0
1.7741 8.4513 -2.7584 -0.544 -0.676 -0.496 145 94 77 0 0
1.7980 8.4609 -2.7662 -0.527 -0.832 -0.175 151 101 85 0 0
1.8287 8.4329 -2.7786 -0.344 -0.778 -0.526 149 102 86 0 0
3.4175 9.5374 -3.2752 0.514 -0.834 -0.201 198 189 182 0 0
3.2905 9.2283 -3.2479 -0.202 -0.780 0.592 200 191 181 0 0
2.6467 6.8920 -3.1524 -0.885 -0.361 -0.295 209 186 153 0 0
2.6698 6.8226 -3.1644 -0.632 -0.769 -0.094 208 184 149 0 0
2.7268 6.6422 -3.1945 -0.842 -0.502 0.198 203 179 146 0 0
2.7166 6.6155 -3.1924 -0.779 -0.622 -0.079 204 180 147 0 0
2.7444 6.5877 -3.2038 -0.779 -0.605 -0.165 203 180 146 0 0
2.7614 6.5679 -3.2109 -0.671 -0.628 -0.394 202 179 145 0 0
2.9166 6.3237 -3.2791 -0.929 -0.252 -0.272 197 174 143 0 0
2.9260 6.3146 -3.2829 -0.720 -0.509 -0.473 195 172 141 0 0
3.0755 6.1853 -3.3427 -0.638 -0.637 -0.432 194 171 140 0 0
3.1088 6.1291 -3.3575 -0.630 -0.605 -0.487 191 170 139 0 0
3.2981 6.0444 -3.4288 -0.389 -0.852 -0.350 188 169 139 0 0
3.7008 5.9760 -3.5742 -0.296 -0.727 -0.619 187 168 140 0 0
5.5121 6.7204 -4.1692 0.375 -0.877 -0.300 227 228 223 0 0
0.6525 11.3905 -2.2168 -0.970 0.153 -0.188 239 237 234 0 0
0.7880 10.5973 -2.3081 -0.846 -0.431 -0.315 179 123 104 0 0
0.8544 10.4413 -2.3401 -0.631 -0.683 -0.369 187 136 117 0 0
0.8593 10.4188 -2.3430 -0.581 -0.803 -0.130 172 123 103 0 0
1.3143 9.3986 -2.5595 -0.949 -0.217 -0.230 187 135 114 0 0
1.6906 8.5777 -2.7372 -0.808 -0.431 -0.402 180 129 110 0 0
1.6989 8.5656 -2.7408 -0.808 -0.431 -0.402 177 124 105 0 0
1.7206 8.5012 -2.7520 -0.742 -0.544 -0.392 165 110 90 0 0
1.8091 8.4597 -2.7855 -0.514 -0.807 -0.291 149 102 86 0 0
1.8217 8.4535 -2.7903 -0.541 -0.791 -0.284 141 94 78 0 0
3.3414 9.5313 -3.2672 0.386 -0.718 -0.579 196 188 181 0 0
3.4423 9.6287 -3.2974 0.457 -0.701 -0.548 196 187 180 0 0
3.2678 9.2338 -3.2575 -0.463 -0.703 0.540 199 190 181 0 0
3.2806 9.2238 -3.2626 -0.378 -0.695 0.612 199 190 181 0 0
3.2925 9.2126 -3.2674 -0.406 -0.763 0.502 200 192 182 0 0
3.3046 9.2015 -3.2723 -0.543 -0.562 0.624 202 192 183 0 0
3.3142 9.1876 -3.2764 -0.543 -0.562 0.624 203 193 184 0 0
3.3391 9.1665 -3.2864 -0.430 -0.719 0.545 204 194 185 0 0
2.6985 6.7820 -3.1912 -0.744 -0.503 -0.441 208 185 152 0 0
2.7478 6.5956 -3.2188 -0.961 -0.271 0.046 205 184 150 0 0
2.7519 6.5818 -3.2210 -0.899 -0.428 -0.089 204 181 148 0 0
2.7540 6.5662 -3.2226 -0.692 -0.718 0.070 202 179 145 0 0
2.7691 6.5621 -3.2282 -0.873 -0.438 -0.214 203 179 145 0 0
2.8285 6.4239 -3.2567 -0.517 -0.732 -0.443 200 177 145 0 0
2.8623 6.4015 -3.2699 -0.720 -0.576 -0.387 198 176 144 0 0
2.8717 6.3923 -3.2736 -0.720 -0.576 -0.387 199 176 145 0 0
2.8819 6.3501 -3.2796 -0.631 -0.558 -0.539 197 176 145 0 0
2.8999 6.3482 -3.2860 -0.603 -0.622 -0.499 193 173 141 0 0
3.1842 6.1425 -3.3976 -0.637 -0.726 -0.259 197 176 147 0 0
3.1947 6.1342 -3.4018 -0.685 -0.705 -0.185 195 175 148 0 0
3.3436 6.0500 -3.4589 -0.478 -0.797 0.368 183 162 134 0 0
3.4519 6.0154 -3.4990 -0.424 -0.706 -0.567 178 159 131 0 0
3.6267 5.9937 -3.5618 -0.385 -0.735 -0.558 189 171 143 0 0
0.6613 11.4235 -2.2354 -0.970 0.153 -0.188 239 236 233 0 0
0.8661 10.4431 -2.3605 -0.650 -0.670 -0.358 155 104 84 0 0
1.1045 9.9182 -2.4731 -0.863 -0.506 0.001 187 135 117 0 0
1.1228 9.8930 -2.4809 -0.862 -0.483 -0.154 129 78 61 0 0
1.7416 8.4904 -2.7752 -0.625 -0.657 -0.421 159 107 86 0 0
1.7528 8.4825 -2.7796 -0.625 -0.657 -0.421 160 107 88 0 0
1.8091 8.4665 -2.8004 -0.494 -0.803 -0.335 140 92 74 0 0
1.8225 8.4616 -2.8054 -0.634 -0.695 -0.339 140 92 75 0 0
1.8352 8.4555 -2.8102 -0.470 -0.808 -0.356 150 101 85 0 0
3.3773 9.5037 -3.2997 0.559 -0.819 -0.126 199 190 183 0 0
3.2356 9.2791 -3.2616 -0.667 -0.541 -0.513 199 190 183 0 0
3.2829 9.2083 -3.2821 -0.310 -0.681 0.663 202 193 184 0 0
3.3034 9.1821 -3.2908 -0.543 -0.562 0.624 203 194 185 0 0
3.3181 9.1742 -3.2965 -0.339 -0.413 0.845 203 194 185 0 0
3.3276 9.1602 -3.3006 -0.364 -0.532 0.764 204 195 186 0 0
3.2795 9.0037 -3.2920 -0.162 -0.944 0.288 207 198 191 0 0
3.5058 9.2168 -3.3606 -0.790 -0.140 0.597 207 200 192 0 0
2.6464 6.9204 -3.1798 -0.794 -0.553 -0.252 209 185 150 0 0
2.6537 6.9090 -3.1830 -0.847 -0.461 -0.265 209 185 151 0 0
2.7048 6.7929 -3.2073 -0.776 -0.595 -0.209 207 184 152 0 0
2.7140 6.7833 -3.2110 -0.832 -0.509 -0.223 206 183 151 0 0
2.7565 6.5733 -3.2374 -0.842 -0.527 -0.114 203 179 145 0 0
2.7698 6.5676 -3.2424 -0.873 -0.438 -0.214 201 177 143 0 0
2.8346 6.4339 -3.2725 -0.505 -0.759 -0.412 203 180 149 0 0
2.8436 6.4244 -3.2762 -0.748 -0.505 -0.432 201 178 147 0 0
2.8517 6.4142 -3.2796 -0.738 -0.565 -0.369 200 177 145 0 0
3.0578 6.2135 -3.3633 -0.442 -0.827 -0.346 195 172 141 0 0
3.1734 6.1717 -3.4065 -0.889 -0.285 -0.358 199 178 150 0 0
3.1802 6.1605 -3.4095 -0.710 -0.564 -0.421 197 176 148 0 0
3.1885 6.1503 -3.4130 -0.634 -0.684 -0.362 192 171 142 0 0
3.1942 6.1383 -3.4157 -0.685 -0.705 -0.185 191 171 144 0 0
3.2280 6.1313 -3.4280 -0.605 -0.707 -0.368 195 175 148 0 0
3.2396 6.1237 -3.4325 -0.605 -0.707 -0.368 192 173 145 0 0
3.3009 6.0717 -3.4570 -0.687 -0.471 -0.554 187 166 136 0 0
3.4588 6.0249 -3.5154 -0.474 -0.640 -0.605 189 169 142 0 0
0.6702 11.4569 -2.2541 -0.939 0.087 -0.333 240 237 232 0 0
0.6562 11.3850 -2.2529 -0.972 0.130 -0.194 237 238 232 0 0
1.0957 9.9405 -2.4849 -0.876 -0.469 0.115 184 133 115 0 0
1.2450 9.6586 -2.5527 -0.724 -0.654 -0.219 160 110 93 0 0
1.2554 9.6485 -2.5569 -0.724 -0.654 -0.219 152 103 87 0 0
1.2711 9.5629 -2.5670 -0.948 -0.319 0.016 162 112 97 0 0
1.5530 8.8298 -2.7057 -0.559 -0.730 -0.394 163 118 103 0 0
3.4027 9.5689 -3.3237 0.390 -0.795 -0.465 199 190 183 0 0
3.1287 9.1819 -3.2467 -0.917 -0.389 0.091 199 190 183 0 0
3.2459 9.2223 -3.2862 -0.357 -0.745 0.563 202 193 185 0 0
3.2564 9.2095 -3.2906 -0.301 -0.780 0.549 202 193 184 0 0
3.2826 9.1900 -3.3009 -0.193 -0.690 0.698 193 184 175 0 0
3.3100 9.1719 -3.3116 -0.204 -0.642 0.739 204 195 186 0 0
3.2882 9.0707 -3.3092 -0.442 -0.643 -0.626 205 198 190 0 0
3.3069 9.0677 -3.3160 -0.351 -0.640 -0.683 206 199 191 0 0
2.6563 6.9722 -3.1951 -0.962 -0.234 -0.141 206 182 147 0 0
2.6471 6.9263 -3.1943 -0.822 -0.443 -0.358 206 181 145 0 0
2.6993 6.8110 -3.2188 -0.693 -0.654 -0.304 209 185 152 0 0
2.7157 6.7900 -3.2258 -0.764 -0.606 -0.220 206 183 152 0 0
2.7366 6.7194 -3.2369 -0.912 -0.411 0.013 206 183 150 0 0
3.0197 6.2542 -3.3619 -0.880 -0.409 -0.244 197 174 143 0 0
3.0348 6.2330 -3.3684 -0.752 -0.529 -0.394 196 172 140 0 0
3.0589 6.2190 -3.3777 -0.442 -0.827 -0.346 198 175 143 0 0
3.1606 6.1663 -3.4165 -0.483 -0.793 -0.371 193 173 144 0 0
3.2524 6.1380 -3.4506 -0.618 -0.771 -0.151 190 170 143 0 0
3.6111 6.0079 -3.5848 -0.295 -0.791 -0.536 192 172 145 0 0
0.6621 11.4109 -2.2709 -0.976 0.116 -0.186 237 236 232 0 0
0.8573 10.6099 -2.3817 -0.462 -0.885 -0.060 176 119 100 0 0
0.8671 10.5974 -2.3858 -0.603 -0.797 -0.045 183 127 109 0 0
1.0207 10.1715 -2.4624 -0.871 -0.397 -0.289 175 122 104 0 0
1.0752 10.0313 -2.4890 -0.848 -0.430 -0.311 183 131 114 0 0
1.2352 9.6783 -2.5642 -0.741 -0.653 -0.156 173 122 103 0 0
1.2453 9.6678 -2.5684 -0.741 -0.653 -0.156 174 124 106 0 0
1.2549 9.6562 -2.5724 -0.767 -0.641 -0.025 170 122 105 0 0
1.2691 9.5679 -2.5820 -0.948 -0.319 0.016 153 103 89 0 0
1.3967 9.2897 -2.6417 -0.820 -0.462 -0.337 182 130 109 0 0
1.4020 9.2716 -2.6446 -0.939 -0.336 -0.068 174 122 101 0 0
1.5542 8.8390 -2.7210 -0.596 -0.647 -0.475 153 108 94 0 0
1.5659 8.8316 -2.7256 -0.596 -0.647 -0.475 154 106 92 0 0
1.6694 8.6649 -2.7710 -0.769 -0.535 -0.349 178 129 113 0 0
1.6721 8.6446 -2.7730 -0.908 -0.398 -0.134 177 128 112 0 0
1.6802 8.6321 -2.7766 -0.834 -0.505 -0.222 167 119 101 0 0
1.6921 8.6010 -2.7824 -0.856 -0.421 -0.300 160 111 94 0 0
1.8410 8.4773 -2.8418 -0.526 -0.651 -0.547 142 93 77 0 0
1.8540 8.4717 -2.8468 -0.468 -0.729 -0.500 148 98 84 0 0
3.1393 9.2023 -3.2671 -0.648 -0.715 -0.264 199 190 183 0 0
3.1590 9.2008 -3.2742 -0.051 -0.976 -0.209 200 191 184 0 0
3.1580 9.1743 -3.2753 -0.349 -0.933 -0.089 201 192 185 0 0
3.3259 9.3519 -3.3259 -0.292 -0.688 0.664 203 194 187 0 0
2.6342 7.3379 -3.1830 -0.995 -0.089 -0.051 212 187 155 0 0
2.7016 6.8182 -3.2338 -0.665 -0.736 -0.125 206 182 148 0 0
2.7098 6.8077 -3.2372 -0.928 -0.313 -0.200 205 182 150 0 0
2.7157 6.7951 -3.2400 -0.764 -0.606 -0.220 208 185 153 0 0
2.7704 6.5605 -3.2716 -0.722 -0.512 -0.465 199 175 141 0 0
3.0149 6.2717 -3.3735 -0.743 -0.540 -0.395 193 172 141 0 0
3.1380 6.1864 -3.4218 -0.582 -0.737 -0.344 192 172 142 0 0
3.1618 6.1718 -3.4310 -0.519 -0.761 -0.389 193 172 141 0 0
3.2641 6.1349 -3.4693 -0.488 -0.854 -0.179 189 168 139 0 0
3.4637 6.0700 -3.5438 -0.499 -0.720 -0.483 189 172 144 0 0
0.6690 11.4392 -2.2892 -0.976 0.116 -0.186 238 237 233 0 0
0.8735 10.4885 -2.4101 -0.834 -0.446 -0.325 188 131 111 0 0
1.2524 9.6604 -2.5873 -0.785 -0.509 -0.354 140 91 74 0 0
1.2650 9.6257 -2.5935 -0.850 -0.414 -0.327 161 114 99 0 0
1.2765 9.5893 -2.5994 -0.840 -0.466 -0.279 176 127 113 0 0
1.3095 9.5623 -2.6126 -0.544 -0.815 -0.199 166 113 97 0 0
1.3153 9.5443 -2.6156 -0.637 -0.714 -0.291 161 108 93 0 0
1.3266 9.5360 -2.6200 -0.637 -0.714 -0.291 169 117 101 0 0
1.3380 9.5277 -2.6245 -0.637 -0.714 -0.291 173 122 105 0 0
1.4042 9.2831 -2.6605 -0.874 -0.448 -0.189 187 135 116 0 0
1.5589 8.8536 -2.7374 -0.595 -0.633 -0.495 164 121 108 0 0
1.6199 8.7957 -2.7621 -0.836 -0.508 -0.207 174 126 109 0 0
1.6818 8.6658 -2.7908 -0.654 -0.725 -0.215 173 124 109 0 0
1.6852 8.6464 -2.7930 -0.835 -0.475 -0.276 159 112 95 0 0
1.7864 8.5266 -2.8352 -0.664 -0.713 -0.224 154 106 87 0 0
1.8409 8.4840 -2.8568 -0.548 -0.622 -0.559 133 86 70 0 0
1.8564 8.4818 -2.8625 -0.330 -0.705 -0.628 147 99 85 0 0
3.2354 9.3788 -3.3104 -0.548 -0.422 -0.722 200 191 184 0 0
3.1421 9.2131 -3.2853 -0.410 -0.788 -0.459 200 191 184 0 0
3.3205 9.3529 -3.3421 -0.327 -0.384 0.863 203 194 187 0 0
3.2715 9.0655 -3.3390 -0.880 -0.046 -0.473 207 200 192 0 0
2.7712 7.9625 -3.2156 -0.983 0.180 -0.025 199 170 134 0 0
2.6361 7.1898 -3.2062 -0.980 -0.179 -0.090 211 187 153 0 0
2.6392 7.1737 -3.2081 -0.980 -0.179 -0.090 210 186 152 0 0
2.6577 6.9654 -3.2252 -0.812 -0.314 -0.491 206 182 149 0 0
2.7000 6.8219 -3.2475 -0.718 -0.658 -0.227 203 179 145 0 0
2.7073 6.8105 -3.2507 -0.421 -0.906 0.042 206 183 151 0 0
2.7667 6.7210 -3.2764 -0.604 -0.797 0.009 202 179 147 0 0
2.7597 6.6968 -3.2751 -0.839 -0.466 -0.281 200 179 146 0 0
2.7771 6.5888 -3.2868 -0.865 -0.426 -0.266 203 180 146 0 0
2.7837 6.5596 -3.2906 -0.782 -0.431 -0.449 200 176 144 0 0
2.8209 6.5400 -3.3049 -0.885 -0.432 -0.172 204 181 150 0 0
2.9839 6.3351 -3.3735 -0.510 -0.705 -0.493 195 171 140 0 0
3.1604 6.1918 -3.4438 -0.643 -0.591 -0.487 194 174 144 0 0
3.1677 6.1810 -3.4469 -0.512 -0.828 -0.227 191 170 140 0 0
3.2495 6.1448 -3.4780 -0.545 -0.778 -0.314 190 171 141 0 0
3.2641 6.1394 -3.4835 -0.388 -0.892 -0.231 189 168 139 0 0
3.2903 6.1428 -3.4927 -0.662 -0.621 -0.419 190 169 140 0 0
3.2853 6.1226 -3.4919 -0.461 -0.772 -0.438 193 172 143 0 0
3.8754 6.0367 -3.7072 -0.200 -0.814 -0.546 189 172 147 0 0
0.6696 11.4145 -2.3080 -0.976 0.116 -0.186 236 236 232 0 0
0.6545 11.0099 -2.3225 -0.801 -0.435 -0.411 162 107 87 0 0
0.9219 10.4362 -2.4466 -0.972 -0.226 0.069 186 136 116 0 0
1.0092 10.2302 -2.4880 -0.852 -0.353 -0.387 172 118 98 0 0
1.2861 9.5863 -2.6190 -0.843 -0.358 -0.403 159 109 95 0 0
1.3267 9.5445 -2.6356 -0.718 -0.624 -0.309 161 109 93 0 0
1.3481 9.4423 -2.6483 -0.902 -0.334 -0.272 164 117 102 0 0
1.3958 9.3043 -2.6722 -0.906 -0.340 -0.253 169 117 99 0 0
1.4037 9.2904 -2.6757 -0.827 -0.444 -0.344 187 136 117 0 0
1.5012 9.0262 -2.7237 -0.983 -0.169 0.066 183 137 121 0 0
1.6111 8.8147 -2.7735 -0.836 -0.508 -0.207 163 116 100 0 0
1.6195 8.8024 -2.7771 -0.836 -0.508 -0.207 168 121 104 0 0
1.6827 8.6742 -2.8061 -0.511 -0.848 -0.140 177 128 113 0 0
3.1439 9.2226 -3.3033 -0.410 -0.788 -0.459 201 192 185 0 0
3.1741 9.2340 -3.3136 -0.115 -0.903 -0.413 201 193 185 0 0
3.2552 9.2046 -3.3441 -0.689 -0.679 0.254 205 197 189 0 0
3.2655 9.1915 -3.3484 -0.821 -0.514 0.249 205 197 190 0 0
3.2739 9.1762 -3.3522 -0.821 -0.514 0.249 206 197 190 0 0
3.2913 9.1463 -3.3599 -0.589 -0.706 0.394 206 197 190 0 0
3.2960 9.1016 -3.3638 -0.823 -0.297 -0.485 208 200 192 0 0
2.6555 7.3118 -3.2220 -0.920 -0.220 -0.324 211 187 153 0 0
2.6413 7.2004 -3.2223 -0.974 -0.060 -0.217 208 183 149 0 0
2.6433 7.1832 -3.2239 -0.970 -0.153 -0.191 212 189 155 0 0
2.6573 7.0263 -3.2367 -0.922 -0.239 -0.304 212 186 156 0 0
2.7032 6.8118 -3.2636 -0.421 -0.906 0.042 209 186 154 0 0
2.7164 6.8059 -3.2687 -0.849 -0.523 -0.078 206 182 151 0 0
2.7302 6.7825 -3.2748 -0.945 -0.327 -0.022 205 182 149 0 0
2.7873 6.5852 -3.3050 -0.757 -0.487 -0.437 203 180 146 0 0
3.2113 6.1696 -3.4775 -0.779 -0.522 -0.349 185 166 136 0 0
3.2371 6.1564 -3.4874 -0.744 -0.635 -0.208 191 172 142 0 0
3.2790 6.1388 -3.5033 -0.519 -0.855 -0.003 192 172 143 0 0
3.2899 6.1306 -3.5076 -0.404 -0.866 -0.296 193 172 144 0 0
3.8123 6.0472 -3.6991 -0.175 -0.856 -0.486 194 177 151 0 0
4.3340 6.1655 -3.8804 -0.023 -0.835 -0.550 193 177 151 0 0
5.4529 6.6945 -4.2558 0.291 -0.890 0.351 226 227 222 0 0
0.6962 11.5287 -2.3294 -0.970 0.153 -0.188 237 236 233 0 0
0.6891 11.4733 -2.3295 -0.969 0.161 -0.186 237 236 234 0 0
0.6553 11.0227 -2.3389 -0.897 -0.384 -0.219 153 97 78 0 0
0.6817 10.9767 -2.3507 -0.795 -0.498 -0.347 158 101 80 0 0
1.3270 9.5534 -2.6512 -0.903 -0.412 -0.119 161 109 93 0 0
1.3370 9.5427 -2.6554 -0.752 -0.595 -0.284 169 118 101 0 0
1.3686 9.3755 -2.6748 -0.957 -0.231 -0.175 149 98 79 0 0
1.3988 9.3173 -2.6884 -0.906 -0.209 -0.367 180 127 109 0 0
3.3832 9.6291 -3.3877 0.339 -0.678 -0.652 199 190 183 0 0
3.3869 9.6070 -3.3901 0.420 -0.789 -0.447 200 191 184 0 0
3.2606 9.4249 -3.3533 -0.477 -0.326 -0.816 201 192 185 0 0
2.9824 9.0076 -3.2732 -0.358 -0.933 -0.037 202 194 187 0 0
3.2594 9.2170 -3.3629 -0.791 -0.496 0.358 206 199 191 0 0
3.2706 9.1796 -3.3687 -0.683 -0.727 0.071 205 198 190 0 0
3.2823 9.1430 -3.3747 -0.799 -0.375 -0.469 207 198 191 0 0
3.3037 9.1179 -3.3836 -0.855 -0.265 -0.446 208 199 192 0 0
3.3147 9.1058 -3.3881 -0.728 -0.631 -0.268 208 199 192 0 0
2.7724 7.9761 -3.2472 -0.991 0.133 -0.015 199 169 133 0 0
2.6589 7.3208 -3.2378 -0.920 -0.220 -0.324 209 185 153 0 0
2.7896 6.5921 -3.3198 -0.738 -0.564 -0.371 204 181 147 0 0
2.8566 6.4938 -3.3486 -0.832 -0.366 -0.418 202 179 147 0 0
2.8708 6.4715 -3.3548 -0.613 -0.752 -0.243 194 172 141 0 0
2.8815 6.4635 -3.3591 -0.666 -0.603 -0.439 199 176 144 0 0
2.9555 6.3888 -3.3893 -0.590 -0.707 -0.389 198 173 142 0 0
3.0035 6.3605 -3.4079 -0.793 -0.558 -0.243 194 171 139 0 0
3.2754 6.1406 -3.5163 -0.489 -0.817 -0.304 194 175 147 0 0
3.5264 6.0633 -3.6103 -0.703 -0.661 -0.263 190 170 143 0 0
3.6171 6.0627 -3.6430 -0.184 -0.907 -0.378 188 168 141 0 0
3.8765 6.0629 -3.7364 -0.213 -0.774 -0.596 193 175 150 0 0
4.3419 6.1753 -3.8985 0.008 -0.848 -0.531 192 176 151 0 0
5.4689 6.6910 -4.2794 0.237 -0.808 0.539 225 226 223 0 0
0.6952 11.4999 -2.3479 -0.970 0.153 -0.188 236 235 233 0 0
0.9626 10.3778 -2.4970 -0.843 -0.474 -0.254 171 118 100 0 0
1.3198 9.5775 -2.6635 -0.620 -0.634 -0.461 146 94 78 0 0
1.8476 8.5140 -2.9039 -0.593 -0.620 -0.514 142 93 78 0 0
3.4141 9.6483 -3.4165 0.400 -0.753 -0.523 201 192 185 0 0
3.2690 9.4428 -3.3737 -0.475 -0.441 -0.762 200 191 184 0 0
3.2656 9.4125 -3.3739 -0.695 -0.168 -0.700 202 193 186 0 0
3.0123 9.0014 -3.3017 -0.461 -0.733 -0.501 203 196 188 0 0
3.1637 8.9847 -3.3571 -0.870 0.001 0.494 209 200 193 0 0
3.3077 9.1299 -3.4023 -0.656 -0.734 -0.177 209 200 193 0 0
3.3087 9.1059 -3.4038 -0.715 -0.123 0.689 210 201 194 0 0
2.7737 7.9837 -3.2632 -0.991 0.133 -0.015 200 170 134 0 0
2.7556 6.7439 -3.3147 -0.692 -0.720 0.054 205 182 150 0 0
2.8043 6.5924 -3.3394 -0.764 -0.524 -0.377 201 177 143 0 0
2.9151 6.4624 -3.3855 -0.710 -0.552 -0.437 197 174 142 0 0
2.9179 6.4476 -3.3873 -0.661 -0.630 -0.408 195 172 141 0 0
2.9327 6.4257 -3.3936 -0.849 -0.520 0.094 199 176 145 0 0
2.9541 6.4266 -3.4013 -0.503 -0.763 -0.406 200 177 146 0 0
2.9571 6.4120 -3.4031 -0.488 -0.826 -0.282 199 176 144 0 0
2.9575 6.3953 -3.4040 -0.590 -0.707 -0.389 197 174 142 0 0
2.9713 6.3897 -3.4092 -0.521 -0.791 -0.321 198 175 144 0 0
2.9907 6.3717 -3.4171 -0.861 -0.404 -0.309 196 173 142 0 0
3.3034 6.1499 -3.5404 -0.611 -0.709 -0.353 189 169 142 0 0
3.3670 6.1152 -3.5650 -0.590 -0.663 -0.461 189 171 143 0 0
3.3812 6.1093 -3.5704 -0.462 -0.748 -0.476 192 175 146 0 0
3.5226 6.0815 -3.6228 -0.905 -0.396 -0.157 191 170 143 0 0
3.5276 6.0687 -3.6252 -0.399 -0.917 -0.015 192 172 144 0 0
3.8842 6.0728 -3.7538 -0.211 -0.823 -0.528 192 175 150 0 0
4.3533 6.1875 -3.9178 0.008 -0.848 -0.531 194 178 153 0 0
5.0046 6.4543 -4.1405 -0.322 -0.254 0.912 225 225 223 0 0
0.6906 11.5005 -2.3636 -0.971 0.115 -0.211 237 236 234 0 0
0.8165 10.7082 -2.4454 -0.761 -0.597 -0.252 178 126 105 0 0
0.9646 10.3917 -2.5135 -0.740 -0.648 -0.183 174 122 102 0 0
1.1317 10.0030 -2.5919 -0.909 -0.332 -0.250 185 130 114 0 0
1.1564 9.9593 -2.6028 -0.798 -0.421 -0.430 177 125 107 0 0
1.6826 8.7201 -2.8501 -0.835 -0.454 -0.311 170 120 102 0 0
3.2721 9.5599 -3.3876 0.305 -0.665 -0.682 201 190 184 0 0
3.2891 9.5545 -3.3941 0.454 -0.768 -0.451 200 192 185 0 0
3.3767 9.6366 -3.4220 0.357 -0.707 -0.611 201 192 185 0 0
3.4560 9.7079 -3.4475 0.343 -0.747 -0.570 201 192 185 0 0
3.2815 9.4658 -3.3953 -0.236 -0.661 -0.712 201 192 185 0 0
3.2835 9.4421 -3.3972 -0.631 -0.285 -0.721 203 194 187 0 0
3.2612 9.3886 -3.3915 -0.702 -0.581 -0.412 203 194 187 0 0
3.2888 9.3963 -3.4012 -0.286 -0.865 -0.413 203 195 187 0 0
3.0159 9.0131 -3.3198 -0.338 -0.941 0.003 204 197 189 0 0
3.0845 9.0712 -3.3420 -0.349 -0.925 -0.151 204 197 189 0 0
3.1352 9.0075 -3.3633 -0.646 -0.689 -0.329 208 201 195 0 0
3.2917 9.1687 -3.4126 -0.381 -0.920 -0.093 209 201 195 0 0
3.5495 9.1915 -3.5050 -0.731 0.611 0.304 202 194 185 0 0
2.7749 7.9913 -3.2792 -0.991 0.133 -0.015 203 173 139 0 0
2.6789 7.5322 -3.2654 -0.999 -0.046 -0.014 209 183 148 0 0
2.6751 7.4478 -3.2679 -0.989 -0.126 -0.079 206 180 145 0 0
2.7164 6.8759 -3.3090 -0.866 -0.339 -0.367 205 182 150 0 0
2.8053 6.6158 -3.3531 -0.555 -0.776 -0.300 201 177 143 0 0
2.9891 6.3921 -3.4299 -0.857 -0.420 -0.299 201 178 147 0 0
2.9943 6.3794 -3.4324 -0.729 -0.595 -0.337 195 172 142 0 0
3.2346 6.2012 -3.5276 -0.540 -0.689 -0.484 188 167 138 0 0
3.7313 6.0866 -3.7128 -0.297 -0.837 -0.460 192 175 149 0 0
4.0979 6.1229 -3.8440 -0.159 -0.842 -0.515 192 176 150 0 0
5.3750 6.6600 -4.2821 0.427 -0.901 0.076 225 225 223 0 0
0.7133 11.5675 -2.3863 -0.970 0.153 -0.188 236 235 233 0 0
1.1585 9.9722 -2.6192 -0.798 -0.421 -0.430 181 127 109 0 0
1.2152 9.8397 -2.6458 -0.902 -0.335 -0.274 171 119 101 0 0
1.2359 9.8187 -2.6542 -0.791 -0.479 -0.380 163 112 94 0 0
1.4822 9.3168 -2.7661 -0.524 -0.743 0.417 177 126 107 0 0
1.5898 8.8873 -2.8244 -0.647 -0.678 -0.350 164 117 99 0 0
1.8634 8.5497 -2.9389 -0.532 -0.761 -0.371 151 102 87 0 0
1.8759 8.5433 -2.9437 -0.532 -0.761 -0.371 140 92 77 0 0
3.2461 9.5618 -3.3964 0.400 -0.698 -0.594 199 189 183 0 0
3.2928 9.5935 -3.4120 0.337 -0.684 -0.647 200 190 183 0 0
3.2777 9.5480 -3.4085 0.370 -0.760 -0.534 200 192 183 0 0
3.3770 9.6449 -3.4403 0.158 -0.499 -0.852 202 193 186 0 0
3.4738 9.7378 -3.4714 0.336 -0.708 -0.621 201 192 185 0 0
3.2761 9.4143 -3.4139 -0.575 -0.815 0.072 204 195 188 0 0
3.2879 9.4027 -3.4187 -0.416 -0.907 0.059 204 196 189 0 0
3.0626 9.0770 -3.3513 -0.130 -0.991 0.018 205 198 190 0 0
3.0790 9.0718 -3.3575 -0.117 -0.984 0.133 205 198 190 0 0
3.1894 9.0294 -3.3996 -0.199 -0.898 -0.391 209 202 196 0 0
3.3131 9.0256 -3.4447 -0.437 -0.773 0.461 207 200 192 0 0
2.7190 6.8652 -3.3250 -0.367 -0.924 -0.105 205 182 149 0 0
2.7248 6.8524 -3.3277 -0.806 -0.492 0.328 203 180 148 0 0
2.7494 6.8570 -3.3364 -0.678 -0.696 0.237 204 179 148 0 0
2.8051 6.6205 -3.3672 -0.386 -0.917 -0.104 204 180 146 0 0
2.8193 6.6155 -3.3726 -0.415 -0.839 -0.352 202 179 147 0 0
3.1514 6.2913 -3.5078 -0.928 -0.347 -0.138 193 171 140 0 0
3.1453 6.2697 -3.5065 -0.754 -0.656 -0.001 194 173 142 0 0
3.2576 6.2069 -3.5501 -0.798 -0.424 -0.429 187 167 138 0 0
3.3004 6.1732 -3.5672 -0.452 -0.772 -0.448 192 172 143 0 0
5.5549 6.8570 -4.3563 0.299 -0.835 -0.462 223 224 218 0 0
5.3512 6.6499 -4.2915 0.405 -0.912 0.058 225 225 223 0 0
0.7180 11.5523 -2.4062 -0.981 0.174 -0.091 236 235 233 0 0
1.2612 9.7566 -2.6823 -0.785 -0.514 -0.347 168 115 99 0 0
1.4734 9.3104 -2.7791 -0.813 -0.537 -0.225 166 115 98 0 0
1.4815 9.2700 -2.7838 -0.876 -0.468 -0.115 171 119 101 0 0
1.5677 8.9371 -2.8297 -0.733 -0.483 -0.479 184 139 126 0 0
1.8498 8.5379 -2.9499 -0.893 -0.404 -0.198 144 95 81 0 0
1.8629 8.5322 -2.9550 -0.869 -0.493 -0.040 146 98 84 0 0
3.2846 9.5910 -3.4275 0.390 -0.732 -0.559 201 191 183 0 0
3.2568 9.5298 -3.4200 0.523 -0.781 -0.341 201 191 182 0 0
3.3670 9.6402 -3.4554 0.355 -0.697 -0.624 202 193 186 0 0
3.4373 9.7005 -3.4784 0.314 -0.690 -0.652 202 193 186 0 0
3.4452 9.6832 -3.4821 0.418 -0.755 -0.506 202 193 186 0 0
3.2694 9.4137 -3.4296 -0.313 -0.784 -0.536 204 195 188 0 0
3.2895 9.4123 -3.4371 -0.422 -0.779 -0.464 205 197 190 0 0
2.7388 6.8889 -3.3458 -0.826 -0.417 -0.380 205 182 149 0 0
2.7403 6.8720 -3.3471 -0.923 -0.273 -0.271 206 182 150 0 0
2.8008 6.6217 -3.3800 -0.448 -0.893 -0.046 205 182 148 0 0
2.8160 6.6175 -3.3857 -0.455 -0.885 -0.094 204 181 149 0 0
2.8454 6.6083 -3.3969 -0.886 -0.464 -0.022 204 180 148 0 0
3.2067 6.2388 -3.5447 -0.848 -0.310 -0.430 191 171 141 0 0
3.2256 6.2201 -3.5524 -0.535 -0.696 -0.479 196 177 147 0 0
3.2622 6.2150 -3.5659 -0.881 -0.363 -0.303 193 174 144 0 0
3.3465 6.1629 -3.5989 -0.692 -0.612 -0.383 193 173 148 0 0
4.0613 6.1241 -3.8614 -0.276 -0.846 -0.456 190 173 147 0 0
0.7215 11.5724 -2.4242 -0.970 0.153 -0.188 236 235 233 0 0
1.4084 9.4284 -2.7662 -0.912 -0.336 -0.235 177 124 106 0 0
1.6954 8.7115 -2.9015 -0.868 -0.492 0.061 183 135 115 0 0
1.8500 8.5451 -2.9651 -0.893 -0.404 -0.198 145 98 80 0 0
1.8634 8.5399 -2.9703 -0.875 -0.417 -0.246 142 95 79 0 0
3.2608 9.5957 -3.4370 0.316 -0.656 -0.686 200 191 183 0 0
3.2203 9.5183 -3.4254 0.550 -0.795 -0.255 201 192 185 0 0
3.2844 9.5718 -3.4466 0.501 -0.780 -0.374 201 192 185 0 0
3.3857 9.6712 -3.4795 0.355 -0.697 -0.624 202 193 186 0 0
3.4905 9.7743 -3.5135 0.354 -0.769 -0.531 203 194 187 0 0
3.5159 9.7784 -3.5226 0.355 -0.708 -0.610 203 194 187 0 0
3.4793 9.7062 -3.5123 0.238 -0.600 -0.764 204 195 188 0 0
3.5335 9.7457 -3.5304 0.360 -0.649 -0.670 205 196 189 0 0
3.3044 9.3082 -3.4651 0.124 -0.939 0.321 206 202 194 0 0
3.1412 9.0363 -3.4169 -0.910 0.106 0.400 207 203 197 0 0
2.6721 7.3229 -3.3177 -0.881 -0.411 -0.234 212 188 154 0 0
2.6999 7.0807 -3.3381 -0.835 -0.464 -0.296 210 189 156 0 0
2.7392 6.8945 -3.3603 -0.864 -0.360 -0.352 210 187 155 0 0
2.7627 6.8614 -3.3703 -0.857 -0.422 -0.297 208 182 147 0 0
2.8016 6.6273 -3.3945 -0.595 -0.788 -0.160 204 181 149 0 0
2.8135 6.6202 -3.3991 -0.455 -0.885 -0.094 202 179 147 0 0
2.9063 6.5087 -3.4378 -0.874 -0.446 -0.195 197 173 139 0 0
3.0067 6.4209 -3.4782 -0.851 -0.383 -0.361 196 173 140 0 0
3.1300 6.3342 -3.5270 -0.618 -0.733 -0.285 193 171 139 0 0
3.3436 6.1819 -3.6116 -0.678 -0.618 -0.398 195 177 150 0 0
3.3540 6.1732 -3.6158 -0.678 -0.618 -0.398 192 175 148 0 0
3.3752 6.1560 -3.6243 -0.675 -0.715 -0.181 192 175 149 0 0
3.7488 6.1125 -3.7628 -0.526 -0.790 -0.316 191 173 147 0 0
5.3888 6.7218 -4.3372 -0.107 -0.943 0.316 224 225 220 0 0
5.4613 6.6928 -4.3650 0.420 -0.907 0.038 226 227 222 0 0
0.7307 11.6066 -2.4437 -0.970 0.153 -0.188 236 235 233 0 0
0.9623 10.4589 -2.5760 -0.929 -0.298 -0.219 180 132 115 0 0
1.0520 10.2875 -2.6160 -0.821 -0.510 -0.258 181 129 108 0 0
1.1012 10.1651 -2.6391 -0.746 -0.563 -0.355 175 122 105 0 0
1.2596 9.8295 -2.7110 -0.822 -0.409 -0.396 180 127 109 0 0
1.2912 9.7408 -2.7263 -0.729 -0.552 -0.405 169 116 98 0 0
1.3800 9.5829 -2.7654 -0.933 -0.279 -0.229 165 113 92 0 0
1.3732 9.5432 -2.7645 -0.837 -0.349 -0.421 176 123 103 0 0
1.6041 8.9062 -2.8755 -0.806 -0.401 -0.435 174 122 103 0 0
1.7019 8.7527 -2.9177 -0.896 -0.400 -0.193 184 134 114 0 0
1.6987 8.7235 -2.9177 -0.757 -0.649 -0.073 171 121 102 0 0
1.7120 8.7184 -2.9228 -0.714 -0.528 -0.461 172 122 103 0 0
1.7915 8.6138 -2.9563 -0.727 -0.542 -0.422 164 118 103 0 0
3.2538 9.5947 -3.4528 0.414 -0.742 -0.527 201 192 185 0 0
3.1667 9.0489 -3.4433 -0.140 -0.985 -0.098 210 205 199 0 0
3.3078 8.9913 -3.4975 -0.726 -0.373 0.577 206 199 192 0 0
2.6917 7.2701 -3.3421 -0.953 -0.211 -0.216 212 189 157 0 0
2.6956 7.2545 -3.3442 -0.953 -0.211 -0.216 209 186 155 0 0
2.7550 6.8962 -3.3807 -0.960 -0.251 -0.124 207 183 149 0 0
2.9799 6.4894 -3.4800 -0.745 -0.613 -0.263 202 179 147 0 0
3.0189 6.4359 -3.4965 -0.875 -0.467 -0.129 195 171 139 0 0
3.0445 6.4056 -3.5072 -0.379 -0.852 -0.361 196 173 142 0 0
3.1419 6.3315 -3.5460 -0.618 -0.733 -0.285 190 167 135 0 0
3.2158 6.2552 -3.5763 -0.828 -0.408 -0.384 196 175 145 0 0
3.8755 6.1226 -3.8239 -0.202 -0.885 -0.420 191 174 148 0 0
5.3787 6.7204 -4.3512 -0.079 -0.753 0.653 224 224 221 0 0
0.7357 11.5920 -2.4638 -0.971 0.154 -0.185 235 234 232 0 0
0.8168 10.8300 -2.5241 -0.662 -0.579 -0.476 192 147 131 0 0
1.0248 10.4020 -2.6178 -0.831 -0.387 -0.401 174 121 104 0 0
1.0649 10.2909 -2.6370 -0.846 -0.478 0.236 172 120 100 0 0
1.1345 10.1459 -2.6685 -0.782 -0.548 -0.297 173 118 101 0 0
1.1575 10.0674 -2.6801 -0.745 -0.557 -0.366 188 132 113 0 0
1.2742 9.7772 -2.7347 -0.797 -0.504 -0.333 176 123 105 0 0
1.3641 9.6486 -2.7730 -0.910 -0.415 0.020 180 124 104 0 0
1.3787 9.5891 -2.7807 -0.909 -0.371 -0.191 163 108 88 0 0
1.3859 9.5732 -2.7840 -0.909 -0.371 -0.191 178 123 103 0 0
1.5457 9.0281 -2.8647 -0.917 -0.301 -0.262 188 141 125 0 0
1.5770 8.9739 -2.8784 -0.716 -0.477 -0.510 173 125 110 0 0
1.7015 8.7594 -2.9328 -0.867 -0.465 -0.177 179 128 109 0 0
1.8059 8.6412 -2.9760 -0.750 -0.630 -0.202 164 116 100 0 0
3.1583 9.5352 -3.4384 0.507 -0.738 -0.445 200 191 184 0 0
3.1281 9.4706 -3.4298 0.501 -0.799 -0.334 200 191 184 0 0
3.2437 9.5897 -3.4677 0.369 -0.675 -0.639 201 192 185 0 0
3.0976 9.1995 -3.4294 -0.610 -0.305 0.731 207 198 193 0 0
3.1580 9.0457 -3.4578 -0.291 -0.946 0.142 212 204 201 0 0
3.2507 9.0310 -3.4926 -0.208 -0.659 0.723 209 202 195 0 0
2.6752 7.3965 -3.3460 -0.964 -0.228 -0.137 212 188 152 0 0
2.6988 7.2827 -3.3592 -0.950 -0.227 -0.215 211 188 156 0 0
2.7503 6.9338 -3.3922 -0.761 -0.506 -0.407 209 186 155 0 0
2.7552 6.9199 -3.3945 -0.814 -0.408 -0.414 208 185 153 0 0
2.7884 6.7862 -3.4121 -0.921 -0.389 0.020 204 181 149 0 0
2.8034 6.7637 -3.4185 -0.904 -0.368 0.216 203 179 146 0 0
2.8159 6.7212 -3.4248 -0.625 -0.747 -0.227 205 182 151 0 0
2.8069 6.6419 -3.4247 -0.578 -0.731 -0.363 200 177 146 0 0
2.8971 6.5803 -3.4604 -0.930 -0.339 -0.139 202 178 147 0 0
2.8999 6.5652 -3.4620 -0.910 -0.413 -0.029 200 175 144 0 0
2.9047 6.5519 -3.4643 -0.904 -0.399 0.153 199 174 143 0 0
2.9109 6.5397 -3.4671 -0.928 -0.351 0.125 195 172 139 0 0
2.9714 6.5044 -3.4908 -0.745 -0.613 -0.263 196 173 141 0 0
2.9776 6.4923 -3.4935 -0.736 -0.645 -0.207 199 176 144 0 0
2.9869 6.4829 -3.4973 -0.736 -0.645 -0.207 197 173 141 0 0
2.9948 6.4722 -3.5007 -0.902 -0.414 -0.122 197 172 141 0 0
3.0099 6.4503 -3.5071 -0.737 -0.611 -0.288 194 170 138 0 0
3.0713 6.3811 -3.5325 -0.840 -0.500 -0.209 198 176 147 0 0
3.2193 6.2626 -3.5918 -0.828 -0.408 -0.384 191 169 140 0 0
3.6283 6.1521 -3.7468 -0.490 -0.798 -0.350 187 170 142 0 0
5.5728 6.9091 -4.4328 0.327 -0.847 -0.419 221 221 219 0 0
5.3952 6.7173 -4.3750 -0.409 -0.912 0.025 224 224 222 0 0
5.5074 6.7134 -4.4165 0.293 -0.953 -0.082 226 226 224 0 0
1.1387 10.1635 -2.6858 -0.442 -0.812 -0.380 175 122 104 0 0
1.1474 10.1491 -2.6896 -0.567 -0.696 -0.440 186 132 114 0 0
1.2846 9.7754 -2.7548 -0.640 -0.704 -0.308 153 100 82 0 0
1.3638 9.6566 -2.7887 -0.897 -0.426 -0.115 178 123 103 0 0
1.3848 9.5799 -2.7994 -0.856 -0.501 -0.129 165 109 90 0 0
1.3865 9.5547 -2.8010 -0.827 -0.403 -0.392 171 115 97 0 0
3.1024 9.4986 -3.4373 0.520 -0.734 -0.436 199 190 183 0 0
3.1291 9.4796 -3.4479 0.499 -0.812 -0.304 200 191 184 0 0
3.1696 9.3991 -3.4660 -0.048 -0.950 0.310 205 196 189 0 0
3.0659 9.2445 -3.4337 -0.349 -0.303 0.887 206 197 190 0 0
3.0676 9.2211 -3.4353 -0.429 -0.659 0.618 205 196 189 0 0
2.7000 7.3090 -3.3737 -0.969 -0.243 -0.035 215 192 160 0 0
2.7040 7.2935 -3.3758 -0.969 -0.243 -0.035 211 188 156 0 0
2.7045 7.2162 -3.3790 -0.593 -0.750 -0.293 214 191 160 0 0
2.7996 6.7834 -3.4309 -0.933 -0.337 -0.128 206 183 151 0 0
2.8752 6.6188 -3.4652 -0.775 -0.474 -0.418 200 177 145 0 0
