ply
format ascii 1.0
element vertex 823
property float x
property float y
property float z
property float nx
property float ny
property float nz
property uchar diffuse_red
property uchar diffuse_green
property uchar diffuse_blue
property uchar class
property uchar detection
end_header
6.4113 10.3202 -1.3892 0.303 -0.876 -0.375 128 78 63 0 0
6.6401 10.4720 -1.3612 0.216 -0.937 -0.274 129 86 72 0 0
6.6561 10.4588 -1.3573 0.324 -0.935 -0.146 126 82 68 0 0
6.6782 10.4642 -1.3538 0.448 -0.890 -0.084 122 79 63 0 0
6.2729 8.5730 -1.2722 -0.573 -0.304 -0.761 192 167 135 0 0
6.2674 8.5069 -1.2679 -0.459 -0.727 -0.511 195 170 139 0 0
6.4051 7.3844 -1.1528 -0.702 -0.708 -0.080 209 188 157 0 0
6.4743 7.2874 -1.1328 -0.700 -0.707 0.102 211 192 162 0 0
6.8129 7.0421 -1.0533 -0.286 -0.935 0.210 196 176 145 0 0
6.9034 7.0067 -1.0345 -0.131 -0.991 -0.038 202 184 153 0 0
8.4466 7.5317 -0.8052 0.742 -0.609 0.280 248 246 240 0 0
0.5184 11.8531 -2.5717 -0.817 -0.283 -0.502 241 240 238 0 0
1.2015 9.1609 -2.2296 0.186 -0.756 0.628 188 142 127 0 0
1.2578 9.2061 -2.2235 -0.447 -0.692 0.567 173 125 106 0 0
1.4675 9.0224 -2.1715 -0.472 -0.726 0.500 197 145 123 0 0
1.5793 8.9910 -2.1492 -0.110 -0.730 0.674 185 135 114 0 0
1.8943 8.9436 -2.0899 -0.202 -0.591 0.781 167 115 94 0 0
2.0029 8.9517 -2.0715 -0.583 -0.694 0.422 184 136 118 0 0
2.6831 8.8469 -1.9432 -0.097 -0.664 0.741 182 134 115 0 0
2.7148 8.8365 -1.9368 -0.320 -0.672 0.668 192 142 123 0 0
3.1379 7.9248 -1.7872 -0.242 -0.642 0.728 226 202 169 0 0
3.1966 7.9233 -1.7768 0.219 -0.797 0.563 223 202 171 0 0
3.2410 7.9277 -1.7693 -0.085 -0.835 0.543 225 203 174 0 0
3.7246 7.8614 -1.6788 -0.421 -0.698 0.579 227 207 177 0 0
3.7393 7.8598 -1.6761 -0.465 -0.774 0.430 230 210 180 0 0
3.7534 7.8524 -1.6730 -0.343 -0.834 0.433 227 207 179 0 0
3.7684 7.8538 -1.6705 -0.254 -0.862 0.439 224 204 177 0 0
3.7830 7.8509 -1.6677 -0.254 -0.862 0.439 227 208 178 0 0
3.8716 7.8429 -1.6515 -0.474 -0.823 0.311 225 204 175 0 0
3.9160 7.8394 -1.6434 -0.207 -0.948 0.242 225 206 176 0 0
3.9305 7.8356 -1.6405 -0.303 -0.898 0.320 227 208 178 0 0
3.9450 7.8317 -1.6376 -0.303 -0.898 0.320 226 205 176 0 0
4.2201 7.7656 -1.5838 0.010 -0.764 0.645 227 204 176 0 0
4.3229 7.7511 -1.5645 -0.599 -0.799 -0.056 227 206 179 0 0
4.3399 7.7624 -1.5625 -0.273 -0.795 0.542 226 206 178 0 0
4.3672 7.7464 -1.5563 -0.203 -0.749 0.630 226 207 177 0 0
4.4964 7.7111 -1.5307 -0.444 -0.744 0.499 225 205 176 0 0
4.5106 7.7065 -1.5279 -0.353 -0.832 0.428 227 207 177 0 0
4.5736 7.7206 -1.5179 -0.063 -0.693 0.718 225 204 175 0 0
4.7155 7.6747 -1.4892 -0.405 -0.826 0.392 228 209 179 0 0
4.7296 7.6695 -1.4863 -0.183 -0.982 -0.038 226 206 176 0 0
5.5637 9.9084 -1.5242 -0.094 -0.989 0.115 115 69 53 0 0
6.6463 10.4792 -1.3809 0.216 -0.937 -0.274 124 84 71 0 0
6.6707 10.4918 -1.3777 -0.393 -0.884 -0.253 125 84 71 0 0
6.6922 10.4953 -1.3742 0.010 -0.995 0.098 127 86 72 0 0
6.6993 10.4546 -1.3696 -0.113 -0.764 -0.635 126 87 71 0 0
6.7226 10.4638 -1.3662 0.108 -0.772 -0.626 124 87 72 0 0
6.2738 8.6164 -1.2928 -0.276 -0.240 -0.931 194 165 139 0 0
6.2863 8.6021 -1.2895 -0.166 -0.328 -0.930 194 168 136 0 0
6.2737 8.5157 -1.2845 -0.408 -0.709 -0.576 199 174 141 0 0
6.6766 7.1407 -1.1003 -0.038 -0.997 -0.061 199 179 146 0 0
6.8023 7.0456 -1.0704 -0.029 -0.989 0.145 201 183 151 0 0
7.2991 6.8741 -0.9689 -0.263 -0.960 0.097 176 158 127 0 0
8.5078 7.5979 -0.8160 0.732 -0.622 0.279 247 247 246 0 0
0.4964 11.5456 -2.5705 -0.697 -0.568 -0.438 241 240 238 0 0
0.5605 11.7317 -2.5749 -0.846 -0.284 -0.451 240 239 237 0 0
1.2638 9.1822 -2.2372 -0.369 -0.593 0.715 180 131 111 0 0
1.2813 9.1676 -2.2329 -0.379 -0.714 0.589 176 128 109 0 0
1.9628 8.8971 -2.0906 -0.156 -0.599 0.785 187 135 116 0 0
2.2603 8.8759 -2.0365 -0.101 -0.716 0.690 176 121 101 0 0
2.7810 8.8138 -1.9399 0.004 -0.883 0.470 198 146 128 0 0
2.7968 8.8178 -1.9375 -0.234 -0.933 0.273 188 135 114 0 0
2.8126 8.8140 -1.9344 -0.116 -0.892 0.436 180 126 106 0 0
2.9064 7.9116 -1.8421 0.430 -0.892 0.139 157 107 86 0 0
3.1395 7.9002 -1.8002 -0.288 -0.690 0.664 222 199 167 0 0
3.1550 7.9194 -1.7991 0.018 -0.784 0.621 223 200 169 0 0
3.3021 7.9167 -1.7730 -0.421 -0.638 0.644 228 207 178 0 0
3.5039 7.8502 -1.7320 0.355 -0.856 0.376 226 205 175 0 0
3.5657 7.8805 -1.7237 0.182 -0.835 0.519 206 185 157 0 0
3.6101 7.8793 -1.7158 -0.372 -0.731 0.572 223 202 173 0 0
3.7697 7.8398 -1.6845 -0.246 -0.666 0.704 228 208 181 0 0
3.7840 7.8343 -1.6815 -0.278 -0.790 0.546 226 207 177 0 0
3.8590 7.8391 -1.6687 -0.301 -0.795 0.527 223 203 174 0 0
3.8734 7.8350 -1.6659 -0.280 -0.845 0.455 224 203 174 0 0
3.8869 7.8231 -1.6625 -0.181 -0.856 0.485 224 203 174 0 0
3.9024 7.8277 -1.6602 -0.338 -0.838 0.428 224 205 175 0 0
3.9168 7.8230 -1.6572 -0.333 -0.823 0.459 225 206 176 0 0
3.9470 7.8258 -1.6522 -0.303 -0.898 0.320 229 208 179 0 0
3.9606 7.8156 -1.6489 -0.003 -0.846 0.533 228 209 179 0 0
4.0602 7.7785 -1.6283 -0.256 -0.702 0.665 218 197 166 0 0
4.1206 7.7823 -1.6180 -0.363 -0.625 0.691 224 204 176 0 0
4.2217 7.7579 -1.5982 -0.141 -0.826 0.546 229 207 178 0 0
4.2366 7.7571 -1.5955 -0.141 -0.826 0.546 231 210 181 0 0
4.2513 7.7555 -1.5928 -0.193 -0.854 0.483 225 204 175 0 0
4.4419 7.7271 -1.5570 -0.397 -0.661 0.637 223 202 175 0 0
5.8374 10.0702 -1.5088 0.041 -0.944 -0.328 117 69 53 0 0
6.3129 10.2991 -1.4446 0.199 -0.933 -0.301 126 80 64 0 0
6.5457 10.4054 -1.4126 0.001 -0.813 -0.583 118 75 59 0 0
6.6515 10.4834 -1.4006 0.137 -0.987 -0.081 138 98 86 0 0
6.6727 10.4861 -1.3971 0.137 -0.987 -0.081 121 81 69 0 0
6.6941 10.4894 -1.3936 0.019 -0.955 0.297 140 101 89 0 0
6.7081 10.4699 -1.3895 -0.113 -0.764 -0.635 134 96 82 0 0
6.7323 10.4814 -1.3863 0.108 -0.772 -0.626 126 89 75 0 0
6.4737 7.2717 -1.1620 -0.525 -0.844 -0.107 212 192 161 0 0
6.4811 7.2522 -1.1591 -0.205 -0.973 -0.104 210 192 164 0 0
6.4928 7.2433 -1.1562 -0.234 -0.972 0.030 206 189 161 0 0
6.6214 7.1482 -1.1257 -0.490 -0.855 -0.167 204 185 155 0 0
6.7615 7.0503 -1.0929 -0.014 -0.999 -0.043 193 176 146 0 0
7.4051 6.8941 -0.9667 -0.140 -0.986 0.087 176 157 125 0 0
0.4935 11.5827 -2.5945 -0.770 -0.546 -0.329 241 240 238 0 0
0.5524 11.8035 -2.6031 -0.867 -0.281 -0.412 239 238 236 0 0
1.3199 9.1320 -2.2399 -0.473 -0.671 0.571 185 138 116 0 0
1.8244 8.9170 -2.1331 -0.238 -0.524 0.818 153 96 77 0 0
2.0449 8.8740 -2.0907 -0.191 -0.719 0.668 179 125 107 0 0
2.1394 8.8537 -2.0724 -0.168 -0.591 0.789 214 169 148 0 0
2.3277 8.8274 -2.0372 -0.533 -0.616 0.580 176 125 104 0 0
2.5945 8.8090 -1.9888 -0.246 -0.753 0.610 188 136 117 0 0
2.8944 7.9068 -1.8590 0.747 -0.664 0.038 163 112 91 0 0
2.9090 7.9109 -1.8568 0.337 -0.938 0.084 151 100 79 0 0
2.9237 7.9183 -1.8548 -0.036 -0.987 0.157 152 100 79 0 0
3.3318 7.8773 -1.7798 -0.374 -0.746 0.550 226 207 176 0 0
3.4624 7.8502 -1.7546 -0.559 -0.659 0.504 229 208 180 0 0
3.4764 7.8401 -1.7513 -0.458 -0.746 0.484 227 206 179 0 0
3.4911 7.8400 -1.7487 0.159 -0.968 0.195 228 207 177 0 0
3.5061 7.8431 -1.7463 0.108 -0.878 0.466 226 205 175 0 0
3.5214 7.8503 -1.7442 0.267 -0.805 0.530 226 205 175 0 0
3.5811 7.8562 -1.7343 -0.297 -0.735 0.609 226 206 178 0 0
3.9613 7.7992 -1.6628 -0.226 -0.734 0.640 227 208 178 0 0
4.0055 7.7953 -1.6547 -0.653 -0.670 0.353 228 208 181 0 0
4.1943 7.7560 -1.6182 -0.082 -0.794 0.603 225 204 175 0 0
4.2082 7.7490 -1.6152 -0.141 -0.826 0.546 228 207 178 0 0
4.2230 7.7482 -1.6125 -0.141 -0.826 0.546 225 204 175 0 0
4.2368 7.7410 -1.6095 -0.098 -0.816 0.570 229 208 179 0 0
4.2523 7.7438 -1.6070 0.043 -0.834 0.550 229 209 179 0 0
4.5128 7.6884 -1.5566 0.239 -0.837 0.492 222 200 169 0 0
4.7574 7.6320 -1.5089 -0.148 -0.723 0.675 227 207 180 0 0
4.8431 7.6103 -1.4920 -0.069 -0.633 0.771 227 206 178 0 0
4.8880 7.6082 -1.4840 -0.305 -0.471 0.828 231 207 181 0 0
5.0320 7.8288 -1.4776 0.212 -0.085 0.974 121 73 55 0 0
5.8232 10.0755 -1.5312 0.098 -0.991 -0.089 122 73 58 0 0
5.8431 10.0777 -1.5279 0.069 -0.987 -0.144 128 79 64 0 0
5.8620 10.0764 -1.5244 0.320 -0.935 -0.154 120 71 55 0 0
5.9957 10.1403 -1.5065 0.399 -0.917 -0.025 134 84 66 0 0
6.0789 10.1588 -1.4935 -0.087 -0.897 -0.434 123 76 61 0 0
6.6547 10.4815 -1.4201 0.234 -0.937 0.260 127 88 74 0 0
6.6789 10.4932 -1.4169 -0.157 -0.866 0.475 130 93 80 0 0
6.1951 7.7615 -1.2679 -0.892 -0.440 0.108 208 183 152 0 0
6.2026 7.7383 -1.2646 -0.905 -0.424 0.036 203 178 147 0 0
6.2143 7.7265 -1.2616 -0.878 -0.457 -0.142 206 181 150 0 0
6.4832 7.2502 -1.1737 -0.354 -0.935 -0.039 208 191 160 0 0
6.4953 7.2422 -1.1709 -0.234 -0.972 0.030 204 187 156 0 0
6.5105 7.2416 -1.1681 -0.478 -0.853 0.209 207 189 159 0 0
6.5232 7.2352 -1.1654 -0.478 -0.853 0.209 207 188 159 0 0
6.7660 7.0538 -1.1073 -0.026 -0.998 0.058 195 176 146 0 0
7.3288 6.8611 -0.9921 -0.254 -0.934 0.251 173 156 127 0 0
0.4953 11.5921 -2.6154 -0.885 -0.465 0.007 240 239 237 0 0
0.5149 11.5877 -2.6116 -0.712 -0.633 0.305 240 239 237 0 0
0.5505 11.8374 -2.6271 -0.866 -0.291 -0.406 238 237 235 0 0
1.7989 8.8857 -2.1513 -0.344 -0.562 0.752 183 126 107 0 0
1.8450 8.8889 -2.1435 -0.238 -0.502 0.832 180 125 105 0 0
2.0172 8.8647 -2.1113 -0.344 -0.926 0.153 183 130 111 0 0
2.0331 8.8593 -2.1080 -0.344 -0.926 0.153 176 123 105 0 0
2.0485 8.8607 -2.1054 -0.444 -0.869 0.219 162 106 87 0 0
2.3932 8.8245 -2.0420 -0.196 -0.779 0.595 179 126 105 0 0
2.5505 8.7946 -2.0118 -0.053 -0.879 0.474 183 134 115 0 0
2.5662 8.7948 -2.0091 -0.471 -0.871 0.137 153 102 83 0 0
2.6762 8.7894 -1.9893 -0.140 -0.749 0.648 160 110 89 0 0
2.8496 8.7696 -1.9573 0.113 -0.993 0.039 176 122 98 0 0
2.8672 7.8525 -1.8743 0.783 -0.613 -0.102 188 135 114 0 0
2.8818 7.8626 -1.8726 0.675 -0.635 -0.376 171 116 96 0 0
2.8971 7.9064 -1.8737 0.575 -0.818 -0.000 150 95 75 0 0
3.4781 7.8279 -1.7652 -0.403 -0.784 0.473 230 209 182 0 0
3.5235 7.8426 -1.7585 -0.106 -0.828 0.551 226 205 175 0 0
3.5386 7.8464 -1.7562 0.027 -0.864 0.503 227 206 177 0 0
3.5972 7.8404 -1.7454 -0.297 -0.735 0.609 224 205 176 0 0
3.6809 7.7889 -1.7263 -0.143 -0.824 0.548 228 207 178 0 0
3.9619 7.7824 -1.6765 -0.302 -0.675 0.674 223 202 173 0 0
4.1943 7.7379 -1.6320 -0.314 -0.736 0.599 225 204 175 0 0
4.2201 7.7124 -1.6252 -0.394 -0.717 0.575 226 205 176 0 0
4.2395 7.7399 -1.6242 -0.313 -0.831 0.459 224 203 174 0 0
4.2544 7.7398 -1.6216 -0.141 -0.709 0.691 223 204 174 0 0
4.8723 7.5932 -1.5007 -0.157 -0.539 0.828 232 210 184 0 0
5.0689 7.8408 -1.4878 0.270 -0.086 0.959 123 75 58 0 0
5.8030 10.0579 -1.5526 0.370 -0.928 -0.028 118 71 56 0 0
5.8268 10.0751 -1.5499 0.141 -0.976 -0.163 117 68 53 0 0
5.8475 10.0807 -1.5468 0.034 -0.862 -0.506 132 82 66 0 0
6.4598 10.3635 -1.4642 0.250 -0.795 -0.552 137 90 76 0 0
6.6598 10.4851 -1.4398 0.195 -0.979 -0.054 117 85 74 0 0
6.6824 10.4922 -1.4365 -0.025 -0.997 0.079 129 100 88 0 0
6.7608 10.5448 -1.4274 0.417 -0.681 -0.602 150 129 118 0 0
6.7794 10.5390 -1.4236 0.461 -0.766 -0.448 169 150 140 0 0
6.2028 7.7303 -1.2797 -0.866 -0.498 0.037 202 178 147 0 0
6.3556 7.4655 -1.2299 -0.490 -0.871 -0.029 207 190 162 0 0
6.3665 7.4533 -1.2269 -0.322 -0.946 -0.045 208 191 163 0 0
6.5341 7.2175 -1.1770 -0.594 -0.800 -0.085 207 188 158 0 0
6.5579 7.2010 -1.1714 -0.190 -0.961 -0.201 207 188 156 0 0
6.7669 7.0493 -1.1216 -0.110 -0.986 0.129 193 174 144 0 0
6.8551 7.0088 -1.1027 -0.280 -0.936 0.215 193 176 148 0 0
7.0739 6.9245 -1.0570 -0.328 -0.892 0.310 194 176 147 0 0
7.7048 6.9199 -0.9462 -0.260 -0.876 0.406 200 180 150 0 0
7.7536 6.9232 -0.9379 -0.372 -0.928 -0.003 205 187 159 0 0
0.5208 11.5724 -2.6295 -0.712 -0.633 0.305 240 239 237 0 0
0.5433 11.5500 -2.6236 -0.712 -0.633 0.305 239 238 236 0 0
0.5461 11.8866 -2.6530 -0.866 -0.291 -0.406 237 236 234 0 0
1.3295 9.1014 -2.2690 -0.339 -0.645 0.684 174 121 101 0 0
2.0523 8.8448 -2.1199 -0.411 -0.910 0.047 184 128 107 0 0
2.1784 8.8106 -2.0948 0.056 -0.748 0.661 174 118 94 0 0
2.3191 8.7921 -2.0686 -0.589 -0.544 0.598 194 142 122 0 0
2.4127 8.7890 -2.0519 0.108 -0.844 0.526 187 139 121 0 0
2.4282 8.7925 -2.0495 0.108 -0.844 0.526 197 150 133 0 0
2.4594 8.7962 -2.0444 -0.150 -0.817 0.556 191 143 128 0 0
2.5065 8.7895 -2.0356 -0.606 -0.746 0.276 189 141 123 0 0
2.5222 8.7825 -2.0322 0.066 -0.842 0.536 186 138 118 0 0
2.5535 8.7847 -2.0269 0.012 -0.804 0.594 177 128 108 0 0
2.5694 8.7719 -2.0230 -0.383 -0.737 0.557 163 112 92 0 0
3.0008 7.8761 -1.8681 0.170 -0.821 0.545 223 200 167 0 0
3.5252 7.8302 -1.7724 -0.169 -0.789 0.590 223 202 172 0 0
3.6674 7.7734 -1.7425 -0.237 -0.837 0.493 226 205 176 0 0
3.6819 7.7710 -1.7398 -0.237 -0.837 0.493 227 206 177 0 0
4.1317 7.7000 -1.6549 -0.244 -0.639 0.729 225 206 176 0 0
4.1954 7.7276 -1.6462 -0.360 -0.679 0.640 227 206 178 0 0
4.8141 7.5902 -1.5258 -0.384 -0.695 0.608 229 204 177 0 0
4.8432 7.5854 -1.5203 -0.320 -0.609 0.726 223 201 172 0 0
4.8584 7.5862 -1.5177 -0.039 -0.733 0.680 225 206 178 0 0
5.8343 10.0901 -1.5693 0.220 -0.962 -0.160 120 73 58 0 0
5.8525 10.0857 -1.5658 0.039 -0.902 -0.431 136 87 71 0 0
6.1447 10.2264 -1.5272 0.203 -0.920 -0.335 127 79 62 0 0
6.5176 10.4078 -1.4781 0.180 -0.916 -0.359 125 82 66 0 0
6.5387 10.4106 -1.4747 0.180 -0.916 -0.359 118 76 60 0 0
6.6650 10.4894 -1.4596 0.250 -0.945 0.212 134 112 102 0 0
6.7476 10.6181 -1.4566 0.574 -0.516 -0.636 177 162 154 0 0
6.7376 10.5245 -1.4500 0.355 -0.934 0.031 192 179 172 0 0
6.7613 10.5344 -1.4467 0.467 -0.859 -0.212 195 185 178 0 0
6.7870 10.5502 -1.4436 0.565 -0.789 -0.241 199 192 184 0 0
6.2325 7.6303 -1.2815 -0.415 -0.771 -0.483 201 177 146 0 0
6.2456 7.6228 -1.2785 -0.401 -0.843 -0.360 200 178 147 0 0
6.2787 7.5848 -1.2694 -0.606 -0.795 0.038 213 191 160 0 0
6.3571 7.4617 -1.2448 -0.315 -0.947 -0.064 210 193 165 0 0
6.3694 7.4530 -1.2418 -0.322 -0.946 -0.045 210 191 164 0 0
6.5734 7.1944 -1.1832 -0.344 -0.933 0.103 204 185 153 0 0
6.7560 7.0523 -1.1387 -0.415 -0.871 0.264 196 178 148 0 0
6.7980 7.0440 -1.1306 -0.258 -0.965 0.054 196 178 147 0 0
6.9267 6.9607 -1.1008 -0.294 -0.955 0.047 194 174 141 0 0
7.4409 6.8868 -1.0043 -0.209 -0.978 0.005 186 168 138 0 0
0.5020 11.5924 -2.6550 -0.851 -0.521 0.064 239 238 236 0 0
0.5554 11.4963 -2.6370 0.277 -0.566 0.776 237 236 234 0 0
1.3519 9.0693 -2.2788 -0.573 -0.598 0.560 177 126 107 0 0
1.6837 8.8602 -2.2021 -0.007 -0.935 0.354 185 131 113 0 0
1.6989 8.8611 -2.1995 -0.007 -0.935 0.354 185 130 110 0 0
1.7147 8.8570 -2.1963 -0.189 -0.855 0.483 153 97 78 0 0
1.7303 8.8538 -2.1933 0.125 -0.704 0.699 168 112 95 0 0
1.7764 8.8546 -2.1854 -0.181 -0.681 0.710 180 125 105 0 0
1.8241 8.8366 -2.1754 -0.554 -0.597 0.581 151 94 74 0 0
1.8396 8.8352 -2.1726 -0.316 -0.578 0.752 174 117 97 0 0
2.0893 8.7919 -2.1251 -0.315 -0.576 0.755 164 107 85 0 0
2.1362 8.7833 -2.1161 -0.361 -0.652 0.666 180 124 103 0 0
2.1818 8.7991 -2.1096 -0.178 -0.740 0.649 140 86 64 0 0
2.1979 8.7869 -2.1057 -0.448 -0.670 0.592 141 86 65 0 0
2.4472 8.7728 -2.0609 0.050 -0.970 0.237 191 147 130 0 0
2.4628 8.7742 -2.0583 0.050 -0.970 0.237 171 126 108 0 0
2.4783 8.7757 -2.0557 -0.399 -0.769 0.500 191 145 129 0 0
2.4940 8.7731 -2.0528 0.071 -0.914 0.399 186 138 120 0 0
2.5097 8.7715 -2.0499 -0.069 -0.968 0.242 183 135 116 0 0
2.5253 8.7745 -2.0475 -0.166 -0.878 0.448 179 131 109 0 0
2.5409 8.7744 -2.0447 0.001 -0.859 0.512 161 112 90 0 0
3.0325 7.8757 -1.8778 0.191 -0.822 0.536 222 200 168 0 0
3.0607 7.8483 -1.8704 -0.203 -0.814 0.543 226 207 177 0 0
3.2345 7.8285 -1.8383 -0.311 -0.707 0.635 224 203 174 0 0
3.2634 7.8223 -1.8327 -0.364 -0.724 0.586 225 204 175 0 0
3.6987 7.7650 -1.7515 0.043 -0.879 0.475 225 204 174 0 0
3.7279 7.7624 -1.7462 -0.151 -0.911 0.385 227 207 176 0 0
3.7441 7.7757 -1.7446 0.575 -0.802 0.164 227 206 176 0 0
3.7595 7.7814 -1.7424 0.213 -0.934 0.287 225 204 175 0 0
4.1314 7.6793 -1.6683 -0.455 -0.888 0.059 220 203 174 0 0
4.1491 7.6984 -1.6669 0.125 -0.715 0.688 226 206 176 0 0
4.3490 7.6466 -1.6273 -0.082 -0.745 0.662 228 207 177 0 0
4.3813 7.6607 -1.6230 0.062 -0.891 0.450 225 204 175 0 0
4.4106 7.6578 -1.6176 -0.475 -0.802 0.363 228 204 174 0 0
4.6378 7.5946 -1.5723 -0.277 -0.696 0.662 229 208 180 0 0
4.7069 7.5674 -1.5577 -0.386 -0.667 0.637 227 203 176 0 0
4.9680 7.5278 -1.5086 -0.039 -0.356 0.934 212 189 158 0 0
4.9840 7.5320 -1.5062 -0.047 -0.361 0.931 218 194 165 0 0
5.8175 10.0858 -1.5913 0.194 -0.948 -0.252 114 66 52 0 0
5.8391 10.0944 -1.5883 0.220 -0.962 -0.160 125 76 61 0 0
5.8584 10.0944 -1.5849 0.068 -0.957 -0.282 133 84 69 0 0
6.2553 10.3222 -1.5363 0.362 -0.843 -0.398 124 76 61 0 0
6.2719 10.3110 -1.5324 0.052 -0.785 -0.617 122 74 58 0 0
6.3694 10.3704 -1.5207 -0.198 -0.936 -0.290 130 89 78 0 0
6.5325 10.4431 -1.4988 0.250 -0.787 -0.563 133 91 75 0 0
6.5538 10.4466 -1.4954 0.127 -0.991 -0.051 130 91 76 0 0
6.7370 10.6367 -1.4806 0.462 -0.492 -0.738 199 190 182 0 0
6.7524 10.6207 -1.4765 0.497 -0.657 -0.568 202 194 188 0 0
6.7217 10.4641 -1.4677 0.283 -0.854 0.437 204 197 191 0 0
6.7452 10.4735 -1.4644 0.283 -0.854 0.437 205 198 192 0 0
6.2458 7.6153 -1.2935 -0.644 -0.669 -0.371 205 183 150 0 0
6.2573 7.6037 -1.2905 -0.611 -0.792 -0.003 202 182 149 0 0
6.2686 7.5916 -1.2874 -0.606 -0.795 0.038 212 192 160 0 0
6.2804 7.5811 -1.2844 -0.494 -0.869 -0.003 209 189 159 0 0
6.3451 7.4633 -1.2625 -0.651 -0.733 0.198 213 196 166 0 0
6.3594 7.4598 -1.2596 -0.253 -0.859 0.445 212 195 167 0 0
6.3704 7.4479 -1.2567 -0.318 -0.934 0.163 210 193 164 0 0
6.4631 7.2921 -1.2264 -0.518 -0.855 0.020 209 192 164 0 0
6.8258 7.0315 -1.1396 -0.302 -0.945 0.123 194 175 145 0 0
6.9290 6.9593 -1.1150 -0.294 -0.955 0.047 185 166 133 0 0
0.4772 11.5362 -2.6745 -0.228 -0.817 0.530 239 238 236 0 0
0.4965 11.5332 -2.6709 -0.228 -0.817 0.530 238 237 235 0 0
0.5150 11.5343 -2.6677 -0.563 -0.799 0.211 237 236 234 0 0
1.6587 8.8305 -2.2201 -0.297 -0.571 0.766 177 126 105 0 0
1.7189 8.8415 -2.2106 -0.139 -0.700 0.701 177 120 100 0 0
1.8438 8.8178 -2.1866 -0.459 -0.684 0.568 174 117 97 0 0
1.8599 8.8089 -2.1830 -0.498 -0.637 0.589 178 122 101 0 0
2.0928 8.7811 -2.1399 -0.390 -0.662 0.640 177 118 99 0 0
2.1087 8.7724 -2.1363 -0.419 -0.700 0.578 177 117 97 0 0
2.1250 8.7579 -2.1322 -0.665 -0.610 0.430 168 109 88 0 0
2.1395 8.7752 -2.1312 -0.177 -0.681 0.710 189 132 112 0 0
2.2174 8.7631 -2.1165 -0.377 -0.634 0.675 194 143 125 0 0
2.2331 8.7570 -2.1132 -0.394 -0.598 0.698 194 145 126 0 0
2.4657 8.7705 -2.0739 0.050 -0.970 0.237 181 134 116 0 0
2.4814 8.7675 -2.0709 -0.295 -0.781 0.551 176 127 110 0 0
2.5128 8.7600 -2.0648 -0.295 -0.781 0.551 174 122 103 0 0
2.5756 8.7373 -2.0518 0.029 -0.926 0.377 160 108 87 0 0
2.7321 8.7319 -2.0240 -0.067 -0.840 0.539 168 116 95 0 0
2.7635 8.7279 -2.0182 0.089 -0.809 0.582 167 112 92 0 0
2.9648 7.9667 -1.9131 0.282 -0.261 0.923 223 201 170 0 0
3.0346 7.8553 -1.8908 0.246 -0.803 0.543 223 202 171 0 0
3.0623 7.8184 -1.8825 0.098 -0.983 0.157 225 206 176 0 0
3.1782 7.8123 -1.8618 -0.016 -0.697 0.717 223 204 174 0 0
3.2224 7.8239 -1.8551 -0.336 -0.782 0.526 228 207 178 0 0
3.2652 7.8075 -1.8462 -0.363 -0.745 0.560 223 202 173 0 0
3.6298 7.7849 -1.7806 -0.257 -0.920 0.297 222 202 173 0 0
3.7151 7.7549 -1.7629 -0.232 -0.745 0.626 226 203 172 0 0
3.7290 7.7470 -1.7598 -0.145 -0.926 0.349 226 205 174 0 0
3.8456 7.7349 -1.7384 -0.230 -0.775 0.588 223 202 173 0 0
3.8890 7.7276 -1.7301 -0.294 -0.844 0.449 224 205 175 0 0
3.9022 7.7142 -1.7266 -0.614 -0.765 0.193 225 205 174 0 0
3.9142 7.6928 -1.7226 -0.481 -0.843 0.241 228 206 175 0 0
3.9296 7.6982 -1.7204 -0.267 -0.855 0.445 229 206 175 0 0
3.9575 7.6854 -1.7143 -0.360 -0.890 0.280 232 208 179 0 0
4.0044 7.7046 -1.7079 -0.350 -0.936 0.047 224 203 172 0 0
4.1338 7.6771 -1.6829 -0.455 -0.888 0.059 223 204 175 0 0
4.1916 7.6673 -1.6719 -0.435 -0.622 0.651 228 207 179 0 0
4.2060 7.6645 -1.6691 -0.282 -0.916 0.284 228 207 179 0 0
4.2335 7.6508 -1.6631 -0.003 -0.994 -0.107 226 207 177 0 0
4.2638 7.6545 -1.6581 -0.228 -0.871 0.435 227 206 175 0 0
4.2786 7.6539 -1.6555 -0.605 -0.765 -0.223 228 206 175 0 0
4.2925 7.6479 -1.6525 -0.402 -0.907 -0.130 226 205 174 0 0
4.3378 7.6519 -1.6450 -0.248 -0.664 0.706 227 206 175 0 0
4.3496 7.6341 -1.6413 -0.082 -0.745 0.662 227 206 176 0 0
4.3646 7.6347 -1.6387 -0.082 -0.745 0.662 228 207 178 0 0
4.6508 7.5715 -1.5831 -0.151 -0.963 0.224 226 204 174 0 0
4.6664 7.5747 -1.5806 0.181 -0.981 0.065 228 207 177 0 0
4.9277 7.5360 -1.5316 0.076 -0.909 0.409 229 208 179 0 0
4.9372 7.5129 -1.5278 0.153 -0.614 0.774 227 205 176 0 0
4.9538 7.5199 -1.5255 0.153 -0.614 0.774 225 204 174 0 0
4.9653 7.5050 -1.5222 -0.188 -0.498 0.846 216 197 166 0 0
4.9799 7.5036 -1.5195 -0.190 -0.516 0.835 214 195 165 0 0
4.9939 7.4994 -1.5167 -0.300 -0.492 0.817 211 189 161 0 0
5.8439 10.0987 -1.6073 0.220 -0.962 -0.160 117 68 53 0 0
5.9130 10.1398 -1.5991 0.436 -0.866 -0.245 116 68 53 0 0
5.9575 10.1606 -1.5932 0.436 -0.866 -0.245 115 69 53 0 0
6.5579 10.4472 -1.5149 0.368 -0.791 -0.488 147 122 109 0 0
6.5993 10.5144 -1.5139 0.361 -0.918 -0.165 172 155 144 0 0
6.6217 10.5208 -1.5106 0.543 -0.823 -0.168 190 178 169 0 0
6.7578 10.6889 -1.5023 0.462 -0.492 -0.738 206 199 194 0 0
6.7036 10.3969 -1.4849 0.046 -0.653 0.756 209 201 197 0 0
6.2782 7.5675 -1.2991 -0.700 -0.712 0.061 205 185 153 0 0
6.3449 7.4553 -1.2772 -0.703 -0.676 -0.221 210 191 161 0 0
6.3594 7.4522 -1.2744 -0.420 -0.858 0.295 211 193 163 0 0
6.4315 7.3593 -1.2533 -0.577 -0.803 -0.148 212 195 165 0 0
6.4665 7.2931 -1.2411 -0.485 -0.862 0.148 207 190 162 0 0
6.4960 7.2524 -1.2322 -0.411 -0.891 -0.193 206 189 159 0 0
6.5087 7.2460 -1.2294 -0.411 -0.891 -0.193 205 187 157 0 0
6.5220 7.2407 -1.2266 -0.557 -0.759 -0.336 198 179 147 0 0
6.8470 7.0053 -1.1484 -0.238 -0.971 0.035 196 179 151 0 0
6.9195 6.9652 -1.1320 -0.216 -0.966 0.144 190 171 139 0 0
0.4043 11.5437 -2.7082 -0.794 -0.589 -0.150 240 239 237 0 0
0.4442 11.4213 -2.6898 0.033 -0.675 0.737 240 239 237 0 0
0.4782 11.5501 -2.6959 0.056 -0.388 0.920 238 237 235 0 0
1.3484 9.0188 -2.3080 -0.168 -0.722 0.671 181 132 111 0 0
1.3790 9.0205 -2.3028 -0.059 -0.722 0.689 191 140 120 0 0
1.6335 8.8051 -2.2384 -0.360 -0.761 0.540 187 139 118 0 0
1.6492 8.8012 -2.2353 -0.222 -0.744 0.630 189 141 120 0 0
1.6800 8.7979 -2.2297 -0.251 -0.713 0.655 177 125 104 0 0
1.7231 8.8264 -2.2248 -0.139 -0.700 0.701 175 120 100 0 0
1.7534 8.8299 -2.2199 -0.221 -0.707 0.672 199 149 128 0 0
1.8334 8.7916 -2.2024 -0.340 -0.541 0.769 176 119 98 0 0
1.8480 8.8005 -2.2007 -0.324 -0.594 0.736 183 127 107 0 0
1.8640 8.7928 -2.1972 -0.449 -0.545 0.708 178 123 102 0 0
1.9883 8.7727 -2.1737 -0.403 -0.577 0.710 178 128 105 0 0
2.1286 8.7433 -2.1465 -0.601 -0.607 0.519 180 126 105 0 0
2.2368 8.7382 -2.1272 -0.394 -0.598 0.698 172 125 107 0 0
2.7350 8.7184 -2.0387 -0.120 -0.979 0.165 159 107 86 0 0
2.7663 8.7194 -2.0333 -0.144 -0.846 0.513 160 107 86 0 0
2.8483 7.8050 -1.9336 0.632 -0.768 -0.100 155 108 84 0 0
2.8926 7.8725 -1.9322 0.341 -0.898 -0.279 222 196 166 0 0
2.9072 7.8776 -1.9302 0.359 -0.915 -0.184 222 199 167 0 0
2.9213 7.8581 -1.9259 -0.053 -0.852 0.521 223 200 168 0 0
2.9781 7.8153 -1.9120 0.043 -0.747 0.663 224 202 171 0 0
3.0494 7.7872 -1.8970 0.131 -0.830 0.542 224 203 173 0 0
3.0640 7.7909 -1.8948 0.131 -0.830 0.542 224 205 175 0 0
3.2530 7.8009 -1.8629 -0.363 -0.745 0.560 228 207 178 0 0
3.2673 7.7966 -1.8600 -0.336 -0.716 0.612 229 208 179 0 0
3.4989 7.7688 -1.8171 -0.043 -0.694 0.718 222 203 173 0 0
3.6747 7.7651 -1.7861 -0.725 -0.688 -0.017 224 204 175 0 0
3.8028 7.7235 -1.7600 -0.198 -0.728 0.657 227 206 179 0 0
3.8471 7.7239 -1.7523 -0.230 -0.775 0.588 224 203 174 0 0
3.8902 7.7146 -1.7439 -0.512 -0.836 0.197 227 208 178 0 0
3.9042 7.7089 -1.7410 -0.614 -0.765 0.193 228 207 176 0 0
3.9174 7.6960 -1.7375 -0.398 -0.917 0.023 228 206 174 0 0
3.9458 7.6875 -1.7317 -0.504 -0.809 0.302 229 206 175 0 0
3.9621 7.6992 -1.7300 -0.232 -0.857 0.460 232 209 179 0 0
4.0370 7.7064 -1.7176 -0.213 -0.892 0.398 228 209 178 0 0
4.1362 7.6749 -1.6974 -0.455 -0.888 0.059 227 208 178 0 0
4.1492 7.6626 -1.6940 -0.023 -0.937 0.349 221 200 171 0 0
4.1644 7.6654 -1.6916 0.206 -0.924 0.322 221 200 171 0 0
4.1794 7.6665 -1.6891 -0.550 -0.756 0.355 227 206 177 0 0
4.2116 7.6821 -1.6850 -0.215 -0.786 0.580 227 206 177 0 0
4.2544 7.6710 -1.6765 0.410 -0.889 0.205 225 205 176 0 0
4.2656 7.6485 -1.6724 -0.192 -0.937 0.292 224 204 174 0 0
4.3506 7.6240 -1.6554 -0.012 -0.716 0.698 224 203 174 0 0
4.6952 7.5562 -1.5891 -0.303 -0.693 0.654 229 206 175 0 0
4.8414 7.5404 -1.5622 -0.302 -0.743 0.598 230 211 181 0 0
4.8545 7.5321 -1.5591 -0.495 -0.698 0.518 228 209 179 0 0
4.8679 7.5250 -1.5561 -0.425 -0.742 0.519 231 211 182 0 0
4.9081 7.5048 -1.5472 -0.412 -0.776 0.477 230 210 183 0 0
4.9807 7.4952 -1.5337 -0.480 -0.472 0.740 225 207 177 0 0
4.9937 7.4868 -1.5307 -0.480 -0.472 0.740 219 199 169 0 0
6.5555 10.4919 -1.5397 0.469 -0.880 -0.070 165 147 136 0 0
6.6673 10.5238 -1.5232 -0.031 -0.742 0.670 208 201 195 0 0
6.7644 10.5081 -1.5049 0.280 -0.959 -0.029 215 208 202 0 0
6.7871 10.5152 -1.5016 0.275 -0.959 0.069 216 209 203 0 0
6.3471 7.4533 -1.2921 -0.453 -0.814 -0.364 208 189 157 0 0
6.3628 7.4533 -1.2893 -0.395 -0.868 -0.302 209 190 159 0 0
6.3740 7.4418 -1.2863 -0.299 -0.914 0.275 211 194 164 0 0
6.4207 7.3637 -1.2709 -0.300 -0.952 -0.057 206 189 159 0 0
6.6746 7.1241 -1.2043 -0.258 -0.956 0.137 206 187 155 0 0
6.6897 7.1234 -1.2016 -0.317 -0.947 -0.054 196 179 149 0 0
6.8330 7.0017 -1.1653 -0.154 -0.986 0.059 194 174 147 0 0
0.4107 11.5263 -2.7257 -0.534 -0.819 0.208 239 238 236 0 0
0.4577 11.4703 -2.7122 0.492 -0.491 0.719 239 238 236 0 0
0.6724 11.4115 -2.6693 -0.879 -0.429 -0.208 228 227 225 0 0
1.6992 8.7862 -2.2415 -0.210 -0.584 0.784 169 117 96 0 0
1.7273 8.8114 -2.2390 -0.191 -0.634 0.749 160 109 90 0 0
1.8820 8.7946 -2.2106 -0.192 -0.817 0.543 192 141 120 0 0
1.9457 8.7643 -2.1966 -0.238 -0.594 0.768 166 104 85 0 0
1.9769 8.7570 -2.1905 -0.384 -0.553 0.739 172 118 98 0 0
2.0086 8.7412 -2.1835 -0.397 -0.598 0.696 175 126 105 0 0
2.3333 8.7144 -2.1246 -0.503 -0.648 0.572 187 139 122 0 0
2.4578 8.6905 -2.1007 -0.297 -0.783 0.547 166 120 99 0 0
2.4733 8.6906 -2.0980 -0.200 -0.781 0.591 176 130 110 0 0
2.7065 8.7191 -2.0602 0.267 -0.881 0.391 151 99 78 0 0
2.7222 8.7172 -2.0573 -0.239 -0.927 0.288 163 111 90 0 0
2.7378 8.7154 -2.0544 -0.120 -0.979 0.165 165 113 91 0 0
2.7535 8.7142 -2.0516 -0.343 -0.821 0.457 151 99 77 0 0
2.7691 8.7098 -2.0484 -0.144 -0.846 0.513 139 88 66 0 0
2.8953 7.8725 -1.9470 0.228 -0.972 0.052 225 202 171 0 0
2.9093 7.8491 -1.9423 0.013 -0.810 0.587 226 203 171 0 0
2.9238 7.8501 -1.9399 -0.013 -0.715 0.699 222 199 167 0 0
3.0518 7.7779 -1.9108 0.256 -0.809 0.529 225 205 176 0 0
3.1528 7.7759 -1.8930 -0.075 -0.622 0.779 222 203 173 0 0
3.2258 7.7866 -1.8814 -0.424 -0.803 0.418 226 205 176 0 0
3.2683 7.7681 -1.8722 -0.591 -0.602 0.537 225 203 175 0 0
3.2834 7.7777 -1.8705 -0.226 -0.699 0.679 226 204 177 0 0
3.2977 7.7738 -1.8677 -0.239 -0.652 0.720 227 205 177 0 0
3.8930 7.7149 -1.7587 -0.672 -0.735 0.086 227 206 178 0 0
3.9063 7.7036 -1.7553 -0.614 -0.765 0.193 221 199 168 0 0
3.9196 7.6920 -1.7519 -0.610 -0.725 0.321 220 197 163 0 0
3.9334 7.6848 -1.7488 -0.060 -0.958 0.281 222 199 166 0 0
3.9475 7.6798 -1.7459 -0.489 -0.640 0.592 222 199 168 0 0
4.0222 7.6867 -1.7335 -0.242 -0.782 0.575 227 205 174 0 0
4.1499 7.6493 -1.7078 -0.142 -0.862 0.487 229 210 180 0 0
4.1802 7.6533 -1.7029 -0.314 -0.742 0.592 226 205 175 0 0
4.2505 7.6296 -1.6885 -0.042 -0.685 0.727 224 203 174 0 0
4.2674 7.6422 -1.6867 -0.207 -0.895 0.394 226 205 176 0 0
4.3139 7.6540 -1.6798 0.197 -0.922 0.334 230 209 180 0 0
4.3383 7.6222 -1.6725 -0.489 -0.598 0.635 228 207 178 0 0
4.9088 7.4957 -1.5614 -0.412 -0.776 0.477 226 207 179 0 0
4.9675 7.4907 -1.5507 -0.603 -0.484 0.635 224 202 174 0 0
5.0673 7.4701 -1.5314 0.087 -0.490 0.868 208 176 150 0 0
6.6843 10.5012 -1.5385 -0.150 -0.713 0.685 213 205 200 0 0
6.7527 10.4610 -1.5228 0.651 -0.743 0.154 217 210 203 0 0
6.7884 10.5071 -1.5210 0.214 -0.879 0.426 217 210 204 0 0
6.3634 7.4470 -1.3041 -0.595 -0.658 -0.461 206 190 158 0 0
6.3993 7.3803 -1.2915 -0.353 -0.935 -0.034 210 193 165 0 0
6.4125 7.3745 -1.2887 -0.526 -0.850 0.015 208 190 160 0 0
6.4941 7.2337 -1.2611 -0.554 -0.825 0.112 205 188 158 0 0
6.5078 7.2296 -1.2583 -0.258 -0.942 0.215 205 188 159 0 0
6.5333 7.2169 -1.2527 -0.468 -0.868 0.166 205 186 156 0 0
6.6751 7.1185 -1.2187 -0.478 -0.866 0.146 198 179 147 0 0
7.3555 6.8489 -1.0749 0.042 -0.913 0.405 161 141 109 0 0
8.1468 7.1299 -0.9642 0.230 -0.939 0.256 219 204 181 0 0
0.3534 11.2442 -2.7286 0.380 -0.631 -0.676 240 240 238 0 0
0.4161 11.5144 -2.7438 -0.465 -0.878 0.110 238 237 235 0 0
0.6344 11.3198 -2.6872 -0.559 -0.758 0.336 231 230 226 0 0
0.6464 11.4795 -2.7005 -0.839 -0.431 -0.333 229 228 224 0 0
0.6768 11.4044 -2.6880 -0.830 -0.460 -0.314 228 227 224 0 0
1.6426 8.7701 -2.2661 -0.293 -0.772 0.564 174 125 107 0 0
2.0271 8.7365 -2.1962 -0.425 -0.669 0.610 173 122 103 0 0
2.1056 8.7063 -2.1796 -0.138 -0.655 0.743 171 120 100 0 0
2.1517 8.7058 -2.1716 -0.507 -0.786 0.354 187 142 124 0 0
2.4454 8.6815 -2.1183 0.032 -0.900 0.435 162 111 91 0 0
2.4610 8.6764 -2.1151 -0.084 -0.946 0.314 166 116 96 0 0
2.5229 8.6752 -2.1042 0.038 -0.969 0.244 172 120 101 0 0
2.5382 8.6898 -2.1030 0.153 -0.941 0.301 167 114 97 0 0
2.7094 8.7098 -2.0752 0.108 -0.920 0.376 148 96 75 0 0
2.7250 8.7120 -2.0727 -0.113 -0.922 0.371 155 102 81 0 0
2.7407 8.7124 -2.0701 -0.120 -0.979 0.165 164 112 90 0 0
2.7563 8.7128 -2.0674 -0.380 -0.924 0.050 154 102 80 0 0
3.2283 7.7840 -1.8958 -0.330 -0.717 0.614 225 204 175 0 0
3.5737 7.7245 -1.8302 0.307 -0.911 0.274 227 206 178 0 0
3.9352 7.6774 -1.7629 -0.089 -0.975 0.202 223 200 167 0 0
3.9623 7.6590 -1.7564 -0.524 -0.582 0.622 225 204 173 0 0
3.9770 7.6590 -1.7539 -0.496 -0.627 0.600 227 206 175 0 0
4.2659 7.6162 -1.6997 -0.029 -0.733 0.680 223 203 173 0 0
4.6530 7.5418 -1.6253 -0.527 -0.719 0.452 225 202 170 0 0
4.6657 7.5309 -1.6221 -0.356 -0.786 0.505 225 202 170 0 0
4.6946 7.5267 -1.6167 -0.315 -0.753 0.577 222 199 168 0 0
4.7056 7.5087 -1.6130 -0.431 -0.655 0.620 227 203 173 0 0
4.9063 7.4735 -1.5748 -0.125 -0.953 0.278 225 206 176 0 0
6.1607 10.2858 -1.6288 0.003 -0.921 -0.390 113 70 52 0 0
6.5913 10.4524 -1.5702 0.187 -0.878 0.441 211 202 198 0 0
6.6131 10.4571 -1.5669 0.119 -0.837 0.534 211 205 197 0 0
6.6859 10.5572 -1.5639 0.308 -0.888 -0.343 212 206 200 0 0
6.7153 10.5218 -1.5554 0.254 -0.771 0.584 216 207 204 0 0
6.7861 10.6127 -1.5519 -0.561 -0.291 0.775 216 210 204 0 0
6.7809 10.5344 -1.5453 -0.611 -0.295 0.734 217 210 202 0 0
6.8103 10.5615 -1.5428 -0.765 -0.158 0.625 218 211 204 0 0
6.8267 10.5491 -1.5387 -0.237 -0.323 0.916 218 211 205 0 0
6.3576 7.4645 -1.3222 -0.553 -0.682 -0.479 207 188 157 0 0
6.4040 7.3846 -1.3064 -0.330 -0.932 0.152 206 189 159 0 0
6.4965 7.2323 -1.2757 -0.468 -0.868 0.166 206 189 159 0 0
6.5094 7.2262 -1.2729 -0.397 -0.912 0.100 203 186 158 0 0
6.9230 6.9539 -1.1748 -0.218 -0.906 0.363 189 170 140 0 0
8.1476 7.1260 -0.9791 0.230 -0.939 0.256 214 199 177 0 0
0.4213 11.5041 -2.7622 -0.607 -0.666 0.435 237 237 235 0 0
0.5272 11.4288 -2.7364 0.320 -0.360 0.877 234 233 231 0 0
0.6458 11.5054 -2.7234 -0.742 -0.445 -0.502 232 228 224 0 0
2.2782 8.6900 -2.1644 -0.347 -0.660 0.666 175 127 107 0 0
2.4794 8.6695 -2.1275 -0.252 -0.928 0.274 160 109 92 0 0
2.4949 8.6702 -2.1249 -0.150 -0.971 0.184 171 120 101 0 0
2.5103 8.6713 -2.1224 -0.205 -0.919 0.338 160 108 88 0 0
2.8699 7.7625 -1.9709 -0.593 -0.561 0.578 226 204 173 0 0
3.9242 7.6852 -1.7807 -0.472 -0.779 0.412 228 205 173 0 0
3.9373 7.6720 -1.7772 -0.063 -0.937 0.344 226 203 172 0 0
4.2649 7.5937 -1.7128 -0.025 -0.743 0.669 229 208 177 0 0
4.2797 7.5936 -1.7102 -0.367 -0.693 0.621 228 209 178 0 0
6.5805 10.4063 -1.5878 -0.693 -0.709 -0.130 212 205 200 0 0
6.6577 10.4575 -1.5794 0.164 -0.881 0.443 215 208 202 0 0
6.7387 10.5818 -1.5776 0.171 -0.851 -0.496 217 210 204 0 0
6.7998 10.5179 -1.5608 -0.378 -0.334 0.864 219 212 206 0 0
6.1699 8.4168 -1.4636 -0.410 -0.866 0.285 221 217 208 0 0
6.3840 7.4444 -1.3311 -0.220 -0.966 0.139 209 189 158 0 0
6.4069 7.3844 -1.3213 -0.358 -0.886 0.294 208 189 159 0 0
6.4963 7.2248 -1.2901 -0.394 -0.859 0.328 188 171 142 0 0
6.5458 7.1962 -1.2787 -0.409 -0.841 0.355 201 181 152 0 0
6.7891 7.0194 -1.2193 -0.285 -0.943 0.174 197 178 146 0 0
6.8687 6.9938 -1.2030 -0.255 -0.962 0.098 176 155 124 0 0
6.9263 6.9546 -1.1891 -0.318 -0.939 -0.133 189 171 141 0 0
8.0359 7.0429 -1.0056 -0.217 -0.967 0.134 213 197 172 0 0
0.4636 11.3857 -2.7633 -0.318 -0.461 0.829 236 235 233 0 0
0.6737 11.4680 -2.7351 -0.778 -0.449 -0.440 229 225 222 0 0
1.7283 8.7271 -2.2795 -0.250 -0.653 0.715 184 137 117 0 0
2.4359 8.6712 -2.1516 0.053 -0.996 0.068 144 93 73 0 0
2.5133 8.6651 -2.1376 -0.205 -0.919 0.338 166 114 93 0 0
2.6374 8.6604 -2.1156 -0.193 -0.972 0.134 164 109 89 0 0
3.2009 7.7105 -1.9235 -0.423 -0.723 0.546 221 200 169 0 0
3.2150 7.7045 -1.9204 -0.476 -0.748 0.463 220 200 169 0 0
3.6590 7.6453 -1.8378 0.149 -0.788 0.598 227 204 173 0 0
3.7485 7.6646 -1.8242 -0.263 -0.691 0.673 228 207 179 0 0
3.8957 7.6706 -1.7994 -0.253 -0.876 0.412 223 200 168 0 0
3.9085 7.6559 -1.7957 -0.558 -0.639 0.529 226 203 171 0 0
4.2083 7.5917 -1.7374 -0.268 -0.664 0.698 226 203 172 0 0
4.3672 7.5706 -1.7079 -0.076 -0.749 0.658 225 204 175 0 0
4.6937 7.4964 -1.6440 -0.342 -0.633 0.694 225 202 170 0 0
4.7075 7.4916 -1.6411 -0.393 -0.707 0.588 222 200 169 0 0
4.7616 7.4671 -1.6294 -0.152 -0.754 0.639 226 205 177 0 0
6.4498 10.6966 -1.6595 0.567 -0.369 -0.737 203 194 185 0 0
6.4940 10.7752 -1.6597 0.568 -0.353 -0.744 203 195 188 0 0
6.5335 10.8374 -1.6590 0.568 -0.353 -0.744 204 197 190 0 0
6.5660 10.7400 -1.6437 0.684 -0.417 -0.599 210 201 196 0 0
6.5088 10.2943 -1.6091 -0.439 -0.619 0.651 213 206 200 0 0
6.5629 10.3385 -1.6042 0.086 -0.863 0.499 214 207 203 0 0
6.5996 10.3905 -1.6031 -0.662 -0.619 0.423 215 207 204 0 0
6.1543 8.4113 -1.4827 0.078 -0.876 0.477 223 218 209 0 0
6.1718 8.4127 -1.4798 -0.509 -0.828 0.235 224 219 210 0 0
6.2379 7.6728 -1.3946 -0.855 -0.519 0.003 198 174 140 0 0
6.2476 7.6561 -1.3913 -0.788 -0.614 0.032 199 175 141 0 0
6.4280 7.3522 -1.3298 -0.297 -0.936 0.188 207 188 158 0 0
6.7510 7.0296 -1.2418 -0.416 -0.908 0.055 197 180 152 0 0
6.7897 7.0144 -1.2335 -0.298 -0.953 0.055 188 169 137 0 0
6.8709 6.9921 -1.2173 -0.323 -0.944 0.068 186 165 134 0 0
0.2686 11.5597 -2.8346 0.659 -0.622 -0.424 241 240 238 0 0
0.4892 11.2555 -2.7657 0.130 -0.535 0.835 235 234 232 0 0
0.5217 11.2802 -2.7626 -0.295 -0.809 0.509 235 234 232 0 0
0.6641 11.6755 -2.7781 -0.891 -0.288 -0.352 227 225 220 0 0
1.4722 8.8720 -2.3546 -0.495 -0.701 0.513 176 125 106 0 0
1.4880 8.8672 -2.3514 -0.640 -0.716 0.278 170 118 98 0 0
1.5048 8.8538 -2.3471 -0.640 -0.716 0.278 176 125 104 0 0
1.6390 8.7380 -2.3122 -0.432 -0.691 0.579 174 123 105 0 0
2.2245 8.6429 -2.2015 0.197 -0.824 0.530 185 137 118 0 0
2.5007 8.6631 -2.1559 -0.287 -0.957 0.050 153 102 81 0 0
2.5469 8.6741 -2.1490 -0.261 -0.894 0.364 165 111 90 0 0
2.7892 7.7260 -2.0112 -0.141 -0.762 0.633 226 195 169 0 0
3.0173 7.7184 -1.9710 -0.456 -0.607 0.651 227 207 180 0 0
3.1604 7.7100 -1.9454 0.001 -0.791 0.612 223 204 174 0 0
3.2029 7.6960 -1.9367 -0.460 -0.736 0.497 223 204 172 0 0
3.2170 7.6912 -1.9338 -0.357 -0.810 0.464 224 205 175 0 0
3.4185 7.6839 -1.8982 -0.505 -0.710 0.491 227 207 179 0 0
3.5483 7.6763 -1.8750 -0.445 -0.690 0.571 226 204 174 0 0
3.7355 7.6548 -1.8406 -0.385 -0.809 0.444 225 204 175 0 0
3.7495 7.6494 -1.8376 -0.290 -0.775 0.561 228 207 177 0 0
4.1070 7.5848 -1.7693 -0.394 -0.686 0.611 226 205 176 0 0
4.4904 7.5022 -1.6948 -0.163 -0.878 0.449 228 207 178 0 0
4.6941 7.4852 -1.6579 -0.618 -0.690 0.378 225 204 173 0 0
4.7203 7.4691 -1.6517 -0.546 -0.690 0.475 224 204 173 0 0
4.8458 7.4331 -1.6264 -0.294 -0.748 0.595 223 202 173 0 0
5.1354 7.4001 -1.5731 0.193 -0.258 0.947 191 161 137 0 0
6.0595 10.2369 -1.7009 -0.460 -0.847 -0.268 119 72 56 0 0
6.0796 10.2386 -1.6976 0.016 -0.993 0.117 121 75 60 0 0
6.3557 10.5732 -1.6838 0.667 -0.484 -0.567 200 192 186 0 0
6.3933 10.6316 -1.6832 0.600 -0.455 -0.658 204 196 190 0 0
6.4402 10.7203 -1.6841 0.484 -0.389 -0.784 206 197 192 0 0
6.4832 10.7953 -1.6843 0.584 -0.379 -0.718 207 198 192 0 0
6.5915 11.0157 -1.6879 0.656 -0.346 -0.671 209 200 195 0 0
6.6398 11.1050 -1.6886 0.616 -0.337 -0.712 209 202 196 0 0
6.6660 11.1213 -1.6857 0.698 -0.386 -0.603 209 202 196 0 0
6.6684 11.0596 -1.6791 0.530 -0.407 -0.744 211 204 198 0 0
6.5815 10.3852 -1.6258 -0.464 -0.583 0.667 216 208 204 0 0
6.6172 10.3080 -1.6118 -0.248 -0.965 0.089 218 211 205 0 0
6.7241 10.3887 -1.6015 -0.001 -0.571 0.821 220 213 207 0 0
6.2085 8.6135 -1.5107 -0.987 0.005 -0.159 222 218 209 0 0
6.1731 8.4072 -1.4959 -0.399 -0.916 0.048 224 219 210 0 0
6.1832 7.9114 -1.4440 -0.906 -0.276 -0.320 195 166 134 0 0
6.2402 7.6707 -1.4097 -0.768 -0.598 -0.229 201 176 143 0 0
6.2462 7.6443 -1.4060 -0.846 -0.531 -0.051 194 170 137 0 0
6.4133 7.3468 -1.3471 -0.327 -0.865 -0.380 202 183 153 0 0
6.4251 7.3376 -1.3441 -0.376 -0.891 -0.254 208 189 159 0 0
6.5472 7.1855 -1.3076 -0.266 -0.963 0.039 204 185 155 0 0
6.5868 7.1703 -1.2992 -0.453 -0.864 -0.220 195 178 148 0 0
7.4445 6.8493 -1.1186 0.167 -0.943 0.287 200 179 148 0 0
8.0207 7.0073 -1.0352 0.063 -0.952 -0.299 216 200 175 0 0
0.4965 11.2320 -2.7819 0.130 -0.535 0.835 236 235 233 0 0
0.5132 11.2415 -2.7800 -0.317 -0.578 0.752 236 235 233 0 0
0.5284 11.2602 -2.7793 -0.213 -0.761 0.613 235 234 232 0 0
0.7152 11.3633 -2.7577 -0.892 -0.380 -0.245 228 225 220 0 0
1.5086 8.8447 -2.3619 -0.640 -0.716 0.278 180 129 109 0 0
1.6598 8.7093 -2.3219 -0.498 -0.653 0.571 178 124 103 0 0
1.6914 8.6951 -2.3150 -0.210 -0.671 0.711 183 128 105 0 0
1.7679 8.6860 -2.3009 -0.494 -0.625 0.604 181 132 109 0 0
1.7832 8.6833 -2.2979 -0.385 -0.616 0.687 180 130 107 0 0
2.1519 8.6257 -2.2285 -0.422 -0.761 0.492 182 134 114 0 0
2.1671 8.6264 -2.2259 -0.418 -0.648 0.637 181 134 112 0 0
2.3350 8.6329 -2.1976 0.132 -0.991 0.031 166 116 95 0 0
2.3501 8.6379 -2.1955 0.047 -0.982 0.181 162 111 90 0 0
2.4114 8.6440 -2.1856 0.048 -0.957 0.285 153 102 80 0 0
2.5035 8.6659 -2.1720 -0.207 -0.969 -0.135 166 115 94 0 0
2.5809 8.6678 -2.1588 -0.028 -0.864 0.503 172 120 98 0 0
2.7916 7.6997 -2.0229 -0.123 -0.712 0.692 224 201 171 0 0
2.9340 7.7122 -1.9997 -0.211 -0.719 0.662 225 204 175 0 0
2.9626 7.7146 -1.9950 -0.274 -0.667 0.692 225 205 174 0 0
3.1626 7.6995 -1.9590 0.001 -0.791 0.612 223 203 174 0 0
3.1769 7.6986 -1.9564 -0.130 -0.810 0.572 228 209 179 0 0
3.1912 7.6981 -1.9539 -0.130 -0.810 0.572 226 207 177 0 0
3.2052 7.6900 -1.9507 -0.429 -0.832 0.353 226 207 177 0 0
3.2193 7.6853 -1.9477 -0.560 -0.764 0.321 226 207 177 0 0
3.4490 7.6692 -1.9065 -0.142 -0.696 0.704 223 203 173 0 0
3.5483 7.6449 -1.8869 -0.232 -0.888 0.396 226 205 175 0 0
3.6617 7.6181 -1.8646 0.280 -0.758 0.589 227 204 173 0 0
3.7636 7.6205 -1.8473 -0.236 -0.705 0.668 225 202 171 0 0
3.7778 7.6173 -1.8445 -0.214 -0.737 0.641 224 202 171 0 0
3.7915 7.6097 -1.8413 -0.362 -0.660 0.658 227 205 174 0 0
3.8051 7.6019 -1.8382 -0.331 -0.667 0.668 226 206 174 0 0
3.8204 7.6082 -1.8362 -0.126 -0.825 0.550 225 204 173 0 0
3.8349 7.6074 -1.8336 -0.103 -0.847 0.521 225 204 173 0 0
3.9788 7.5907 -1.8071 -0.234 -0.759 0.608 225 204 174 0 0
4.2820 7.5579 -1.7515 -0.095 -0.652 0.752 227 207 180 0 0
4.4466 7.4898 -1.7161 -0.306 -0.922 0.237 228 205 175 0 0
4.4607 7.4864 -1.7133 -0.451 -0.891 -0.046 228 207 178 0 0
4.4753 7.4859 -1.7107 -0.384 -0.889 0.250 226 205 178 0 0
4.4897 7.4843 -1.7081 -0.253 -0.966 0.050 224 203 174 0 0
4.6527 7.4863 -1.6802 -0.279 -0.845 0.457 226 205 176 0 0
4.7087 7.4713 -1.6690 -0.682 -0.726 0.086 226 205 175 0 0
4.7208 7.4585 -1.6656 -0.610 -0.768 0.194 226 204 174 0 0
4.7329 7.4461 -1.6622 -0.387 -0.905 0.175 225 205 174 0 0
5.0148 7.3834 -1.6072 -0.052 -0.796 0.603 229 209 180 0 0
6.0640 10.2398 -1.7201 -0.423 -0.836 -0.349 129 85 71 0 0
6.0898 10.2617 -1.7179 0.165 -0.984 -0.067 120 80 67 0 0
6.3435 10.5876 -1.7077 0.632 -0.505 -0.588 207 196 192 0 0
6.3740 10.6220 -1.7060 0.666 -0.485 -0.567 206 196 192 0 0
6.4078 10.6674 -1.7048 0.636 -0.480 -0.605 206 198 191 0 0
6.4427 10.7156 -1.7038 0.588 -0.512 -0.627 208 200 193 0 0
6.4745 10.7528 -1.7021 0.512 -0.496 -0.702 209 202 194 0 0
6.4983 10.7633 -1.6991 0.669 -0.667 -0.327 209 202 194 0 0
6.5355 10.8177 -1.6983 0.722 -0.528 -0.447 210 204 196 0 0
6.5681 10.8565 -1.6967 0.687 -0.544 -0.482 212 205 199 0 0
6.6974 11.2103 -1.7108 0.609 -0.362 -0.705 212 205 199 0 0
6.6019 10.6971 -1.6744 -0.823 -0.559 0.098 215 208 201 0 0
6.5801 10.3055 -1.6379 0.544 -0.820 0.178 217 210 204 0 0
6.2126 8.6157 -1.5275 -0.987 0.003 -0.158 224 219 213 0 0
6.1492 8.3771 -1.5138 0.561 -0.814 0.151 224 220 213 0 0
6.2428 7.6696 -1.4249 -0.702 -0.535 -0.469 203 178 147 0 0
6.4143 7.3419 -1.3617 -0.047 -0.912 -0.407 204 185 155 0 0
6.5780 7.1787 -1.3167 -0.298 -0.901 -0.315 196 179 149 0 0
6.6723 7.0790 -1.2902 -0.589 -0.805 0.075 195 172 139 0 0
8.0281 7.0143 -1.0498 0.003 -0.916 -0.401 212 195 169 0 0
0.7161 11.3790 -2.7793 -0.869 -0.366 -0.333 228 224 220 0 0
1.6957 8.6792 -2.3287 -0.210 -0.671 0.711 178 126 102 0 0
2.1554 8.6108 -2.2425 -0.462 -0.716 0.524 178 127 105 0 0
2.3682 8.6412 -2.2090 -0.225 -0.953 0.202 167 116 95 0 0
2.4144 8.6365 -2.2006 -0.175 -0.970 0.167 149 98 76 0 0
2.4298 8.6375 -2.1980 -0.073 -0.969 0.235 148 95 74 0 0
2.9362 7.6967 -2.0126 -0.095 -0.681 0.726 225 205 176 0 0
2.9504 7.6927 -2.0098 -0.187 -0.662 0.726 229 209 179 0 0
3.0217 7.6931 -1.9975 -0.458 -0.741 0.490 222 202 173 0 0
3.5504 7.6381 -1.9008 -0.069 -0.832 0.550 222 201 172 0 0
3.7653 7.6113 -1.8610 -0.111 -0.733 0.671 225 200 169 0 0
3.8069 7.5941 -1.8521 -0.384 -0.669 0.636 224 204 172 0 0
3.8365 7.5983 -1.8474 -0.126 -0.825 0.550 225 203 172 0 0
3.9517 7.5867 -1.8264 -0.465 -0.695 0.548 226 205 174 0 0
3.9796 7.5767 -1.8205 -0.194 -0.753 0.629 224 203 173 0 0
4.3686 7.5316 -1.7489 0.113 -0.783 0.612 227 206 177 0 0
4.4493 7.4893 -1.7306 -0.403 -0.891 0.209 224 202 171 0 0
4.4772 7.4812 -1.7249 -0.384 -0.889 0.250 225 204 175 0 0
4.4927 7.4853 -1.7227 0.119 -0.984 0.133 226 206 177 0 0
4.8664 7.3707 -1.6464 -0.234 -0.918 0.321 222 202 173 0 0
4.8790 7.3616 -1.6433 -0.372 -0.843 0.388 217 197 168 0 0
4.8913 7.3514 -1.6401 -0.017 -0.795 0.606 211 194 164 0 0
4.9964 7.3582 -1.6227 0.008 -0.755 0.656 226 205 176 0 0
6.0941 10.2638 -1.7372 0.165 -0.984 -0.067 126 99 89 0 0
6.2347 10.4784 -1.7354 0.723 -0.594 -0.352 203 191 185 0 0
6.2653 10.5148 -1.7339 0.723 -0.594 -0.352 204 197 190 0 0
6.3049 10.5815 -1.7341 0.784 -0.532 -0.320 206 198 191 0 0
6.3610 10.6340 -1.7299 0.658 -0.492 -0.570 208 200 192 0 0
6.3910 10.6667 -1.7282 0.668 -0.472 -0.575 208 202 194 0 0
6.4264 10.7169 -1.7273 0.686 -0.481 -0.546 208 203 194 0 0
6.4530 10.7368 -1.7248 0.409 -0.497 -0.765 207 202 194 0 0
6.4746 10.7401 -1.7214 0.165 -0.450 -0.877 210 204 197 0 0
6.5440 10.8330 -1.7192 0.503 -0.471 -0.724 212 205 200 0 0
6.5010 10.2968 -1.6706 -0.213 -0.944 0.250 217 210 203 0 0
6.7319 10.4506 -1.6469 -0.516 -0.290 0.806 221 217 210 0 0
6.2152 8.6138 -1.5440 -0.987 0.003 -0.158 224 221 215 0 0
6.1587 8.3956 -1.5310 0.059 -0.964 0.258 225 221 215 0 0
6.2456 7.6687 -1.4401 -0.854 -0.495 -0.160 204 179 149 0 0
6.4417 7.3256 -1.3705 -0.327 -0.850 -0.413 204 185 155 0 0
6.4349 7.2713 -1.3660 0.060 -0.877 -0.477 204 185 156 0 0
6.4960 7.2693 -1.3553 -0.113 -0.904 -0.412 205 186 156 0 0
6.5571 7.1950 -1.3370 -0.353 -0.864 -0.358 200 183 153 0 0
6.5825 7.1823 -1.3313 -0.298 -0.901 -0.315 199 182 151 0 0
6.6133 7.1119 -1.3187 -0.284 -0.937 0.203 195 178 149 0 0
6.6254 7.1047 -1.3159 -0.080 -0.968 0.238 197 180 150 0 0
6.6405 7.1042 -1.3132 -0.585 -0.806 -0.092 191 172 142 0 0
6.6528 7.0973 -1.3104 -0.261 -0.857 0.444 188 167 137 0 0
6.6648 7.0900 -1.3075 -0.472 -0.881 0.003 192 170 140 0 0
7.3707 6.8438 -1.1603 -0.372 -0.927 0.054 177 161 128 0 0
0.2436 11.1581 -2.8571 0.031 -0.554 0.832 240 239 237 0 0
0.2663 11.1340 -2.8507 -0.569 -0.676 0.468 239 239 237 0 0
0.4906 11.1983 -2.8190 -0.267 -0.583 0.767 235 235 233 0 0
0.5100 11.1916 -2.8149 -0.420 -0.478 0.771 234 234 232 0 0
0.7044 11.6025 -2.8251 -0.796 -0.303 -0.524 227 224 220 0 0
0.7404 11.4883 -2.8068 -0.831 -0.293 -0.473 227 222 222 0 0
2.1588 8.6002 -2.2569 -0.694 -0.693 0.198 184 130 109 0 0
2.4174 8.6320 -2.2158 -0.125 -0.991 -0.041 164 113 90 0 0
2.4328 8.6299 -2.2130 -0.125 -0.991 -0.041 156 104 82 0 0
2.5095 8.6471 -2.2016 -0.068 -0.969 0.239 151 100 78 0 0
3.0240 7.6833 -2.0110 -0.440 -0.817 0.371 225 206 177 0 0
3.0383 7.6823 -2.0085 -0.502 -0.859 0.103 224 205 176 0 0
3.1946 7.6602 -1.9793 -0.294 -0.579 0.761 227 207 178 0 0
3.2365 7.6400 -1.9699 -0.033 -0.880 0.474 223 204 174 0 0
3.4088 7.6395 -1.9403 -0.360 -0.721 0.593 232 208 181 0 0
3.8219 7.5748 -1.8624 -0.486 -0.724 0.490 223 200 171 0 0
4.0950 7.5471 -1.8126 -0.256 -0.773 0.580 229 208 180 0 0
4.1092 7.5444 -1.8098 -0.256 -0.773 0.580 227 205 177 0 0
4.1691 7.5526 -1.8004 -0.304 -0.765 0.567 228 206 175 0 0
4.1827 7.5462 -1.7974 -0.427 -0.669 0.608 228 207 176 0 0
4.1967 7.5416 -1.7945 -0.083 -0.910 0.406 226 203 172 0 0
4.2105 7.5367 -1.7916 -0.100 -0.854 0.511 225 203 172 0 0
4.3960 7.5044 -1.7563 -0.540 -0.667 0.513 227 206 178 0 0
4.4206 7.4782 -1.7493 0.128 -0.991 -0.033 223 202 173 0 0
4.4779 7.4702 -1.7386 -0.524 -0.730 0.439 226 203 175 0 0
4.4919 7.4669 -1.7358 -0.416 -0.793 0.446 228 205 177 0 0
4.5056 7.4615 -1.7329 -0.093 -0.955 0.281 228 206 178 0 0
4.8679 7.3654 -1.6605 -0.543 -0.782 0.308 221 202 172 0 0
4.8788 7.3488 -1.6569 -0.541 -0.760 0.360 225 205 177 0 0
4.8915 7.3406 -1.6538 -0.570 -0.740 0.359 220 201 173 0 0
4.9067 7.3425 -1.6514 -0.017 -0.795 0.606 223 203 175 0 0
4.9220 7.3447 -1.6490 -0.032 -0.930 0.366 224 203 174 0 0
4.9368 7.3449 -1.6465 0.099 -0.779 0.620 228 206 177 0 0
4.9817 7.3473 -1.6390 -0.216 -0.749 0.626 226 206 175 0 0
6.2427 10.4930 -1.7557 0.708 -0.629 -0.321 206 198 191 0 0
6.2754 10.5364 -1.7547 0.736 -0.611 -0.293 207 198 192 0 0
6.3380 10.6120 -1.7520 0.805 -0.591 0.048 209 201 193 0 0
6.4646 10.8322 -1.7536 0.630 -0.423 -0.651 212 205 197 0 0
6.4948 10.8637 -1.7517 0.682 -0.448 -0.579 212 204 197 0 0
6.5318 10.9176 -1.7511 0.659 -0.444 -0.607 213 206 200 0 0
6.3669 10.3025 -1.7142 0.766 -0.575 0.287 214 206 201 0 0
6.5085 10.3725 -1.6973 -0.392 -0.907 0.154 217 210 204 0 0
6.5814 10.2238 -1.6690 0.358 -0.893 0.274 219 213 207 0 0
6.6083 10.2452 -1.6666 0.422 -0.701 0.574 220 214 208 0 0
6.7166 10.4542 -1.6702 -0.241 -0.389 0.889 221 216 210 0 0
6.7066 10.3618 -1.6621 -0.446 -0.266 0.854 221 217 210 0 0
6.2167 8.6084 -1.5604 -0.993 -0.003 -0.120 225 222 215 0 0
6.1964 8.4972 -1.5522 -0.989 0.014 -0.150 226 223 216 0 0
6.4656 7.2636 -1.3751 -0.318 -0.908 -0.271 199 180 150 0 0
6.4788 7.2581 -1.3723 -0.318 -0.908 -0.271 204 185 155 0 0
6.4895 7.2468 -1.3692 -0.290 -0.956 -0.034 203 185 155 0 0
6.6147 7.1083 -1.3331 -0.284 -0.937 0.203 196 177 147 0 0
6.6266 7.1006 -1.3302 -0.028 -0.997 -0.073 196 177 146 0 0
6.6532 7.0916 -1.3247 -0.295 -0.955 -0.003 192 172 144 0 0
6.6677 7.0898 -1.3220 -0.496 -0.867 -0.051 181 162 132 0 0
8.0365 7.0178 -1.0791 0.259 -0.966 -0.015 211 195 169 0 0
8.6523 7.6935 -1.0449 0.778 -0.594 0.206 246 248 245 0 0
0.2215 11.1027 -2.8746 0.116 -0.592 0.798 241 240 238 0 0
0.2668 11.1485 -2.8718 0.301 -0.694 0.654 239 239 237 0 0
0.2934 11.1029 -2.8623 -0.036 -0.675 0.737 239 239 237 0 0
0.3129 11.0954 -2.8582 -0.014 -0.526 0.850 238 238 236 0 0
0.5741 11.1549 -2.8197 -0.398 -0.414 0.819 233 232 230 0 0
1.8439 8.6014 -2.3272 -0.197 -0.606 0.771 205 159 141 0 0
2.0700 8.6069 -2.2890 -0.528 -0.752 0.395 179 123 106 0 0
2.0858 8.5978 -2.2853 -0.528 -0.752 0.395 159 104 88 0 0
2.1015 8.5887 -2.2816 -0.495 -0.776 0.390 178 129 109 0 0
2.1619 8.5934 -2.2718 -0.460 -0.848 0.262 180 126 105 0 0
2.4203 8.6294 -2.2313 -0.191 -0.976 -0.102 161 110 88 0 0
2.4660 8.6457 -2.2252 -0.185 -0.906 0.381 163 108 86 0 0
2.5744 8.6320 -2.2052 0.127 -0.991 0.049 168 113 93 0 0
2.8980 7.6574 -2.0448 0.074 -0.769 0.635 225 206 176 0 0
3.2243 7.6296 -1.9858 -0.110 -0.776 0.621 228 208 178 0 0
3.2389 7.6357 -1.9840 0.033 -0.900 0.434 227 207 178 0 0
3.2531 7.6332 -1.9813 -0.033 -0.880 0.474 225 206 176 0 0
3.6097 7.5965 -1.9161 -0.344 -0.664 0.663 227 204 173 0 0
3.7818 7.5807 -1.8849 -0.309 -0.766 0.563 224 201 170 0 0
3.8237 7.5670 -1.8762 -0.333 -0.819 0.468 224 201 171 0 0
3.8387 7.5715 -1.8741 -0.328 -0.937 0.121 227 204 173 0 0
4.0958 7.5336 -1.8260 -0.326 -0.824 0.463 230 209 180 0 0
