ply
format ascii 1.0
element vertex 815
property float x
property float y
property float z
property float nx
property float ny
property float nz
property uchar diffuse_red
property uchar diffuse_green
property uchar diffuse_blue
property uchar class
property uchar detection
end_header
0.4226 10.6161 -1.5394 -0.913 -0.266 -0.308 169 122 105 0 0
0.4483 10.5876 -1.5558 -0.718 -0.690 0.089 170 119 100 0 0
0.4573 10.5788 -1.5613 -0.745 -0.658 0.109 181 131 113 0 0
0.6082 10.3066 -1.6768 -0.704 -0.675 0.221 168 118 96 0 0
0.7289 10.1045 -1.7664 -0.685 -0.622 0.378 197 149 126 0 0
0.7430 10.0807 -1.7769 -0.800 -0.430 0.419 182 132 109 0 0
0.7958 10.0249 -1.8101 -0.701 -0.621 0.351 183 135 112 0 0
0.8564 9.8911 -1.8609 -0.589 -0.622 0.516 172 124 104 0 0
0.8591 9.8730 -1.8654 -0.680 -0.451 0.578 186 139 117 0 0
0.9271 9.7948 -1.9094 -0.436 -0.781 0.447 181 130 109 0 0
0.9566 9.7493 -1.9306 -0.668 -0.637 0.385 162 112 89 0 0
1.1200 9.4790 -2.0512 -0.514 -0.853 0.091 182 129 107 0 0
1.1484 9.4533 -2.0683 -0.711 -0.656 0.255 165 109 85 0 0
1.3098 9.1817 -2.1882 -0.790 -0.499 0.356 175 119 99 0 0
1.4663 8.9260 -2.3032 -0.624 -0.702 0.343 150 92 72 0 0
1.4959 8.9008 -2.3207 -0.714 -0.674 0.190 188 132 110 0 0
1.5028 8.8889 -2.3259 -0.827 -0.505 0.247 183 127 104 0 0
1.5097 8.8770 -2.3311 -0.714 -0.698 -0.046 179 123 100 0 0
1.5149 8.8632 -2.3359 -0.840 -0.411 0.354 171 115 92 0 0
1.5422 8.8155 -2.3565 -0.767 -0.631 0.119 176 119 99 0 0
1.5488 8.8034 -2.3616 -0.836 -0.544 0.070 176 120 98 0 0
1.5872 8.7486 -2.3883 -0.666 -0.725 0.175 176 119 99 0 0
3.6861 9.1773 -3.2269 -0.891 0.350 0.287 208 203 197 0 0
3.7542 9.1938 -3.2536 -0.644 0.673 0.365 207 202 196 0 0
3.5452 8.9683 -3.2034 -0.642 0.689 0.338 139 122 105 0 0
3.4301 8.8473 -3.1752 -0.642 0.689 0.338 148 121 96 0 0
2.6522 7.6085 -3.0612 -0.994 0.001 -0.111 207 178 144 0 0
2.6509 7.5723 -3.0672 -0.977 -0.020 -0.211 206 179 142 0 0
2.6295 7.4171 -3.0862 -0.979 -0.036 -0.202 205 179 144 0 0
2.6220 7.3942 -3.0871 -0.937 -0.035 -0.349 203 175 141 0 0
2.6169 7.3732 -3.0887 -0.948 0.068 -0.309 205 176 142 0 0
2.6299 7.3661 -3.0957 -0.982 0.129 -0.139 205 178 144 0 0
2.6101 7.1661 -3.1235 -0.964 -0.178 -0.196 206 182 148 0 0
2.6230 7.1589 -3.1304 -0.983 -0.042 -0.177 209 185 151 0 0
2.6280 7.0799 -3.1470 -0.934 -0.267 -0.239 206 182 151 0 0
2.6710 6.8502 -3.2076 -0.947 -0.312 0.072 209 185 151 0 0
2.6903 6.8313 -3.2195 -0.700 -0.685 -0.202 205 181 145 0 0
2.7206 6.7403 -3.2493 -0.816 -0.562 -0.133 206 183 151 0 0
2.7871 6.6262 -3.2992 -0.996 -0.050 -0.078 197 174 143 0 0
3.0554 6.3413 -3.4683 -0.540 -0.816 -0.209 196 175 146 0 0
0.4893 10.9418 -1.5255 -0.938 0.274 -0.213 243 242 240 0 0
0.4950 10.9268 -1.5308 -0.962 0.256 -0.097 243 242 240 0 0
0.4522 10.8263 -1.5302 -0.968 0.081 -0.236 244 241 239 0 0
0.4637 10.8216 -1.5361 -0.963 0.249 -0.106 242 241 238 0 0
0.4526 10.7773 -1.5393 -0.963 0.249 -0.106 230 222 215 0 0
0.5558 10.4199 -1.6493 -0.625 -0.769 0.134 175 121 100 0 0
0.5758 10.3818 -1.6649 -0.761 -0.528 0.375 166 117 97 0 0
0.6809 10.1775 -1.7480 -0.675 -0.714 0.187 187 138 116 0 0
0.7788 10.0318 -1.8173 -0.558 -0.820 0.126 176 127 105 0 0
0.8344 9.9131 -1.8632 -0.752 -0.473 0.459 188 142 120 0 0
1.0440 9.5775 -2.0159 -0.602 -0.670 0.434 184 131 110 0 0
1.1304 9.4387 -2.0789 -0.672 -0.517 0.530 177 122 98 0 0
1.2934 9.1907 -2.1953 -0.858 -0.378 0.348 183 127 106 0 0
1.3047 9.1638 -2.2051 -0.689 -0.642 0.337 192 154 134 0 0
1.4343 8.9767 -2.2958 -0.626 -0.708 0.327 174 122 101 0 0
1.4911 8.9036 -2.3340 -0.681 -0.710 0.178 192 138 115 0 0
1.4987 8.8925 -2.3393 -0.787 -0.489 0.377 180 125 101 0 0
1.5460 8.7695 -2.3824 -0.723 -0.640 0.259 176 121 100 0 0
3.8805 9.7881 -3.2207 0.423 -0.796 -0.433 198 188 178 0 0
3.6655 9.5200 -3.1750 -0.851 0.085 -0.519 201 191 181 0 0
3.7008 9.3083 -3.2289 0.252 -0.710 0.658 207 200 192 0 0
3.7603 9.3395 -3.2493 0.262 -0.837 0.480 209 202 194 0 0
3.7051 9.2247 -3.2459 -0.943 0.244 -0.226 208 203 197 0 0
3.5339 8.9670 -3.2176 -0.615 0.680 0.399 140 122 106 0 0
2.6558 7.6184 -3.0773 -0.982 -0.046 -0.183 204 175 141 0 0
2.6541 7.5819 -3.0832 -0.977 -0.020 -0.211 204 177 140 0 0
2.6165 7.1774 -3.1400 -0.920 -0.221 -0.325 209 185 151 0 0
2.6310 7.0886 -3.1625 -0.896 -0.289 -0.338 211 188 156 0 0
2.6740 6.9231 -3.2114 -0.975 -0.148 -0.167 199 173 140 0 0
2.6684 6.8547 -3.2213 -0.831 -0.541 0.127 208 184 150 0 0
2.6894 6.8370 -3.2337 -0.647 -0.761 0.056 205 181 145 0 0
2.6983 6.8271 -3.2394 -0.926 -0.375 -0.036 202 178 142 0 0
5.3077 6.6508 -4.4148 -0.574 -0.626 0.528 226 226 223 0 0
5.3366 6.6468 -4.4281 -0.482 -0.830 0.281 227 227 224 0 0
5.3274 6.6244 -4.4282 -0.554 -0.769 0.320 227 227 225 0 0
0.4721 10.8475 -1.5514 -0.963 0.249 -0.106 242 242 238 0 0
0.4609 10.8031 -1.5545 -0.963 0.249 -0.106 241 237 232 0 0
0.5006 10.5055 -1.6256 -0.920 -0.374 0.121 171 120 99 0 0
0.8400 9.9088 -1.8824 -0.717 -0.687 0.120 174 123 102 0 0
0.8760 9.8287 -1.9127 -0.762 -0.644 0.063 182 137 119 0 0
0.9425 9.7485 -1.9564 -0.668 -0.637 0.385 172 120 98 0 0
0.9460 9.7315 -1.9609 -0.810 -0.205 0.550 189 137 115 0 0
1.0313 9.5696 -2.0277 -0.632 -0.684 0.364 166 115 93 0 0
1.0394 9.5592 -2.0331 -0.632 -0.684 0.364 178 127 105 0 0
1.1232 9.4593 -2.0879 -0.691 -0.715 -0.108 182 128 104 0 0
1.1230 9.4381 -2.0917 -0.742 -0.481 0.466 179 124 101 0 0
1.2102 9.3007 -2.1548 -0.706 -0.454 0.543 159 107 87 0 0
1.2456 9.2218 -2.1846 -0.504 -0.828 0.246 172 120 98 0 0
1.4976 8.8602 -2.3606 -0.641 -0.675 0.365 184 130 107 0 0
1.5598 8.7346 -2.4105 -0.874 -0.476 0.102 179 124 104 0 0
1.5658 8.7219 -2.4155 -0.710 -0.691 0.136 179 123 103 0 0
1.6406 8.6108 -2.4684 -0.690 -0.723 0.042 190 134 111 0 0
1.6490 8.6006 -2.4739 -0.641 -0.767 0.020 184 128 107 0 0
3.7069 9.6128 -3.1962 -0.928 0.224 -0.297 201 189 180 0 0
3.6324 9.5210 -3.1800 -0.814 -0.383 -0.437 200 190 180 0 0
3.7171 9.2879 -3.2592 -0.445 -0.455 0.772 208 201 193 0 0
3.5342 8.9759 -3.2351 -0.612 0.677 0.409 142 124 109 0 0
2.9239 8.2878 -3.0908 -0.857 0.491 0.159 167 136 100 0 0
2.7551 7.9579 -3.0761 -0.971 0.232 -0.063 195 165 129 0 0
2.6490 7.0422 -3.1946 -0.915 -0.148 -0.374 206 182 148 0 0
2.6802 6.9337 -3.2278 -0.872 -0.326 -0.365 199 174 140 0 0
2.8276 6.6331 -3.3468 -0.802 -0.561 -0.204 199 175 142 0 0
5.2818 6.6449 -4.4237 -0.850 -0.527 0.013 224 225 222 0 0
5.2924 6.6322 -4.4306 -0.837 -0.515 0.185 225 226 221 0 0
5.3162 6.6257 -4.4422 -0.492 -0.833 -0.253 226 227 222 0 0
0.4805 10.8736 -1.5667 -0.963 0.249 -0.106 241 242 237 0 0
0.4693 10.8290 -1.5698 -0.963 0.249 -0.106 243 239 237 0 0
0.4774 10.5732 -1.6192 -0.958 -0.255 -0.128 172 122 104 0 0
0.5123 10.4641 -1.6542 -0.870 -0.491 0.033 148 96 74 0 0
0.5191 10.4517 -1.6594 -0.870 -0.491 0.033 155 101 78 0 0
0.5724 10.3738 -1.6969 -0.748 -0.642 0.170 186 140 123 0 0
0.7779 10.0278 -1.8495 -0.807 -0.586 0.078 186 135 115 0 0
0.8565 9.8321 -1.9193 -0.870 -0.458 0.181 182 135 118 0 0
0.9500 9.7033 -1.9837 -0.851 -0.463 0.246 198 151 129 0 0
1.0243 9.5693 -2.0405 -0.846 -0.519 0.123 180 130 107 0 0
1.0332 9.5601 -2.0461 -0.712 -0.626 0.318 181 132 110 0 0
1.1201 9.4644 -2.1015 -0.691 -0.715 -0.108 187 132 110 0 0
1.3815 9.0114 -2.2981 -0.788 -0.461 0.408 185 129 108 0 0
1.3870 8.9978 -2.3029 -0.821 -0.412 0.395 170 115 91 0 0
1.4599 8.9042 -2.3519 -0.626 -0.698 0.348 179 124 101 0 0
1.4708 8.8773 -2.3615 -0.589 -0.668 0.456 174 121 97 0 0
1.5557 8.7383 -2.4239 -0.852 -0.522 -0.039 178 125 106 0 0
1.5629 8.7269 -2.4291 -0.852 -0.522 -0.039 179 126 105 0 0
1.5695 8.7148 -2.4342 -0.837 -0.546 0.038 187 134 112 0 0
1.5800 8.6876 -2.4437 -0.840 -0.514 0.175 177 122 101 0 0
1.6363 8.6141 -2.4817 -0.690 -0.723 0.042 186 130 107 0 0
1.7043 8.5149 -2.5295 -0.725 -0.683 0.088 180 128 106 0 0
1.7121 8.5041 -2.5349 -0.780 -0.616 0.110 171 119 98 0 0
3.7134 9.6281 -3.2161 -0.917 0.344 0.204 199 189 179 0 0
3.6745 9.5694 -3.2095 -0.939 -0.234 -0.252 200 190 180 0 0
3.6358 9.2679 -3.2465 -0.129 -0.879 0.458 208 200 192 0 0
3.6852 9.2684 -3.2682 0.281 -0.882 0.379 208 201 195 0 0
3.7745 9.3261 -3.2972 -0.043 -0.624 0.780 208 202 196 0 0
3.7270 9.2618 -3.2878 -0.524 0.412 0.746 207 202 196 0 0
3.5241 8.9757 -3.2496 -0.618 0.680 0.395 142 124 109 0 0
2.7586 7.9683 -3.0926 -0.971 0.232 -0.063 193 163 127 0 0
2.6262 7.3326 -3.1482 -0.992 -0.117 -0.046 206 182 146 0 0
2.6260 7.2648 -3.1603 -0.941 -0.119 0.316 209 184 150 0 0
2.6353 7.1047 -3.1931 -0.870 -0.367 -0.330 209 189 157 0 0
2.6617 7.0086 -3.2219 -0.908 -0.243 -0.340 204 181 149 0 0
2.6668 6.9959 -3.2265 -0.908 -0.243 -0.340 205 182 148 0 0
2.7062 6.8451 -3.2709 -0.730 -0.658 -0.183 203 179 145 0 0
2.7274 6.8274 -3.2834 -0.753 -0.657 -0.026 204 180 146 0 0
3.0497 6.3866 -3.5046 -0.692 -0.578 -0.433 200 177 148 0 0
5.2566 6.6394 -4.4327 -0.254 -0.965 -0.063 224 226 222 0 0
5.2864 6.6360 -4.4465 -0.133 -0.990 -0.034 225 226 221 0 0
0.4859 10.8945 -1.5817 -0.958 0.244 -0.154 241 242 238 0 0
0.4753 10.8507 -1.5848 -0.958 0.244 -0.154 244 239 238 0 0
0.4394 10.6159 -1.6108 -0.783 -0.519 -0.343 183 135 116 0 0
0.4568 10.5974 -1.6218 -0.751 -0.513 -0.416 183 136 117 0 0
0.4733 10.5771 -1.6328 -0.962 -0.271 0.006 177 129 111 0 0
0.4858 10.5501 -1.6431 -0.836 -0.396 -0.381 177 127 106 0 0
0.4927 10.5377 -1.6484 -0.849 -0.435 -0.300 175 124 103 0 0
0.5105 10.4718 -1.6680 -0.901 -0.413 -0.130 171 118 93 0 0
0.5172 10.4590 -1.6732 -0.901 -0.413 -0.130 172 118 94 0 0
0.5238 10.4462 -1.6784 -0.901 -0.413 -0.130 173 121 96 0 0
0.5602 10.3879 -1.7049 -0.855 -0.517 0.040 176 125 105 0 0
0.6749 10.1987 -1.7894 -0.834 -0.461 -0.304 162 115 95 0 0
0.7570 10.0515 -1.8521 -0.598 -0.783 -0.171 181 134 116 0 0
0.7743 10.0324 -1.8631 -0.818 -0.575 -0.026 184 136 119 0 0
0.7805 10.0192 -1.8682 -0.902 -0.433 0.009 182 133 115 0 0
0.9195 9.7567 -1.9765 -0.826 -0.548 0.129 174 124 105 0 0
0.9265 9.7449 -1.9818 -0.826 -0.548 0.129 179 129 106 0 0
0.9336 9.7330 -1.9870 -0.826 -0.548 0.129 175 126 103 0 0
0.9716 9.6563 -2.0175 -0.819 -0.558 -0.132 196 146 128 0 0
1.0300 9.5650 -2.0596 -0.843 -0.513 0.163 177 128 107 0 0
1.1101 9.4603 -2.1137 -0.804 -0.533 0.263 188 133 112 0 0
1.2434 9.1957 -2.2199 -0.648 -0.646 0.403 171 119 98 0 0
1.2720 9.1700 -2.2372 -0.532 -0.796 0.290 176 124 103 0 0
1.3872 9.0067 -2.3173 -0.561 -0.742 0.368 165 111 90 0 0
1.4510 8.9023 -2.3641 -0.718 -0.661 0.218 169 114 91 0 0
1.4567 8.8892 -2.3690 -0.665 -0.713 0.224 172 118 94 0 0
1.5477 8.7376 -2.4363 -0.784 -0.609 0.123 173 119 100 0 0
1.5554 8.7267 -2.4417 -0.784 -0.609 0.123 169 116 96 0 0
1.5631 8.7159 -2.4470 -0.767 -0.626 0.141 188 135 114 0 0
3.6433 9.6398 -3.2028 0.476 -0.831 -0.289 196 186 176 0 0
3.6859 9.5893 -3.2307 -0.895 -0.101 -0.435 201 191 181 0 0
2.6503 7.4606 -3.1520 -0.965 -0.177 -0.195 203 177 142 0 0
2.6357 7.3807 -3.1598 -0.935 -0.116 -0.336 211 186 150 0 0
2.6673 7.0190 -3.2383 -0.873 -0.284 -0.397 210 188 156 0 0
2.6771 6.8796 -3.2675 -0.977 -0.077 -0.199 204 181 149 0 0
2.7273 6.8336 -3.2979 -0.759 -0.650 0.047 204 181 149 0 0
2.7340 6.8221 -3.3029 -0.797 -0.594 -0.110 202 178 146 0 0
2.7398 6.8100 -3.3077 -0.931 -0.364 0.010 206 182 148 0 0
2.7433 6.7963 -3.3117 -0.931 -0.300 0.210 204 180 146 0 0
2.8267 6.6448 -3.3756 -0.802 -0.561 -0.204 203 179 146 0 0
2.9811 6.4754 -3.4741 -0.728 -0.618 -0.297 199 176 144 0 0
3.0632 6.3850 -3.5266 -0.868 -0.387 -0.310 196 175 145 0 0
5.2616 6.6306 -4.4557 -0.061 -0.945 0.322 225 226 222 0 0
0.5081 10.9702 -1.5945 -0.960 0.255 -0.120 240 242 239 0 0
0.4975 10.9262 -1.5976 -0.963 0.249 -0.106 242 241 238 0 0
0.4855 10.8801 -1.6005 -0.958 0.245 -0.153 244 240 238 0 0
0.4483 10.6179 -1.6305 -0.803 -0.360 -0.475 189 142 122 0 0
0.5200 10.4744 -1.6877 -0.953 -0.250 -0.171 171 117 93 0 0
0.5249 10.4589 -1.6927 -0.953 -0.250 -0.171 173 119 95 0 0
0.6754 10.2098 -1.8037 -0.856 -0.480 -0.191 162 114 94 0 0
0.6829 10.1985 -1.8090 -0.856 -0.480 -0.191 157 109 89 0 0
0.6904 10.1872 -1.8144 -0.856 -0.480 -0.191 172 123 103 0 0
0.8399 9.8937 -1.9328 -0.902 -0.312 -0.299 186 138 121 0 0
0.8436 9.8768 -1.9374 -0.909 -0.308 -0.280 180 134 118 0 0
0.9291 9.7581 -1.9965 -0.839 -0.510 -0.188 190 140 120 0 0
0.9345 9.7439 -2.0014 -0.925 -0.376 -0.057 184 134 115 0 0
1.0244 9.5667 -2.0727 -0.842 -0.468 0.268 176 127 107 0 0
1.1046 9.4622 -2.1269 -0.804 -0.533 0.263 187 135 114 0 0
1.2971 9.0878 -2.2787 -0.882 -0.304 0.359 184 134 113 0 0
1.3070 9.0797 -2.2846 -0.645 -0.633 0.428 173 122 101 0 0
1.3774 9.0036 -2.3293 -0.772 -0.549 0.318 181 127 105 0 0
1.4330 8.9096 -2.3707 -0.736 -0.565 0.374 185 131 110 0 0
1.4406 8.8987 -2.3760 -0.726 -0.614 0.308 175 118 97 0 0
1.4468 8.8861 -2.3810 -0.742 -0.625 0.241 173 115 92 0 0
1.8026 8.3870 -2.6275 -0.694 -0.603 0.393 190 149 131 0 0
3.6930 9.6278 -3.2468 -0.976 -0.174 0.132 199 191 180 0 0
3.6939 9.6060 -3.2510 -0.895 -0.101 -0.435 199 191 180 0 0
3.5871 9.4175 -3.2371 -0.885 0.454 -0.107 203 193 184 0 0
2.9602 8.3617 -3.1460 -0.866 0.501 -0.004 174 142 107 0 0
2.9361 8.3217 -3.1424 -0.864 0.502 0.034 170 138 102 0 0
2.7617 7.9858 -3.1245 -0.959 0.271 0.084 197 168 134 0 0
2.6876 6.9418 -3.2768 -0.963 -0.230 -0.139 210 187 155 0 0
2.7045 6.8888 -3.2937 -0.953 -0.254 -0.164 209 185 154 0 0
2.7498 6.8230 -3.3255 -0.762 -0.571 -0.306 206 182 148 0 0
2.8566 6.6071 -3.4112 -0.841 -0.531 -0.103 201 175 145 0 0
2.8615 6.5789 -3.4184 -0.856 -0.492 -0.158 200 174 143 0 0
3.0252 6.4303 -3.5174 -0.702 -0.577 -0.417 200 177 147 0 0
3.4481 6.2224 -3.7421 -0.541 -0.799 -0.262 191 174 148 0 0
5.2662 6.6217 -4.4785 -0.068 -0.931 0.358 226 226 224 0 0
5.2627 6.5843 -4.4836 -0.658 -0.753 -0.025 227 227 225 0 0
0.3646 10.7278 -1.5898 0.060 -0.963 -0.261 240 242 238 0 0
0.5060 10.9527 -1.6132 -0.963 0.249 -0.106 243 241 238 0 0
0.4934 10.9053 -1.6159 -0.964 0.245 -0.108 243 240 239 0 0
0.4825 10.8610 -1.6189 -0.964 0.245 -0.108 241 240 236 0 0
0.4745 10.6010 -1.6612 -0.953 -0.267 -0.142 167 118 97 0 0
0.5587 10.4066 -1.7330 -0.891 -0.391 -0.232 172 124 103 0 0
0.5649 10.3932 -1.7381 -0.769 -0.501 -0.398 176 130 111 0 0
0.5730 10.3828 -1.7435 -0.656 -0.624 -0.425 184 138 121 0 0
0.5837 10.3767 -1.7494 -0.865 -0.404 -0.297 175 128 112 0 0
0.5910 10.3650 -1.7547 -0.865 -0.404 -0.297 184 136 121 0 0
0.6755 10.2202 -1.8179 -0.885 -0.417 -0.207 175 126 107 0 0
0.6930 10.2015 -1.8290 -0.853 -0.403 -0.332 165 114 93 0 0
0.7973 10.0193 -1.9076 -0.869 -0.416 -0.269 185 133 115 0 0
0.8346 9.9179 -1.9421 -0.902 -0.312 -0.299 198 150 130 0 0
0.8408 9.9048 -1.9472 -0.902 -0.312 -0.299 190 142 124 0 0
0.8497 9.8734 -1.9567 -0.916 -0.224 -0.332 184 137 120 0 0
0.8909 9.8227 -1.9840 -0.916 -0.264 -0.302 178 131 115 0 0
0.9206 9.7774 -2.0052 -0.803 -0.463 -0.375 182 134 118 0 0
0.9274 9.7653 -2.0104 -0.836 -0.460 -0.300 180 131 114 0 0
0.9283 9.7229 -2.0182 -0.974 -0.227 -0.025 178 132 115 0 0
0.9318 9.7061 -2.0227 -0.838 -0.532 -0.120 186 140 122 0 0
1.0588 9.5161 -2.1129 -0.719 -0.691 0.080 185 140 124 0 0
1.0780 9.4993 -2.1243 -0.681 -0.731 -0.031 177 130 113 0 0
1.0963 9.4814 -2.1357 -0.767 -0.635 -0.094 181 133 113 0 0
1.1000 9.4652 -2.1402 -0.853 -0.479 0.208 186 138 118 0 0
1.2913 9.0894 -2.2917 -0.882 -0.304 0.359 188 137 116 0 0
1.3076 9.0891 -2.2990 -0.798 -0.598 0.071 178 127 106 0 0
1.3153 9.0782 -2.3043 -0.798 -0.598 0.071 185 133 112 0 0
1.3239 9.0685 -2.3099 -0.713 -0.700 0.045 181 128 107 0 0
1.3685 9.0215 -2.3380 -0.798 -0.593 0.109 194 139 118 0 0
3.6240 9.1754 -3.3157 -0.917 0.043 0.396 209 202 196 0 0
3.6742 9.1982 -3.3340 -0.641 0.412 0.648 208 201 195 0 0
2.7672 7.9978 -3.1417 -0.966 0.180 -0.184 196 168 133 0 0
2.7161 7.8458 -3.1458 -0.977 0.180 0.116 197 166 128 0 0
2.6682 7.1151 -3.2533 -0.733 -0.514 -0.446 202 177 142 0 0
2.8475 6.6232 -3.4200 -0.896 -0.443 -0.030 206 181 151 0 0
2.8550 6.6123 -3.4253 -0.841 -0.531 -0.103 206 181 150 0 0
2.8834 6.5675 -3.4458 -0.872 -0.468 -0.145 202 177 146 0 0
3.4482 6.2283 -3.7572 -0.693 -0.690 -0.211 189 172 145 0 0
5.0754 6.5359 -4.4278 -0.005 -0.972 0.236 225 225 223 0 0
0.3688 10.7464 -1.6045 -0.806 -0.567 -0.172 241 242 238 0 0
0.5143 10.9788 -1.6288 -0.957 0.246 -0.151 243 241 238 0 0
0.4965 10.9221 -1.6308 -0.969 0.218 -0.114 243 240 240 0 0
0.4908 10.8869 -1.6344 -0.964 0.245 -0.108 240 241 238 0 0
0.4799 10.8428 -1.6373 -0.964 0.245 -0.108 235 228 223 0 0
0.6026 10.3474 -1.7790 -0.741 -0.580 -0.338 172 125 110 0 0
0.6792 10.2363 -1.8327 -0.850 -0.434 -0.299 174 123 104 0 0
0.6861 10.2240 -1.8380 -0.893 -0.364 -0.264 174 123 102 0 0
0.6954 10.1924 -1.8477 -0.908 -0.409 -0.091 166 115 94 0 0
0.7971 10.0290 -1.9218 -0.869 -0.416 -0.269 186 131 114 0 0
0.9239 9.7699 -2.0239 -0.871 -0.272 -0.408 179 130 113 0 0
0.9303 9.7571 -2.0290 -0.871 -0.272 -0.408 176 128 110 0 0
0.9325 9.7384 -2.0333 -0.985 -0.079 -0.156 180 133 114 0 0
0.9355 9.7209 -2.0377 -0.889 -0.370 -0.269 181 134 115 0 0
0.9370 9.7012 -2.0418 -0.969 -0.247 0.019 187 139 120 0 0
1.0927 9.4647 -2.1529 -0.899 -0.418 -0.129 189 141 122 0 0
1.2370 9.2141 -2.2613 -0.783 -0.610 0.119 185 138 120 0 0
1.2443 9.2028 -2.2666 -0.666 -0.714 0.216 180 134 117 0 0
1.2791 9.1643 -2.2889 -0.662 -0.746 -0.066 181 126 106 0 0
1.3641 9.0249 -2.3513 -0.798 -0.593 0.109 187 130 110 0 0
1.4570 8.8162 -2.4295 -0.654 -0.685 0.322 196 140 120 0 0
1.4651 8.8059 -2.4349 -0.654 -0.685 0.322 193 138 117 0 0
1.5191 8.7303 -2.4723 -0.762 -0.625 0.170 187 140 121 0 0
3.6083 9.2353 -3.3174 0.280 -0.960 0.012 208 201 195 0 0
2.6559 7.5031 -3.1956 -0.975 0.085 -0.207 206 182 148 0 0
2.6765 7.0780 -3.2794 -0.966 -0.247 0.083 207 184 150 0 0
2.6940 7.0082 -3.2995 -0.909 -0.411 -0.075 209 185 151 0 0
2.8821 6.5884 -3.4572 -0.804 -0.591 0.070 202 179 147 0 0
2.9474 6.5196 -3.4985 -0.812 -0.514 -0.276 195 172 141 0 0
0.5038 10.9463 -1.6462 -0.969 0.218 -0.114 242 241 240 0 0
0.4950 10.9057 -1.6494 -0.969 0.218 -0.114 241 241 238 0 0
0.4863 10.8653 -1.6525 -0.969 0.218 -0.114 241 239 234 0 0
0.4773 10.8246 -1.6556 -0.964 0.245 -0.108 206 186 180 0 0
0.8230 9.9875 -1.9566 -0.963 -0.258 -0.078 184 133 113 0 0
0.8307 9.9765 -1.9620 -0.798 -0.428 -0.425 182 130 111 0 0
0.9404 9.7156 -2.0567 -0.811 -0.536 -0.234 185 135 116 0 0
0.9487 9.7054 -2.0622 -0.811 -0.536 -0.234 179 130 113 0 0
1.0936 9.4750 -2.1674 -0.949 -0.269 -0.162 180 128 109 0 0
1.1014 9.4643 -2.1727 -0.973 -0.215 -0.088 188 135 115 0 0
1.1192 9.3618 -2.1986 -0.638 -0.761 -0.118 175 123 103 0 0
1.4467 8.8323 -2.4378 -0.871 -0.482 0.098 187 134 113 0 0
1.4517 8.8184 -2.4425 -0.789 -0.592 0.164 181 128 107 0 0
1.4887 8.7822 -2.4654 -0.800 -0.505 0.323 187 136 115 0 0
1.4980 8.7537 -2.4745 -0.811 -0.566 -0.149 190 139 119 0 0
1.5591 8.6474 -2.5205 -0.827 -0.542 0.150 197 144 126 0 0
1.7234 8.4232 -2.6333 -0.779 -0.600 -0.183 166 111 87 0 0
3.6466 9.6577 -3.2802 0.481 -0.831 -0.279 199 190 181 0 0
3.4568 9.1510 -3.2835 -0.538 -0.051 0.841 208 201 195 0 0
2.9932 8.4139 -3.2042 -0.875 0.480 0.063 168 136 98 0 0
2.9725 8.3766 -3.2015 -0.882 0.466 0.067 167 134 96 0 0
2.8235 8.0972 -3.1834 -0.949 0.134 -0.287 193 163 125 0 0
2.6620 7.2240 -3.2633 -0.979 -0.164 -0.122 209 185 152 0 0
2.7132 6.9464 -3.3347 -0.985 -0.167 -0.050 201 178 147 0 0
2.9549 6.5460 -3.5129 -0.852 -0.523 0.005 196 173 141 0 0
2.9617 6.5345 -3.5180 -0.873 -0.479 -0.091 194 171 139 0 0
0.5111 10.9707 -1.6618 -0.969 0.218 -0.114 241 241 239 0 0
0.5023 10.9299 -1.6649 -0.969 0.218 -0.114 243 241 239 0 0
0.4935 10.8893 -1.6680 -0.969 0.218 -0.114 243 240 235 0 0
0.5060 10.5903 -1.7255 -0.819 -0.455 -0.349 163 108 87 0 0
0.5432 10.5083 -1.7564 -0.916 -0.295 -0.273 181 128 105 0 0
0.6253 10.3579 -1.8194 -0.765 -0.424 -0.484 186 145 130 0 0
0.6740 10.2720 -1.8563 -0.764 -0.503 -0.404 172 120 99 0 0
0.6833 10.2635 -1.8619 -0.840 -0.396 -0.370 181 129 108 0 0
0.6974 10.2160 -1.8765 -0.886 -0.352 -0.301 187 134 112 0 0
0.7043 10.2037 -1.8817 -0.725 -0.603 -0.334 175 121 101 0 0
0.7791 10.0670 -1.9391 -0.892 -0.366 -0.267 189 138 117 0 0
0.8069 10.0410 -1.9561 -0.858 -0.386 -0.339 176 125 106 0 0
1.1008 9.4727 -2.1869 -0.973 -0.215 -0.088 178 122 103 0 0
1.2812 9.1844 -2.3181 -0.696 -0.693 -0.191 171 115 95 0 0
1.2910 9.1761 -2.3239 -0.914 -0.326 -0.243 178 123 103 0 0
1.3556 9.0318 -2.3780 -0.891 -0.441 -0.102 178 125 106 0 0
1.5674 8.6262 -2.5436 -0.838 -0.535 0.109 178 125 109 0 0
1.5760 8.6164 -2.5492 -0.744 -0.664 0.078 181 127 110 0 0
1.6283 8.5201 -2.5895 -0.780 -0.625 0.039 193 142 120 0 0
1.6364 8.5098 -2.5949 -0.780 -0.625 0.039 174 125 103 0 0
1.6598 8.4778 -2.6110 -0.749 -0.660 0.051 188 146 126 0 0
3.5118 9.2312 -3.3134 -0.452 -0.858 -0.244 208 201 195 0 0
3.6175 9.1745 -3.3708 -0.640 0.338 0.690 207 200 192 0 0
3.5987 9.1361 -3.3689 -0.675 0.543 0.500 203 196 188 0 0
2.8981 8.2628 -3.2053 -0.850 0.486 0.204 182 150 113 0 0
2.7388 7.9413 -3.1894 -0.947 0.301 -0.111 196 168 131 0 0
2.6714 7.1372 -3.2986 -0.930 -0.307 -0.203 207 183 149 0 0
2.6916 7.1186 -3.3109 -0.908 -0.320 0.271 209 184 152 0 0
2.7071 7.0304 -3.3332 -0.943 -0.265 -0.200 207 184 152 0 0
2.8619 6.6826 -3.4632 -0.786 -0.592 -0.181 197 176 143 0 0
2.9382 6.5574 -3.5192 -0.705 -0.702 -0.100 200 177 145 0 0
2.9539 6.5514 -3.5273 -0.866 -0.413 -0.280 201 178 146 0 0
3.0224 6.4995 -3.5671 -0.723 -0.575 -0.383 200 180 148 0 0
3.1387 6.4130 -3.6344 -0.756 -0.571 -0.320 200 179 148 0 0
0.3998 10.8101 -1.6557 -0.030 -0.923 -0.384 241 241 239 0 0
0.5190 10.9961 -1.6775 -0.967 0.226 -0.118 242 241 239 0 0
0.5096 10.9541 -1.6805 -0.969 0.218 -0.114 242 241 239 0 0
0.5126 10.9342 -1.6853 -0.964 0.251 -0.089 241 240 237 0 0
0.4997 10.8863 -1.6877 -0.963 0.259 -0.079 230 223 218 0 0
0.6843 10.2753 -1.8764 -0.872 -0.289 -0.396 183 131 109 0 0
0.7740 10.0921 -1.9485 -0.792 -0.401 -0.460 175 123 104 0 0
0.8202 10.0484 -1.9769 -0.909 -0.374 -0.186 189 138 118 0 0
0.8328 10.0219 -1.9871 -0.869 -0.408 -0.282 157 106 87 0 0
0.8993 9.8736 -2.0427 -0.849 -0.319 -0.422 175 124 104 0 0
1.2309 9.3156 -2.2887 -0.922 -0.331 -0.202 180 127 107 0 0
1.2368 9.3023 -2.2936 -0.922 -0.331 -0.202 178 126 105 0 0
1.2381 9.2833 -2.2975 -0.834 -0.470 -0.289 175 123 102 0 0
1.2790 9.1905 -2.3319 -0.696 -0.693 -0.191 181 124 105 0 0
1.4215 8.8987 -2.4466 -0.941 -0.327 -0.092 170 120 104 0 0
1.4325 8.8720 -2.4561 -0.810 -0.559 -0.178 161 110 91 0 0
1.4418 8.8631 -2.4619 -0.740 -0.635 -0.224 171 119 98 0 0
1.4606 8.8453 -2.4734 -0.823 -0.544 -0.163 169 116 95 0 0
1.4621 8.8274 -2.4772 -0.916 -0.400 -0.038 172 120 99 0 0
1.4695 8.8162 -2.4825 -0.869 -0.453 -0.198 169 117 96 0 0
1.5745 8.6229 -2.5632 -0.718 -0.679 -0.153 175 123 109 0 0
1.5826 8.6125 -2.5686 -0.807 -0.573 -0.146 180 128 113 0 0
1.5872 8.5983 -2.5732 -0.903 -0.428 0.030 188 137 119 0 0
1.6694 8.4768 -2.6312 -0.884 -0.442 -0.149 167 116 96 0 0
3.4012 9.2042 -3.2873 -0.463 -0.525 0.714 206 198 190 0 0
3.4780 9.2311 -3.3174 -0.581 -0.444 -0.682 206 199 191 0 0
3.4936 9.2235 -3.3257 -0.581 -0.444 -0.682 207 200 192 0 0
3.6005 9.1682 -3.3835 -0.640 0.338 0.690 207 200 192 0 0
3.5880 9.1355 -3.3835 -0.629 0.529 0.570 204 197 189 0 0
2.8404 8.1266 -3.2201 -0.982 0.001 -0.191 186 155 117 0 0
2.8408 8.1082 -3.2235 -0.995 -0.049 -0.085 190 159 121 0 0
2.6693 7.3788 -3.2719 -0.843 -0.337 -0.420 206 181 150 0 0
2.6883 7.0896 -3.3304 -0.834 -0.495 -0.245 208 184 151 0 0
2.9390 6.5639 -3.5342 -0.733 -0.678 -0.054 199 179 144 0 0
2.9550 6.5582 -3.5424 -0.818 -0.545 -0.181 201 181 146 0 0
3.0369 6.4987 -3.5896 -0.640 -0.699 -0.318 196 173 141 0 0
0.5268 11.0215 -1.6932 -0.967 0.226 -0.118 241 240 238 0 0
0.5169 10.9785 -1.6961 -0.969 0.218 -0.114 242 241 239 0 0
0.5207 10.9599 -1.7010 -0.964 0.251 -0.089 242 241 239 0 0
0.5091 10.9142 -1.7036 -0.964 0.251 -0.089 242 236 232 0 0
0.4863 10.7005 -1.7299 -0.983 -0.146 -0.108 167 117 94 0 0
0.5045 10.6094 -1.7538 -0.739 -0.663 -0.116 172 116 96 0 0
0.6201 10.4177 -1.8390 -0.837 -0.292 -0.464 182 146 133 0 0
0.7034 10.2460 -1.9062 -0.889 -0.242 -0.389 179 124 104 0 0
0.8330 10.0322 -2.0015 -0.924 -0.264 -0.278 170 121 102 0 0
0.8827 9.9260 -2.0423 -0.852 -0.353 -0.385 172 123 105 0 0
0.8933 9.9192 -2.0482 -0.732 -0.507 -0.455 177 126 108 0 0
0.9093 9.9201 -2.0553 -0.614 -0.655 -0.442 176 125 106 0 0
0.9903 9.7270 -2.1251 -0.923 -0.283 -0.260 176 124 105 0 0
1.0704 9.5780 -2.1869 -0.937 -0.164 -0.308 165 113 92 0 0
1.1369 9.4753 -2.2346 -0.861 -0.478 -0.173 174 123 102 0 0
1.1648 9.4066 -2.2591 -0.801 -0.464 -0.380 184 129 109 0 0
1.2366 9.3110 -2.3080 -0.944 -0.247 -0.217 166 113 92 0 0
1.2426 9.2979 -2.3129 -0.922 -0.331 -0.202 175 121 101 0 0
1.2522 9.2686 -2.3223 -0.951 -0.232 -0.206 172 121 99 0 0
1.3463 9.0782 -2.3976 -0.880 -0.374 -0.294 177 120 100 0 0
1.3585 9.0525 -2.4075 -0.960 -0.260 -0.104 189 133 114 0 0
1.3608 9.0351 -2.4115 -0.939 -0.281 -0.201 176 124 105 0 0
1.3971 8.9981 -2.4343 -0.914 -0.252 -0.318 159 105 87 0 0
3.3864 9.1994 -3.3004 -0.463 -0.525 0.714 205 197 189 0 0
3.5038 9.2418 -3.3464 -0.742 -0.483 -0.466 208 201 193 0 0
3.5809 9.1595 -3.3954 -0.630 0.305 0.714 206 199 192 0 0
3.5839 9.1407 -3.4000 -0.637 0.546 0.544 203 196 189 0 0
3.5436 9.0835 -3.3915 -0.640 0.569 0.516 196 190 183 0 0
3.0067 8.4495 -3.2572 -0.875 0.462 0.142 169 139 104 0 0
2.8437 8.1370 -3.2370 -0.982 0.001 -0.191 195 165 127 0 0
2.8418 8.1166 -3.2396 -0.995 -0.049 -0.085 192 161 123 0 0
2.8452 8.1007 -3.2439 -0.983 0.078 0.165 192 161 124 0 0
2.6793 7.3589 -3.2960 -0.992 -0.127 0.007 209 184 153 0 0
2.8061 6.7701 -3.4544 -0.806 -0.576 0.138 204 185 152 0 0
2.9588 6.5667 -3.5584 -0.955 -0.173 -0.242 200 180 145 0 0
5.0297 6.5290 -4.5025 0.289 -0.821 0.493 225 225 223 0 0
5.1098 6.5504 -4.5351 0.089 -0.517 0.852 225 225 223 0 0
0.5243 11.0030 -1.7118 -0.969 0.218 -0.114 241 240 238 0 0
0.5019 10.8877 -1.7213 -0.957 0.283 -0.064 214 197 190 0 0
0.5996 10.5142 -1.8294 -0.733 -0.554 -0.396 169 120 103 0 0
0.6347 10.4047 -1.8640 -0.751 -0.427 -0.504 209 177 164 0 0
0.6437 10.3956 -1.8696 -0.751 -0.427 -0.504 191 158 144 0 0
0.6513 10.3842 -1.8750 -0.879 -0.227 -0.419 191 156 140 0 0
0.6573 10.3703 -1.8801 -0.879 -0.227 -0.419 176 135 118 0 0
0.8154 10.0612 -2.0047 -0.865 -0.464 -0.193 185 136 117 0 0
0.8341 10.0438 -2.0161 -0.924 -0.264 -0.278 178 129 112 0 0
0.9016 9.8964 -2.0719 -0.816 -0.426 -0.391 180 129 108 0 0
1.0027 9.7320 -2.1459 -0.852 -0.359 -0.380 186 132 117 0 0
1.1657 9.4378 -2.2701 -0.824 -0.295 -0.484 173 118 98 0 0
1.1658 9.4169 -2.2737 -0.801 -0.464 -0.380 183 128 108 0 0
1.2726 9.2411 -2.3522 -0.857 -0.476 -0.199 172 118 97 0 0
1.2784 9.2278 -2.3571 -0.913 -0.363 -0.188 178 123 103 0 0
1.4307 8.9462 -2.4743 -0.901 -0.313 -0.299 159 105 86 0 0
1.4806 8.8258 -2.5175 -0.820 -0.535 -0.205 164 112 91 0 0
1.5105 8.7813 -2.5387 -0.900 -0.386 -0.201 167 115 98 0 0
1.5169 8.7690 -2.5437 -0.900 -0.386 -0.201 152 100 82 0 0
3.5061 9.2745 -3.3610 -0.221 -0.723 -0.655 207 200 192 0 0
3.5108 9.2570 -3.3661 -0.905 -0.253 -0.342 207 200 192 0 0
3.5173 9.2412 -3.3718 -0.905 -0.253 -0.342 208 201 193 0 0
3.5688 9.1576 -3.4094 -0.657 0.284 0.699 207 200 194 0 0
3.5701 9.1372 -3.4135 -0.630 0.548 0.550 202 195 189 0 0
3.5283 9.0786 -3.4045 -0.632 0.566 0.529 197 192 185 0 0
2.8428 8.1250 -3.2558 -0.995 -0.049 -0.085 191 161 124 0 0
2.8418 8.1054 -3.2587 -0.967 0.177 0.181 194 164 127 0 0
2.7109 7.7051 -3.2675 -0.980 -0.099 -0.172 206 182 148 0 0
2.7125 7.6885 -3.2710 -0.985 -0.114 -0.126 202 176 143 0 0
2.7098 7.6686 -3.2732 -0.994 -0.096 0.050 208 181 149 0 0
2.6833 7.5070 -3.2887 -0.965 -0.261 -0.039 208 182 147 0 0
2.7240 7.0125 -3.3916 -0.968 -0.218 -0.127 208 184 150 0 0
2.8132 6.7651 -3.4743 -0.955 -0.289 0.059 201 182 150 0 0
2.8358 6.7641 -3.4847 -0.841 -0.529 -0.112 205 183 151 0 0
2.8474 6.7396 -3.4941 -0.882 -0.470 -0.028 204 181 149 0 0
2.8844 6.6840 -3.5205 -0.706 -0.681 -0.195 202 179 147 0 0
5.0688 6.5546 -4.5347 0.262 -0.742 0.617 224 224 222 0 0
5.0890 6.5118 -4.5512 -0.152 -0.126 0.980 225 225 223 0 0
5.0856 6.4926 -4.5529 -0.131 -0.128 0.983 225 225 223 0 0
5.1075 6.4681 -4.5670 0.093 -0.574 0.813 226 226 224 0 0
0.4270 10.8674 -1.7071 -0.414 -0.877 0.242 242 241 239 0 0
0.5316 11.0276 -1.7276 -0.969 0.218 -0.114 242 241 239 0 0
0.5221 10.9598 -1.7347 -0.957 0.274 -0.099 242 240 238 0 0
0.5015 10.6506 -1.7778 -0.905 -0.383 -0.182 165 110 89 0 0
0.5089 10.6145 -1.7873 -0.833 -0.523 -0.180 172 116 93 0 0
0.6533 10.3980 -1.8898 -0.883 -0.242 -0.402 184 150 135 0 0
0.6734 10.3831 -1.9015 -0.896 -0.403 -0.188 178 131 114 0 0
0.6793 10.3690 -1.9066 -0.885 -0.451 -0.114 169 116 97 0 0
0.6809 10.3479 -1.9108 -0.977 -0.215 0.019 186 129 109 0 0
0.7651 10.2006 -1.9742 -0.928 -0.361 -0.093 167 114 96 0 0
0.7710 10.1866 -1.9793 -0.928 -0.361 -0.093 172 119 101 0 0
0.7769 10.1727 -1.9843 -0.928 -0.361 -0.093 181 127 109 0 0
0.8259 10.0642 -2.0250 -0.863 -0.374 -0.339 186 138 120 0 0
0.8327 10.0517 -2.0302 -0.777 -0.521 -0.352 177 128 111 0 0
0.9113 9.8980 -2.0921 -0.829 -0.473 -0.297 189 137 116 0 0
0.9922 9.7487 -2.1543 -0.995 -0.058 -0.083 175 124 107 0 0
1.0154 9.7374 -2.1668 -0.654 -0.621 -0.432 175 119 103 0 0
1.0705 9.6183 -2.2121 -0.931 -0.260 -0.256 173 122 101 0 0
1.1622 9.4213 -2.2873 -0.678 -0.576 -0.457 168 113 93 0 0
1.1724 9.4135 -2.2932 -0.697 -0.543 -0.469 179 124 103 0 0
1.1958 9.4019 -2.3059 -0.837 -0.434 -0.334 189 134 113 0 0
1.2865 9.2262 -2.3770 -0.846 -0.370 -0.385 159 104 84 0 0
1.2939 9.2148 -2.3823 -0.846 -0.370 -0.385 171 117 95 0 0
1.3076 9.2112 -2.3892 -0.943 -0.202 -0.266 174 121 99 0 0
1.3899 9.0268 -2.4580 -0.902 -0.331 -0.278 184 127 110 0 0
1.4401 8.9458 -2.4946 -0.814 -0.486 -0.318 170 115 94 0 0
1.5779 8.6509 -2.6074 -0.830 -0.448 -0.332 178 129 109 0 0
3.3766 9.3604 -3.3067 -0.909 0.239 0.342 203 194 187 0 0
3.5197 9.2306 -3.3939 -0.455 0.438 0.775 210 203 195 0 0
3.4424 9.0535 -3.3887 -0.762 -0.572 0.303 205 198 192 0 0
3.5584 9.1355 -3.4277 -0.648 0.563 0.513 202 195 189 0 0
3.5253 9.0847 -3.4212 -0.642 0.601 0.476 198 192 185 0 0
3.0007 8.4603 -3.2880 -0.879 0.475 0.050 162 132 98 0 0
2.8423 8.1134 -3.2747 -0.966 0.194 0.169 196 166 130 0 0
2.7355 7.8767 -3.2662 -0.910 -0.124 -0.395 199 170 136 0 0
2.7123 7.6777 -3.2893 -0.986 -0.155 -0.064 205 179 145 0 0
2.7723 6.9216 -3.4449 -0.815 -0.507 -0.282 203 180 146 0 0
2.7815 6.9116 -3.4508 -0.800 -0.563 -0.207 203 179 145 0 0
2.7891 6.9005 -3.4561 -0.665 -0.665 -0.340 202 178 141 0 0
0.5391 11.0523 -1.7434 -0.969 0.218 -0.114 242 241 239 0 0
0.5321 10.9890 -1.7509 -0.957 0.274 -0.099 241 241 238 0 0
0.5020 10.6624 -1.7922 -0.885 -0.376 -0.276 166 112 91 0 0
0.5261 10.6303 -1.8086 -0.772 -0.534 -0.343 178 124 101 0 0
0.5331 10.6179 -1.8140 -0.777 -0.473 -0.417 171 118 97 0 0
0.5596 10.5896 -1.8308 -0.857 -0.369 -0.361 173 118 97 0 0
0.6560 10.4129 -1.9047 -0.883 -0.242 -0.402 180 148 134 0 0
0.6654 10.4044 -1.9104 -0.779 -0.560 -0.284 208 171 156 0 0
0.6724 10.3919 -1.9157 -0.896 -0.403 -0.188 164 119 102 0 0
0.6774 10.3764 -1.9206 -0.885 -0.451 -0.114 163 110 93 0 0
0.6805 10.3578 -1.9252 -0.977 -0.198 -0.075 182 125 106 0 0
1.0791 9.6177 -2.2322 -0.936 -0.270 -0.224 189 137 116 0 0
1.0820 9.6001 -2.2364 -0.936 -0.272 -0.222 165 112 94 0 0
1.1875 9.4213 -2.3149 -0.850 -0.357 -0.388 195 139 119 0 0
1.2906 9.2608 -2.3890 -0.855 -0.462 -0.234 158 103 83 0 0
1.2884 9.2374 -2.3920 -0.846 -0.370 -0.385 180 125 104 0 0
1.2956 9.2257 -2.3972 -0.860 -0.320 -0.397 188 133 112 0 0
1.3122 9.2257 -2.4048 -0.854 -0.380 -0.356 176 125 103 0 0
1.4405 8.9547 -2.5092 -0.814 -0.486 -0.318 175 121 101 0 0
1.5706 8.7285 -2.6068 -0.749 -0.544 -0.378 176 129 111 0 0
3.3449 9.3615 -3.3112 -0.759 0.313 0.571 204 195 188 0 0
3.3246 9.3205 -3.3088 -0.529 -0.641 0.556 204 195 188 0 0
3.4411 9.2546 -3.3732 -0.602 -0.793 0.096 208 201 193 0 0
3.4046 9.1779 -3.3694 0.336 -0.877 0.344 209 202 194 0 0
3.3879 9.0772 -3.3788 -0.591 -0.733 0.337 207 203 196 0 0
3.3963 9.0634 -3.3849 -0.819 -0.428 0.382 206 201 195 0 0
3.4793 9.0953 -3.4175 -0.999 -0.051 -0.014 205 199 193 0 0
3.5706 9.1553 -3.4491 -0.660 0.600 0.452 204 197 191 0 0
3.5159 9.0850 -3.4359 -0.660 0.600 0.452 198 193 186 0 0
3.4843 9.0357 -3.4298 -0.647 0.675 0.355 190 181 170 0 0
2.9200 8.3206 -3.2924 -0.863 0.491 0.119 181 151 120 0 0
2.8514 8.1665 -3.2870 -0.972 0.222 0.082 187 159 124 0 0
2.8452 8.1423 -3.2883 -0.976 0.218 -0.003 194 164 129 0 0
2.8382 8.1176 -3.2893 -0.976 0.180 0.121 195 165 130 0 0
2.7406 7.8882 -3.2833 -0.890 -0.141 -0.434 198 169 133 0 0
2.7206 7.7452 -3.2983 -0.982 -0.029 -0.184 200 176 140 0 0
2.7152 7.7229 -3.2996 -0.987 -0.002 -0.160 204 179 143 0 0
2.7048 7.2621 -3.3725 -0.986 0.023 -0.164 208 185 152 0 0
2.7402 7.0369 -3.4267 -0.755 -0.590 -0.286 205 180 149 0 0
2.7500 7.0273 -3.4328 -0.755 -0.590 -0.286 205 180 149 0 0
2.7600 7.0178 -3.4389 -0.808 -0.580 -0.101 208 183 153 0 0
2.7683 7.0072 -3.4445 -0.846 -0.526 -0.083 208 185 154 0 0
2.7899 6.9075 -3.4712 -0.719 -0.571 -0.397 205 182 148 0 0
2.8214 6.8314 -3.4984 -0.891 -0.275 -0.362 202 178 147 0 0
2.8777 6.7400 -3.5396 -0.754 -0.520 -0.402 202 182 149 0 0
2.8925 6.7176 -3.5501 -0.929 -0.318 -0.189 205 182 151 0 0
5.2758 6.7051 -4.6417 0.333 -0.906 0.261 223 223 221 0 0
0.5462 11.0766 -1.7593 -0.943 0.196 -0.269 242 241 239 0 0
0.5136 10.9173 -1.7711 -0.957 0.274 -0.099 218 198 193 0 0
0.5351 10.6321 -1.8287 -0.893 -0.422 -0.158 169 114 94 0 0
0.5426 10.6205 -1.8341 -0.779 -0.493 -0.388 167 114 93 0 0
0.5645 10.6087 -1.8461 -0.789 -0.513 -0.339 164 109 88 0 0
0.5722 10.5974 -1.8515 -0.702 -0.535 -0.470 168 113 93 0 0
0.6654 10.4149 -1.9249 -0.796 -0.440 -0.415 173 134 120 0 0
0.6714 10.4008 -1.9300 -0.896 -0.403 -0.188 157 110 95 0 0
0.6782 10.3881 -1.9352 -0.896 -0.403 -0.188 184 131 115 0 0
0.6797 10.3671 -1.9395 -0.977 -0.198 -0.075 179 123 105 0 0
0.7927 10.1942 -2.0202 -0.797 -0.432 -0.422 179 128 105 0 0
0.7987 10.1803 -2.0253 -0.896 -0.273 -0.349 174 123 102 0 0
0.8059 10.1684 -2.0306 -0.874 -0.313 -0.373 167 118 97 0 0
0.9699 9.8464 -2.1598 -0.903 -0.336 -0.267 170 120 104 0 0
1.0772 9.6245 -2.2462 -0.936 -0.272 -0.222 190 138 117 0 0
1.0825 9.6102 -2.2510 -0.936 -0.272 -0.222 182 129 111 0 0
1.1895 9.4329 -2.3298 -0.850 -0.357 -0.388 179 123 103 0 0
1.2476 9.3609 -2.3686 -0.841 -0.368 -0.397 170 118 97 0 0
1.2583 9.3327 -2.3782 -0.904 -0.328 -0.275 158 106 86 0 0
1.2684 9.3247 -2.3841 -0.844 -0.408 -0.348 167 115 96 0 0
1.2760 9.3135 -2.3895 -0.844 -0.408 -0.348 155 102 82 0 0
1.2789 9.2964 -2.3937 -0.918 -0.286 -0.274 172 120 99 0 0
1.2842 9.2616 -2.4020 -0.860 -0.473 -0.190 173 120 99 0 0
1.3077 9.2290 -2.4182 -0.743 -0.466 -0.480 193 139 118 0 0
1.4481 8.9322 -2.5324 -0.954 -0.289 -0.076 175 123 105 0 0
1.4890 8.8407 -2.5664 -0.845 -0.461 -0.272 178 127 106 0 0
3.3163 9.3216 -3.3238 -0.622 -0.608 0.493 205 196 189 0 0
3.4316 9.2548 -3.3879 -0.870 -0.491 0.050 207 200 192 0 0
3.4017 9.1198 -3.3968 -0.571 -0.802 0.176 210 203 197 0 0
3.4057 9.1020 -3.4017 -0.726 -0.358 0.587 208 203 197 0 0
3.5546 9.1498 -3.4619 -0.690 0.606 0.396 204 197 191 0 0
3.4752 9.0363 -3.4445 -0.652 0.669 0.356 193 185 176 0 0
3.0114 8.4856 -3.3241 -0.871 0.487 0.056 167 138 105 0 0
2.9873 8.4449 -3.3199 -0.910 0.412 -0.052 173 143 109 0 0
2.8645 8.1853 -3.3071 -0.935 0.206 -0.290 190 162 126 0 0
2.8489 8.1531 -3.3054 -0.969 0.242 -0.057 189 161 125 0 0
2.8441 8.1302 -3.3070 -0.970 0.206 -0.131 189 160 126 0 0
2.7472 7.9010 -3.3010 -0.890 -0.141 -0.434 194 166 129 0 0
2.7261 7.7929 -3.3094 -0.994 -0.037 -0.102 206 179 144 0 0
2.7235 7.7728 -3.3116 -0.956 -0.181 -0.230 204 179 143 0 0
2.7196 7.7516 -3.3134 -1.000 -0.030 -0.009 199 174 137 0 0
2.7527 7.0357 -3.4485 -0.870 -0.480 -0.111 206 183 151 0 0
2.7582 7.0231 -3.4532 -0.700 -0.698 0.155 210 186 156 0 0
2.7663 7.0123 -3.4587 -0.853 -0.518 -0.055 209 186 154 0 0
2.7947 6.9171 -3.4877 -0.764 -0.617 -0.189 207 184 153 0 0
2.8133 6.8647 -3.5050 -0.874 -0.283 -0.396 200 175 144 0 0
2.8307 6.8440 -3.5164 -0.808 -0.413 -0.420 202 179 146 0 0
2.8890 6.7215 -3.5637 -0.918 -0.303 -0.256 204 181 150 0 0
5.1906 6.6879 -4.6249 0.345 -0.872 0.349 222 222 219 0 0
5.2243 6.6865 -4.6406 0.333 -0.906 0.261 222 222 220 0 0
5.0274 6.4320 -4.5929 0.171 -0.646 0.744 227 227 225 0 0
0.5054 11.0157 -1.7674 -0.927 0.015 -0.375 242 241 239 0 0
0.5379 10.9967 -1.7855 -0.957 0.274 -0.099 242 239 237 0 0
0.5463 10.6621 -1.8451 -0.856 -0.373 -0.358 174 120 98 0 0
0.5524 10.6236 -1.8543 -0.861 -0.422 -0.283 166 113 92 0 0
0.5640 10.6189 -1.8605 -0.789 -0.513 -0.339 176 121 101 0 0
0.6174 10.5384 -1.8984 -0.817 -0.533 -0.222 162 114 94 0 0
0.6833 10.4069 -1.9507 -0.831 -0.312 -0.460 168 116 99 0 0
0.7404 10.2858 -1.9971 -0.806 -0.385 -0.450 169 113 93 0 0
0.7847 10.2154 -2.0293 -0.775 -0.455 -0.438 165 112 91 0 0
0.8081 10.1819 -2.0456 -0.962 -0.185 -0.199 168 118 98 0 0
0.8659 10.0634 -2.0920 -0.769 -0.544 -0.334 182 131 112 0 0
0.8737 10.0522 -2.0974 -0.853 -0.462 -0.241 173 123 103 0 0
0.8793 10.0378 -2.1023 -0.816 -0.478 -0.326 168 117 97 0 0
1.0792 9.6366 -2.2612 -0.940 -0.297 -0.165 189 136 115 0 0
1.0871 9.6258 -2.2666 -0.865 -0.317 -0.389 189 136 117 0 0
1.1795 9.4925 -2.3313 -0.728 -0.516 -0.452 162 109 91 0 0
1.1879 9.4823 -2.3369 -0.767 -0.466 -0.440 173 121 101 0 0
1.1917 9.4449 -2.3449 -0.860 -0.366 -0.356 172 116 96 0 0
1.2521 9.3756 -2.3842 -0.829 -0.436 -0.350 171 118 97 0 0
1.2620 9.3673 -2.3901 -0.942 -0.304 -0.140 183 130 109 0 0
1.2697 9.3562 -2.3955 -0.994 -0.114 -0.005 176 122 102 0 0
1.2737 9.3403 -2.4000 -0.832 -0.523 -0.185 163 110 91 0 0
1.2877 9.2749 -2.4174 -0.817 -0.551 -0.170 148 96 75 0 0
1.3239 9.2168 -2.4437 -0.855 -0.307 -0.418 184 132 111 0 0
1.3269 9.1999 -2.4479 -0.923 -0.171 -0.344 189 135 115 0 0
1.3854 9.1079 -2.4902 -0.798 -0.429 -0.423 174 122 103 0 0
1.6546 8.5660 -2.7043 -0.854 -0.467 -0.231 164 112 94 0 0
3.2769 9.2502 -3.3367 -0.352 -0.909 0.225 206 198 191 0 0
3.2899 9.2408 -3.3442 -0.419 -0.865 0.275 207 198 192 0 0
3.4269 9.2594 -3.4041 -0.850 -0.473 -0.234 208 201 192 0 0
3.4480 9.0847 -3.4430 -0.881 -0.424 0.209 206 199 193 0 0
3.5435 9.1486 -3.4762 -0.670 0.604 0.432 204 197 191 0 0
3.4888 9.0784 -3.4628 -0.671 0.599 0.436 201 194 187 0 0
3.4654 9.0363 -3.4590 -0.655 0.664 0.362 197 188 180 0 0
3.2969 8.8451 -3.4134 -0.655 0.664 0.362 152 129 106 0 0
3.0178 8.4992 -3.3426 -0.871 0.487 0.056 170 141 109 0 0
2.8773 8.2038 -3.3272 -0.933 0.245 -0.263 190 162 125 0 0
2.8471 8.1403 -3.3239 -0.976 0.168 -0.139 193 164 131 0 0
2.7850 7.9949 -3.3195 -0.949 0.061 0.309 203 174 140 0 0
2.7811 7.9731 -3.3214 -0.933 -0.097 0.347 202 173 139 0 0
2.7718 7.9470 -3.3214 -0.972 -0.234 0.028 200 172 137 0 0
2.7720 7.9288 -3.3246 -0.988 -0.016 0.153 198 170 134 0 0
2.7718 7.9103 -3.3276 -0.997 -0.029 0.067 203 174 140 0 0
2.7289 7.8024 -3.3258 -0.969 -0.071 -0.236 204 178 143 0 0
2.7288 7.7842 -3.3288 -0.990 -0.020 -0.138 207 181 146 0 0
2.7207 7.7597 -3.3292 -0.983 0.163 0.078 208 182 146 0 0
2.7080 7.6247 -3.3458 -0.989 0.139 0.059 209 183 147 0 0
2.6913 7.4714 -3.3637 -0.807 -0.421 -0.414 202 176 142 0 0
2.7057 7.3273 -3.3943 -0.919 -0.224 -0.324 209 185 151 0 0
2.7088 7.2447 -3.4095 -0.959 -0.157 -0.236 209 186 154 0 0
2.7188 7.1678 -3.4269 -0.856 -0.306 -0.416 209 186 155 0 0
2.7560 7.0280 -3.4673 -0.812 -0.574 -0.102 203 182 151 0 0
2.7642 7.0173 -3.4729 -0.812 -0.574 -0.102 211 188 157 0 0
2.7952 6.9239 -3.5027 -0.740 -0.602 -0.300 208 185 153 0 0
3.0582 6.5959 -3.6784 -0.730 -0.597 -0.332 196 177 146 0 0
5.2821 6.6317 -4.6955 0.164 -0.425 0.890 224 224 222 0 0
0.5655 10.6324 -1.8752 -0.864 -0.303 -0.401 169 115 95 0 0
0.6779 10.4325 -1.9602 -0.786 -0.419 -0.455 185 137 120 0 0
0.7460 10.3050 -2.0127 -0.820 -0.471 -0.326 177 122 102 0 0
0.7575 10.2762 -2.0228 -0.890 -0.301 -0.342 166 110 91 0 0
0.7772 10.2371 -2.0384 -0.775 -0.455 -0.438 169 113 94 0 0
0.7860 10.2275 -2.0440 -0.775 -0.455 -0.438 159 105 84 0 0
0.7951 10.2185 -2.0498 -0.797 -0.432 -0.422 134 82 61 0 0
0.8038 10.2086 -2.0554 -0.886 -0.351 -0.302 157 105 84 0 0
0.8642 10.0708 -2.1061 -0.854 -0.482 -0.196 182 130 110 0 0
0.8719 10.0595 -2.1115 -0.854 -0.482 -0.196 167 116 95 0 0
1.0808 9.6483 -2.2761 -0.788 -0.488 -0.376 193 137 118 0 0
1.0893 9.6382 -2.2817 -0.865 -0.317 -0.389 187 132 112 0 0
1.1480 9.5453 -2.3241 -0.914 -0.296 -0.279 181 130 111 0 0
1.1718 9.5129 -2.3405 -0.736 -0.498 -0.458 177 124 105 0 0
1.1814 9.5041 -2.3464 -0.736 -0.498 -0.458 148 95 77 0 0
1.1896 9.4937 -2.3519 -0.767 -0.466 -0.440 167 113 94 0 0
1.2530 9.3858 -2.3990 -0.829 -0.436 -0.350 143 88 68 0 0
1.2614 9.3756 -2.4046 -0.942 -0.304 -0.140 176 122 101 0 0
1.3964 9.1094 -2.5110 -0.814 -0.423 -0.397 187 134 116 0 0
1.4041 9.0983 -2.5164 -0.790 -0.460 -0.406 185 132 114 0 0
1.4125 9.0881 -2.5219 -0.777 -0.512 -0.366 185 131 113 0 0
1.4489 9.0302 -2.5483 -0.856 -0.351 -0.380 171 119 99 0 0
1.4896 8.8977 -2.5891 -0.919 -0.372 -0.129 177 127 106 0 0
1.5858 8.6728 -2.6708 -0.769 -0.594 -0.234 171 124 107 0 0
1.7091 8.5363 -2.7502 -0.832 -0.381 -0.404 182 127 107 0 0
3.2618 9.2883 -3.3423 -0.696 -0.383 -0.608 205 196 189 0 0
3.3043 9.2415 -3.3697 -0.575 -0.286 0.766 207 198 191 0 0
3.3262 9.0901 -3.4049 0.051 -0.990 0.128 211 204 198 0 0
3.4205 9.0687 -3.4519 -0.389 -0.737 0.553 207 200 194 0 0
3.4801 9.0794 -3.4776 -0.670 0.604 0.432 202 195 188 0 0
3.4264 9.0103 -3.4643 -0.670 0.604 0.432 199 190 182 0 0
3.2937 8.8507 -3.4295 -0.655 0.664 0.362 152 130 108 0 0
2.8511 8.1514 -3.3411 -0.964 0.240 -0.114 196 167 134 0 0
2.7787 7.9787 -3.3363 -0.967 0.033 0.253 202 175 140 0 0
2.7692 7.9523 -3.3363 -0.931 -0.363 0.032 199 173 138 0 0
2.7696 7.9342 -3.3395 -0.988 -0.016 0.153 205 176 142 0 0
2.7724 7.9181 -3.3434 -0.969 -0.052 0.240 201 172 138 0 0
2.7322 7.8124 -3.3424 -0.969 -0.071 -0.236 208 182 147 0 0
2.7207 7.7669 -3.3446 -0.983 0.163 0.078 206 181 147 0 0
2.7142 7.1879 -3.4375 -0.813 -0.453 -0.365 207 184 153 0 0
2.9657 6.7035 -3.6339 -0.841 -0.442 -0.311 198 175 143 0 0
3.0546 6.5998 -3.6921 -0.763 -0.573 -0.299 199 179 149 0 0
3.1328 6.5207 -3.7412 -0.733 -0.617 -0.286 194 173 142 0 0
3.1433 6.5112 -3.7476 -0.733 -0.617 -0.286 196 175 144 0 0
0.5553 10.6748 -1.8798 -0.856 -0.373 -0.358 169 114 94 0 0
0.6000 10.6037 -1.9122 -0.698 -0.706 -0.115 172 118 97 0 0
0.6233 10.5698 -1.9286 -0.762 -0.602 -0.238 168 117 98 0 0
0.6422 10.5286 -1.9441 -0.712 -0.543 -0.445 159 113 94 0 0
0.6522 10.5210 -1.9500 -0.883 -0.334 -0.331 154 112 94 0 0
0.7026 10.4116 -1.9914 -0.967 -0.255 -0.023 181 127 106 0 0
0.7150 10.3841 -2.0016 -0.835 -0.466 -0.292 163 111 90 0 0
0.7230 10.3732 -2.0071 -0.714 -0.682 -0.158 172 119 98 0 0
0.7475 10.3177 -2.0276 -0.890 -0.354 -0.287 155 100 80 0 0
0.7672 10.2785 -2.0432 -0.789 -0.389 -0.476 174 118 101 0 0
0.7964 10.2306 -2.0646 -0.797 -0.432 -0.422 141 86 66 0 0
0.8649 10.1504 -2.1095 -0.838 -0.421 -0.348 167 116 95 0 0
0.9230 10.0091 -2.1597 -0.765 -0.473 -0.436 175 123 102 0 0
1.0352 9.7690 -2.2512 -0.845 -0.478 -0.242 176 123 105 0 0
1.0430 9.7580 -2.2566 -0.845 -0.478 -0.242 175 124 105 0 0
1.0581 9.7352 -2.2673 -0.806 -0.535 -0.251 177 127 109 0 0
1.0658 9.7023 -2.2763 -0.911 -0.284 -0.300 166 114 95 0 0
1.1412 9.5884 -2.3300 -0.937 -0.321 -0.141 178 125 106 0 0
1.1446 9.5714 -2.3344 -0.985 -0.170 0.028 175 124 104 0 0
1.1489 9.5558 -2.3389 -0.904 -0.349 -0.245 173 122 102 0 0
1.1569 9.5449 -2.3444 -0.801 -0.519 -0.297 188 135 116 0 0
1.1830 9.5155 -2.3614 -0.736 -0.498 -0.458 177 125 104 0 0
1.1926 9.5068 -2.3672 -0.736 -0.498 -0.458 180 127 106 0 0
1.2138 9.4497 -2.3865 -0.792 -0.438 -0.424 178 121 102 0 0
1.2614 9.3845 -2.4192 -0.822 -0.389 -0.416 177 121 101 0 0
1.2828 9.3490 -2.4350 -0.869 -0.419 -0.262 175 119 99 0 0
1.3453 9.2197 -2.4852 -0.851 -0.328 -0.410 169 114 94 0 0
1.3720 9.1702 -2.5057 -0.908 -0.293 -0.300 175 123 102 0 0
1.4198 9.0852 -2.5418 -0.891 -0.297 -0.342 170 116 97 0 0
1.7104 8.5457 -2.7652 -0.858 -0.375 -0.351 172 118 99 0 0
3.4389 9.6210 -3.3885 0.455 -0.817 -0.354 201 192 185 0 0
3.2525 9.2668 -3.3605 -0.368 -0.783 0.501 205 196 189 0 0
3.2679 9.2596 -3.3688 -0.468 -0.775 0.425 206 199 191 0 0
3.2895 9.2366 -3.3826 -0.575 -0.286 0.766 208 200 194 0 0
3.3051 9.1864 -3.3981 -0.185 -0.377 0.908 208 201 193 0 0
3.3381 9.0883 -3.4295 0.070 -0.977 -0.203 211 204 198 0 0
3.4157 9.0731 -3.4679 -0.635 -0.454 0.626 207 200 194 0 0
3.5270 9.1515 -3.5065 -0.689 0.622 0.372 205 198 192 0 0
3.4727 9.0815 -3.4929 -0.674 0.605 0.424 204 197 190 0 0
3.4177 9.0112 -3.4790 -0.670 0.604 0.432 201 193 185 0 0
3.2481 8.7982 -3.4356 -0.675 0.633 0.379 158 133 108 0 0
2.9606 8.4066 -3.3670 -0.991 0.107 0.079 177 149 113 0 0
2.9580 8.3848 -3.3694 -0.991 0.107 0.079 178 150 114 0 0
2.8557 8.1630 -3.3586 -0.958 0.277 -0.075 195 166 133 0 0
2.7814 7.9698 -3.3559 -0.767 -0.418 -0.488 198 172 137 0 0
2.7688 7.9410 -3.3549 -0.955 -0.276 -0.105 204 175 141 0 0
2.7689 7.9227 -3.3579 -0.988 0.019 0.153 205 176 142 0 0
2.7128 7.5896 -3.3868 -0.988 -0.139 0.062 209 182 147 0 0
2.7455 7.1501 -3.4743 -0.715 -0.675 -0.182 206 182 149 0 0
2.7533 7.1390 -3.4798 -0.834 -0.542 -0.099 208 184 152 0 0
2.7602 7.1272 -3.4849 -0.823 -0.553 -0.132 207 184 152 0 0
2.7684 7.1164 -3.4905 -0.823 -0.553 -0.132 206 185 152 0 0
2.8775 6.8295 -3.5882 -0.645 -0.612 -0.458 203 181 149 0 0
2.9635 6.7083 -3.6480 -0.786 -0.612 -0.085 196 173 141 0 0
3.0570 6.5598 -3.7157 -0.849 -0.507 -0.146 197 174 143 0 0
3.1198 6.5348 -3.7490 -0.809 -0.577 -0.111 197 176 146 0 0
3.1298 6.5250 -3.7552 -0.719 -0.694 -0.032 197 176 145 0 0
4.2036 6.3978 -4.2733 -0.270 -0.858 -0.436 191 175 150 0 0
4.8862 6.3839 -4.5916 0.038 -0.618 0.786 226 226 224 0 0
0.5830 11.1370 -1.8334 -0.957 0.274 -0.099 242 239 236 0 0
0.7014 10.4202 -2.0057 -0.965 -0.247 -0.087 180 126 105 0 0
0.7085 10.4079 -2.0110 -0.923 -0.263 -0.282 174 120 99 0 0
0.7156 10.3955 -2.0163 -0.729 -0.570 -0.379 168 116 94 0 0
0.7214 10.3812 -2.0214 -0.896 -0.382 -0.226 166 111 90 0 0
0.7793 10.2609 -2.0679 -0.805 -0.522 -0.282 166 112 95 0 0
0.7890 10.2527 -2.0738 -0.734 -0.578 -0.357 172 116 98 0 0
0.7977 10.2429 -2.0794 -0.795 -0.524 -0.307 178 123 103 0 0
0.8050 10.2310 -2.0848 -0.837 -0.471 -0.278 170 115 95 0 0
0.8639 10.1590 -2.1239 -0.880 -0.395 -0.264 166 115 94 0 0
0.8605 10.1310 -2.1269 -0.940 -0.342 -0.001 182 130 109 0 0
1.0231 9.8278 -2.2521 -0.852 -0.391 -0.349 172 121 103 0 0
1.0352 9.7786 -2.2658 -0.833 -0.431 -0.345 179 127 109 0 0
1.0431 9.7677 -2.2712 -0.833 -0.431 -0.345 183 132 113 0 0
1.0500 9.7554 -2.2764 -0.809 -0.438 -0.391 171 120 101 0 0
1.0581 9.7447 -2.2819 -0.871 -0.362 -0.332 172 121 102 0 0
1.0651 9.7326 -2.2872 -0.871 -0.362 -0.332 171 119 100 0 0
1.1500 9.5665 -2.3538 -0.823 -0.385 -0.418 161 109 88 0 0
1.1974 9.5223 -2.3830 -0.755 -0.433 -0.492 181 129 108 0 0
1.2034 9.5090 -2.3880 -0.797 -0.436 -0.418 173 118 97 0 0
1.2057 9.4907 -2.3921 -0.743 -0.470 -0.476 173 118 97 0 0
1.3735 9.1809 -2.5208 -0.908 -0.293 -0.300 171 117 97 0 0
1.3795 9.1676 -2.5257 -0.908 -0.293 -0.300 164 112 92 0 0
1.4398 9.0772 -2.5685 -0.682 -0.591 -0.430 184 131 114 0 0
1.6798 8.5979 -2.7584 -0.723 -0.648 -0.239 166 117 99 0 0
1.7170 8.5607 -2.7818 -0.873 -0.462 -0.155 158 105 87 0 0
1.7241 8.5491 -2.7870 -0.873 -0.462 -0.155 162 106 89 0 0
3.2286 9.2531 -3.3705 -0.576 -0.423 0.700 206 198 190 0 0
3.2842 9.1759 -3.4090 -0.304 -0.414 0.858 209 202 195 0 0
3.5714 9.2001 -3.5384 -0.729 0.664 0.165 205 198 192 0 0
3.5020 9.1165 -3.5199 -0.700 0.659 0.275 204 197 190 0 0
3.4258 9.0271 -3.4991 -0.696 0.655 0.295 201 194 186 0 0
3.3580 8.9456 -3.4810 -0.684 0.609 0.401 180 168 158 0 0
3.3042 8.8770 -3.4672 -0.675 0.633 0.379 148 129 110 0 0
3.2433 8.8024 -3.4511 -0.675 0.633 0.379 157 132 108 0 0
3.0076 8.5145 -3.3888 -0.929 0.285 0.237 175 147 118 0 0
2.9640 8.4175 -3.3844 -0.966 0.224 0.129 182 155 120 0 0
2.9689 8.4022 -3.3892 -0.999 -0.038 -0.006 184 157 122 0 0
2.8582 8.1728 -3.3754 -0.952 0.294 -0.085 195 166 132 0 0
2.7826 7.9783 -3.3721 -0.824 -0.417 -0.383 199 173 138 0 0
2.7677 7.9475 -3.3702 -0.997 0.073 -0.009 205 176 142 0 0
2.7671 7.9286 -3.3730 -0.999 -0.018 0.047 204 175 141 0 0
2.7657 7.9091 -3.3756 -0.996 0.083 -0.015 204 176 142 0 0
2.7110 7.5953 -3.4015 -0.988 -0.139 0.062 207 181 146 0 0
2.7186 7.4264 -3.4327 -0.908 -0.391 0.148 210 186 152 0 0
2.7514 7.1442 -3.4941 -0.855 -0.482 -0.194 207 182 148 0 0
2.7605 7.1340 -3.5000 -0.821 -0.550 -0.154 204 180 147 0 0
2.7670 7.1220 -3.5050 -0.823 -0.553 -0.132 205 180 149 0 0
2.7798 7.1144 -3.5122 -0.844 -0.534 -0.054 207 183 152 0 0
2.8213 6.9284 -3.5619 -0.900 -0.317 -0.300 205 180 149 0 0
2.8270 6.9158 -3.5666 -0.892 -0.370 -0.262 211 187 155 0 0
