ply
format ascii 1.0
element vertex 823
property float x
property float y
property float z
property float nx
property float ny
property float nz
property uchar diffuse_red
property uchar diffuse_green
property uchar diffuse_blue
property uchar class
property uchar detection
end_header
4.2261 6.9867 -2.1597 -0.240 -0.910 0.338 226 209 180 0 0
4.3699 6.8132 -2.2362 -0.402 -0.591 0.699 232 215 187 0 0
4.3931 6.7749 -2.2508 -0.392 -0.729 0.561 227 210 182 0 0
4.4245 6.7594 -2.2627 -0.419 -0.640 0.645 226 206 179 0 0
4.4228 6.7408 -2.2662 -0.317 -0.736 0.599 227 207 180 0 0
4.4722 6.7188 -2.2844 -0.251 -0.849 0.464 233 213 185 0 0
4.7245 6.2660 -2.4506 -0.464 -0.755 0.463 226 209 181 0 0
4.7396 6.2576 -2.4565 -0.422 -0.612 0.669 229 209 182 0 0
4.7375 6.2397 -2.4598 -0.310 -0.656 0.688 231 211 184 0 0
4.7426 6.2258 -2.4642 -0.638 -0.327 0.698 233 214 188 0 0
4.7499 6.1964 -2.4725 -0.541 -0.341 0.769 233 215 190 0 0
4.8367 6.1102 -2.5147 -0.357 -0.850 0.386 228 208 181 0 0
4.8539 6.0862 -2.5246 -0.442 -0.885 0.147 228 208 181 0 0
4.9442 6.0013 -2.5674 -0.415 -0.690 0.593 230 213 185 0 0
2.0298 11.4580 -0.6165 0.032 -0.420 0.907 245 244 242 0 0
2.0061 11.3605 -0.6310 -0.566 -0.355 0.744 245 244 242 0 0
2.0062 11.0141 -0.7055 -0.490 -0.173 0.854 197 145 124 0 0
2.0029 10.9807 -0.7118 -0.527 -0.200 0.826 204 152 131 0 0
2.0863 10.8560 -0.7614 -0.826 -0.075 0.559 191 147 130 0 0
2.4618 10.3669 -0.9688 -0.228 -0.747 0.625 185 134 112 0 0
2.4760 10.3599 -0.9742 -0.485 -0.557 0.675 175 127 106 0 0
2.4866 10.3480 -0.9797 -0.545 -0.525 0.654 187 141 121 0 0
2.4947 10.3328 -0.9851 -0.545 -0.525 0.654 185 137 117 0 0
2.5087 10.3254 -0.9905 -0.375 -0.733 0.568 179 127 109 0 0
2.5584 10.2615 -1.0178 -0.530 -0.491 0.691 177 122 101 0 0
2.5715 10.2271 -1.0288 -0.229 -0.881 0.413 161 109 88 0 0
2.5845 10.2184 -1.0342 -0.323 -0.784 0.529 186 135 114 0 0
2.6580 10.1596 -1.0669 -0.203 -0.700 0.685 193 141 119 0 0
3.0121 9.6952 -1.2632 -0.505 -0.507 0.698 174 130 114 0 0
3.0897 9.6632 -1.2912 -0.527 -0.410 0.744 188 141 124 0 0
3.0956 9.6457 -1.2966 -0.585 -0.392 0.710 202 155 139 0 0
3.1044 9.6316 -1.3020 -0.506 -0.544 0.669 189 143 127 0 0
3.1154 9.6200 -1.3075 -0.383 -0.663 0.643 187 138 123 0 0
3.3395 9.3209 -1.4329 -0.440 -0.459 0.772 174 117 93 0 0
3.3484 9.2838 -1.4433 -0.613 -0.482 0.626 187 132 108 0 0
3.3552 9.2678 -1.4486 -0.600 -0.487 0.635 188 133 111 0 0
3.3564 9.2460 -1.4536 -0.414 -0.503 0.758 184 127 107 0 0
3.4820 9.1684 -1.5045 -0.279 -0.645 0.712 198 145 124 0 0
3.6049 9.0635 -1.5606 -0.138 -0.867 0.479 175 120 99 0 0
4.2872 9.2553 -1.7051 0.266 -0.914 0.307 142 97 77 0 0
5.0227 9.7615 -1.7966 0.467 -0.836 -0.289 143 98 82 0 0
3.4368 7.8384 -1.7783 -0.206 -0.766 0.609 228 212 183 0 0
3.5072 7.7808 -1.8099 -0.290 -0.803 0.521 226 209 182 0 0
3.6911 7.6030 -1.8982 -0.680 -0.267 0.683 229 211 181 0 0
3.8275 7.4625 -1.9656 -0.577 -0.419 0.701 230 210 183 0 0
3.8342 7.4488 -1.9704 -0.660 -0.308 0.685 236 216 189 0 0
3.8453 7.4384 -1.9756 -0.370 -0.645 0.668 232 212 185 0 0
4.1841 7.0546 -2.1505 -0.295 -0.821 0.488 232 212 183 0 0
4.2087 6.9810 -2.1730 -0.164 -0.791 0.589 229 212 182 0 0
4.4477 6.6745 -2.3040 -0.185 -0.718 0.671 230 210 183 0 0
4.4878 6.6120 -2.3284 -0.253 -0.669 0.699 233 213 186 0 0
4.5052 6.6052 -2.3346 -0.343 -0.572 0.745 233 215 187 0 0
4.6632 6.3383 -2.4350 -0.437 -0.532 0.725 230 213 187 0 0
4.7952 6.1597 -2.5094 -0.672 -0.388 0.630 224 207 181 0 0
4.7815 6.1358 -2.5108 -0.904 -0.380 0.195 226 209 181 0 0
4.7864 6.1219 -2.5151 -0.904 -0.380 0.195 227 210 182 0 0
4.8232 6.1083 -2.5281 -0.574 -0.819 0.011 226 208 181 0 0
4.8366 6.0989 -2.5338 -0.574 -0.819 0.011 230 212 185 0 0
4.8470 6.0878 -2.5390 -0.439 -0.872 0.217 229 210 183 0 0
5.1687 5.9378 -2.6589 0.306 -0.897 0.320 237 238 235 0 0
5.2426 5.9574 -2.6748 0.306 -0.897 0.320 238 238 237 0 0
1.9650 11.3642 -0.6374 -0.875 0.106 0.473 244 245 241 0 0
1.9903 11.3460 -0.6482 -0.577 -0.235 0.782 246 243 244 0 0
1.9667 10.9632 -0.7237 -0.353 -0.548 0.759 195 143 122 0 0
2.2832 10.5801 -0.8923 -0.388 -0.491 0.780 176 129 108 0 0
2.4644 10.3536 -0.9904 -0.361 -0.600 0.714 188 141 120 0 0
2.5208 10.2729 -1.0231 -0.566 -0.419 0.710 172 117 94 0 0
2.5328 10.2630 -1.0285 -0.596 -0.300 0.745 166 112 89 0 0
2.5439 10.2517 -1.0340 -0.531 -0.420 0.736 189 134 114 0 0
2.6136 10.1628 -1.0721 -0.540 -0.413 0.733 179 127 105 0 0
2.8121 9.9328 -1.1756 -0.281 -0.541 0.792 197 148 128 0 0
2.8218 9.9198 -1.1811 -0.281 -0.541 0.792 189 138 119 0 0
2.8388 9.8908 -1.1919 -0.299 -0.568 0.767 198 147 128 0 0
2.9992 9.6889 -1.2791 -0.377 -0.580 0.723 179 132 116 0 0
3.3260 9.2915 -1.4535 -0.428 -0.534 0.729 187 128 102 0 0
3.3319 9.2746 -1.4588 -0.513 -0.592 0.622 179 122 99 0 0
3.3429 9.2631 -1.4643 -0.429 -0.721 0.544 190 134 112 0 0
3.5352 9.0704 -1.5581 -0.082 -0.822 0.564 185 132 112 0 0
4.2612 9.2392 -1.7207 0.117 -0.821 0.559 139 94 75 0 0
4.4683 9.4077 -1.7413 0.554 -0.826 -0.101 137 93 76 0 0
3.1669 8.0818 -1.6690 -0.141 -0.917 -0.374 148 103 87 0 0
3.3863 7.8801 -1.7722 -0.326 -0.679 0.658 232 212 185 0 0
3.4682 7.7937 -1.8131 -0.275 -0.956 0.099 231 214 186 0 0
3.4987 7.7416 -1.8326 -0.631 -0.686 0.361 232 215 187 0 0
3.5054 7.7279 -1.8374 -0.561 -0.795 0.233 231 214 188 0 0
3.5054 7.7087 -1.8415 -0.556 -0.812 0.174 231 214 187 0 0
3.5332 7.7123 -1.8483 -0.407 -0.887 0.218 232 215 187 0 0
3.6878 7.5309 -1.9295 -0.382 -0.580 0.720 229 212 184 0 0
3.8142 7.4587 -1.9795 -0.499 -0.418 0.759 232 212 185 0 0
3.8176 7.4425 -1.9839 -0.509 -0.426 0.748 233 213 186 0 0
3.8287 7.4321 -1.9892 -0.326 -0.732 0.599 232 212 186 0 0
3.8715 7.3708 -2.0140 -0.689 -0.635 0.349 229 212 184 0 0
3.8772 7.3565 -2.0186 -0.763 -0.424 0.487 233 216 188 0 0
3.8870 7.3451 -2.0238 -0.537 -0.606 0.588 229 212 184 0 0
3.9186 7.3312 -2.0354 -0.212 -0.895 0.393 233 213 186 0 0
4.0139 7.1973 -2.0901 -0.227 -0.920 0.318 232 212 185 0 0
4.0212 7.1842 -2.0949 -0.464 -0.766 0.445 230 210 183 0 0
4.0294 7.1717 -2.0998 -0.665 -0.467 0.584 229 209 182 0 0
4.0451 7.1645 -2.1057 -0.724 -0.287 0.628 230 213 185 0 0
4.1268 7.0577 -2.1509 -0.863 -0.335 0.377 231 214 186 0 0
4.4511 6.6127 -2.3349 -0.497 -0.612 0.615 230 211 185 0 0
4.4601 6.6009 -2.3399 -0.435 -0.657 0.616 230 213 185 0 0
4.8022 6.1026 -2.5402 -0.464 -0.836 0.293 227 210 184 0 0
4.9750 5.8807 -2.6350 0.267 -0.894 0.359 212 199 180 0 0
5.0351 5.8940 -2.6486 0.286 -0.891 0.353 237 234 225 0 0
5.1164 5.9175 -2.6658 0.301 -0.893 0.335 236 238 235 0 0
5.1896 5.9368 -2.6817 0.306 -0.897 0.320 238 238 236 0 0
1.9536 11.0096 -0.7282 -0.418 -0.217 0.882 199 147 125 0 0
1.9375 10.9563 -0.7351 -0.082 -0.986 0.145 173 121 100 0 0
2.4358 10.3507 -1.0012 -0.324 -0.746 0.582 190 140 121 0 0
2.5812 10.1811 -1.0772 -0.359 -0.538 0.762 196 148 128 0 0
2.7937 9.9192 -1.1915 -0.281 -0.541 0.792 180 130 111 0 0
2.8011 9.9035 -1.1969 -0.338 -0.542 0.769 184 133 114 0 0
2.8745 9.7948 -1.2402 -0.601 -0.718 0.351 190 139 120 0 0
3.2966 9.2919 -1.4634 -0.673 -0.385 0.631 186 126 103 0 0
3.3059 9.2785 -1.4688 -0.229 -0.882 0.412 185 124 102 0 0
3.3193 9.2695 -1.4744 -0.441 -0.624 0.646 200 142 121 0 0
3.4522 9.1085 -1.5453 -0.442 -0.549 0.709 193 143 125 0 0
3.4525 9.0860 -1.5501 -0.525 -0.330 0.785 201 151 134 0 0
3.4739 9.0849 -1.5562 -0.562 -0.439 0.701 183 133 115 0 0
3.5184 9.0615 -1.5735 -0.082 -0.822 0.564 167 116 96 0 0
3.1547 8.0775 -1.6831 -0.028 -0.992 -0.124 137 92 76 0 0
3.2962 8.0652 -1.7246 -0.627 -0.504 0.593 227 207 178 0 0
3.2753 7.9672 -1.7397 -0.340 -0.635 0.694 230 213 185 0 0
3.3086 7.9374 -1.7553 -0.259 -0.575 0.776 232 216 188 0 0
3.4997 7.7104 -1.8561 -0.555 -0.475 0.683 231 214 187 0 0
3.5205 7.7083 -1.8623 -0.476 -0.782 0.403 231 215 187 0 0
3.8563 7.3657 -2.0276 -0.502 -0.702 0.506 231 214 186 0 0
3.8665 7.3362 -2.0367 -0.659 -0.692 0.294 232 215 187 0 0
3.8774 7.3257 -2.0420 -0.496 -0.842 0.213 232 215 187 0 0
3.8950 7.3201 -2.0480 -0.357 -0.868 0.344 231 211 184 0 0
4.2726 6.8389 -2.2543 -0.675 -0.259 0.691 235 216 188 0 0
4.4359 6.6092 -2.3482 -0.435 -0.657 0.616 228 210 184 0 0
4.8020 6.0421 -2.5696 -0.257 -0.708 0.658 226 206 179 0 0
5.2080 5.9346 -2.7042 0.313 -0.898 0.310 238 238 237 0 0
1.8716 11.3224 -0.6572 -0.143 -0.472 0.870 244 243 241 0 0
1.9572 10.8570 -0.7796 -0.298 -0.559 0.774 188 139 122 0 0
2.1189 10.6870 -0.8603 -0.472 -0.406 0.782 180 129 109 0 0
2.1243 10.6676 -0.8659 -0.531 -0.231 0.815 173 122 102 0 0
2.1337 10.6543 -0.8713 -0.419 -0.337 0.843 187 138 117 0 0
2.3383 10.4369 -0.9739 -0.244 -0.645 0.724 168 116 97 0 0
2.4032 10.3420 -1.0119 -0.235 -0.671 0.703 181 130 109 0 0
2.6463 10.0956 -1.1313 -0.532 -0.506 0.679 172 116 96 0 0
2.6534 10.0793 -1.1367 -0.349 -0.555 0.755 173 122 102 0 0
3.0067 9.5941 -1.3372 -0.196 -0.602 0.774 185 130 113 0 0
3.0149 9.5796 -1.3426 -0.327 -0.490 0.808 175 123 105 0 0
3.0356 9.5792 -1.3484 -0.440 -0.348 0.828 187 138 121 0 0
3.1650 9.4152 -1.4189 -0.191 -0.639 0.745 173 116 96 0 0
3.1772 9.4051 -1.4244 -0.191 -0.639 0.745 175 120 99 0 0
3.4597 9.0785 -1.5717 -0.562 -0.439 0.701 206 157 137 0 0
3.6204 9.0344 -1.6254 -0.270 -0.936 0.224 169 116 99 0 0
3.6406 9.0315 -1.6316 -0.064 -0.996 0.062 164 114 94 0 0
3.6760 9.0208 -1.6436 -0.383 -0.896 0.225 169 121 101 0 0
3.6877 9.0096 -1.6492 -0.635 -0.643 0.428 184 136 118 0 0
3.7273 9.0027 -1.6616 -0.238 -0.873 0.425 189 139 120 0 0
4.3333 9.3224 -1.7613 0.502 -0.797 -0.335 131 86 65 0 0
4.9356 9.7326 -1.8407 0.501 -0.833 -0.236 143 96 80 0 0
3.2489 8.0298 -1.7357 -0.650 -0.172 0.740 228 207 177 0 0
3.2867 7.9249 -1.7684 -0.252 -0.663 0.705 229 213 184 0 0
3.3529 7.8647 -1.7995 -0.411 -0.602 0.685 234 215 189 0 0
3.3619 7.8529 -1.8044 -0.411 -0.602 0.685 228 210 183 0 0
3.4279 7.7537 -1.8437 -0.003 -0.991 0.132 231 214 186 0 0
3.4530 7.7553 -1.8503 -0.408 -0.913 0.029 232 215 187 0 0
3.4526 7.7357 -1.8544 -0.694 -0.619 0.369 232 215 189 0 0
3.4748 7.7349 -1.8607 -0.329 -0.647 0.688 233 216 190 0 0
3.5514 7.6633 -1.8970 -0.389 -0.624 0.678 231 214 186 0 0
3.6234 7.5687 -1.9370 -0.440 -0.553 0.707 232 214 186 0 0
3.6407 7.5634 -1.9428 -0.665 -0.591 0.456 233 213 186 0 0
3.7144 7.4700 -1.9830 -0.309 -0.678 0.667 230 210 183 0 0
3.7288 7.4624 -1.9886 -0.524 -0.459 0.717 229 212 186 0 0
3.7423 7.4540 -1.9941 -0.313 -0.587 0.746 230 213 187 0 0
4.0713 7.0677 -2.1669 -0.449 -0.708 0.545 234 217 189 0 0
4.2856 6.7826 -2.2865 -0.224 -0.767 0.601 233 215 187 0 0
4.4867 6.4907 -2.4040 -0.275 -0.619 0.736 232 212 185 0 0
5.1579 5.9155 -2.7113 0.306 -0.897 0.320 238 238 236 0 0
1.9027 11.4137 -0.6648 -0.232 -0.200 0.952 244 243 241 0 0
1.9493 10.8272 -0.8015 -0.362 -0.523 0.771 186 138 120 0 0
2.4676 10.2561 -1.0658 -0.454 -0.343 0.822 189 140 120 0 0
2.4826 10.1988 -1.0821 -0.302 -0.480 0.824 186 134 115 0 0
2.6686 9.9817 -1.1795 -0.204 -0.660 0.723 197 142 124 0 0
2.9961 9.5666 -1.3580 -0.327 -0.490 0.808 188 136 119 0 0
3.0650 9.5017 -1.3908 -0.644 -0.398 0.653 165 105 82 0 0
3.7028 9.0094 -1.6717 -0.436 -0.811 0.389 175 127 109 0 0
3.7144 8.9981 -1.6773 -0.267 -0.781 0.565 183 133 113 0 0
3.7337 8.9941 -1.6835 -0.363 -0.717 0.595 193 143 121 0 0
4.8096 9.6504 -1.8436 0.470 -0.829 -0.302 149 107 89 0 0
4.9034 9.7116 -1.8567 0.502 -0.851 -0.155 149 101 85 0 0
3.1413 8.0790 -1.7121 -0.054 -0.881 0.470 136 89 71 0 0
3.3239 7.8659 -1.8077 -0.232 -0.664 0.711 232 215 189 0 0
3.3262 7.8484 -1.8120 -0.352 -0.652 0.671 231 214 188 0 0
3.3511 7.7921 -1.8309 -0.376 -0.450 0.810 232 215 187 0 0
3.3913 7.7681 -1.8471 -0.189 -0.818 0.543 231 214 186 0 0
3.4948 7.7002 -1.8901 -0.376 -0.653 0.657 231 214 186 0 0
3.6984 7.4640 -1.9965 -0.309 -0.678 0.667 229 211 183 0 0
3.7770 7.3560 -2.0410 -0.440 -0.612 0.657 233 216 188 0 0
3.8051 7.3585 -2.0483 -0.210 -0.894 0.396 232 215 187 0 0
3.8150 7.3474 -2.0534 -0.503 -0.784 0.364 232 215 187 0 0
3.8940 7.2579 -2.0942 -0.210 -0.898 0.387 234 217 190 0 0
3.9105 7.2515 -2.1002 -0.210 -0.898 0.387 234 217 189 0 0
4.3355 6.6801 -2.3387 -0.688 -0.240 0.685 219 202 174 0 0
4.6557 6.1721 -2.5347 -0.231 -0.789 0.570 227 209 181 0 0
4.6762 6.1667 -2.5415 -0.180 -0.938 0.295 229 212 184 0 0
4.8416 5.9427 -2.6347 -0.167 -0.689 0.705 227 209 181 0 0
4.8341 5.9067 -2.6402 -0.601 -0.472 0.645 228 211 183 0 0
4.8410 5.8940 -2.6448 -0.503 -0.549 0.667 227 210 182 0 0
4.8548 5.8849 -2.6505 -0.286 -0.751 0.595 223 206 178 0 0
2.0991 10.6234 -0.9039 -0.442 -0.393 0.806 180 130 113 0 0
2.3273 10.3357 -1.0279 -0.504 -0.555 0.662 193 142 123 0 0
2.6433 9.9839 -1.1899 -0.344 -0.589 0.731 185 138 122 0 0
2.8672 9.7146 -1.3089 -0.185 -0.694 0.696 203 153 134 0 0
3.0421 9.4608 -1.4109 -0.610 -0.234 0.757 196 137 112 0 0
3.0726 9.4712 -1.4172 -0.286 -0.619 0.732 193 135 112 0 0
3.6223 9.0068 -1.6680 -0.134 -0.780 0.611 175 126 106 0 0
3.6436 9.0050 -1.6743 -0.222 -0.800 0.557 171 124 103 0 0
3.6595 8.9978 -1.6802 -0.487 -0.565 0.666 178 131 111 0 0
3.6984 8.9905 -1.6926 -0.184 -0.829 0.529 189 139 118 0 0
4.1348 9.1997 -1.7704 0.494 -0.869 -0.020 135 90 71 0 0
4.5533 9.4954 -1.8250 0.462 -0.782 -0.418 139 96 79 0 0
4.6285 9.5408 -1.8365 0.440 -0.763 -0.473 132 89 72 0 0
3.1405 8.1050 -1.7229 -0.907 0.189 -0.377 140 92 77 0 0
3.1386 8.0833 -1.7270 -0.977 -0.051 0.206 134 86 69 0 0
3.1990 8.0185 -1.7574 -0.603 -0.424 0.676 224 201 170 0 0
3.3355 7.8047 -1.8403 -0.523 -0.532 0.666 231 214 186 0 0
3.3455 7.7939 -1.8454 -0.318 -0.678 0.663 233 216 188 0 0
3.9015 7.1962 -2.1259 -0.536 -0.452 0.713 234 214 187 0 0
4.3153 6.6732 -2.3511 -0.391 -0.548 0.740 229 212 184 0 0
4.5598 6.2906 -2.4996 -0.391 -0.521 0.758 231 214 186 0 0
4.5644 6.2432 -2.5108 -0.487 -0.612 0.623 232 215 187 0 0
4.5726 6.2311 -2.5156 -0.522 -0.596 0.609 230 213 185 0 0
4.6079 6.2009 -2.5318 -0.360 -0.601 0.714 229 209 182 0 0
1.9215 10.8048 -0.8341 -0.282 -0.714 0.641 162 116 96 0 0
1.9325 10.7940 -0.8394 -0.412 -0.654 0.635 179 133 113 0 0
2.1797 10.4813 -0.9740 -0.321 -0.702 0.636 204 152 132 0 0
2.3667 10.2946 -1.0654 -0.436 -0.329 0.838 195 148 128 0 0
2.6283 9.9740 -1.2056 -0.445 -0.465 0.765 195 148 133 0 0
2.8200 9.7645 -1.3031 -0.533 -0.462 0.708 168 120 104 0 0
2.8270 9.7483 -1.3084 -0.533 -0.462 0.708 179 130 115 0 0
2.8339 9.7322 -1.3137 -0.533 -0.462 0.708 178 126 111 0 0
2.8450 9.7211 -1.3191 -0.273 -0.736 0.619 187 133 116 0 0
2.8619 9.7168 -1.3248 -0.128 -0.717 0.685 191 138 121 0 0
3.2247 9.2481 -1.5243 -0.161 -0.701 0.694 168 111 92 0 0
3.3266 9.1029 -1.5832 -0.483 -0.529 0.697 182 129 108 0 0
3.6233 8.9930 -1.6893 -0.212 -0.703 0.679 180 133 111 0 0
4.1143 9.1884 -1.7860 0.494 -0.869 -0.020 136 93 74 0 0
3.1416 8.1130 -1.7381 -0.973 0.140 -0.183 134 89 72 0 0
3.1282 8.0806 -1.7411 -0.851 -0.452 0.269 146 100 82 0 0
3.1720 8.0407 -1.7617 -0.209 -0.705 0.678 229 204 175 0 0
3.1901 8.0174 -1.7717 -0.724 -0.417 0.549 229 206 175 0 0
3.2801 7.8608 -1.8296 -0.257 -0.652 0.714 228 211 185 0 0
3.4731 7.6190 -1.9342 -0.528 -0.495 0.690 231 213 183 0 0
3.6672 7.4525 -2.0233 -0.283 -0.790 0.544 231 214 186 0 0
3.8712 7.2535 -2.1220 -0.254 -0.680 0.688 233 216 189 0 0
3.8589 7.2263 -2.1243 0.005 -0.968 0.251 232 214 188 0 0
4.4703 6.3958 -2.4690 -0.719 -0.272 0.640 228 211 184 0 0
4.5419 6.2859 -2.5120 -0.391 -0.521 0.758 229 210 183 0 0
4.5546 6.2431 -2.5245 -0.555 -0.677 0.484 233 215 187 0 0
4.7282 6.0246 -2.6188 -0.406 -0.710 0.576 226 207 180 0 0
4.8098 5.8886 -2.6700 -0.648 -0.301 0.699 224 206 179 0 0
4.9208 5.8314 -2.7131 0.220 -0.844 0.489 218 208 191 0 0
5.0437 5.8430 -2.7451 0.214 -0.849 0.484 238 238 236 0 0
1.6935 11.1312 -0.7199 0.201 -0.943 0.266 244 244 241 0 0
1.7924 11.2067 -0.7320 -0.132 -0.457 0.879 247 243 237 0 0
2.0062 10.6684 -0.9040 -0.349 -0.532 0.772 200 152 135 0 0
2.2842 10.3214 -1.0544 -0.710 -0.362 0.604 182 128 107 0 0
2.2918 10.3058 -1.0598 -0.524 -0.480 0.703 188 135 114 0 0
2.4776 10.0921 -1.1565 -0.647 -0.437 0.625 203 152 133 0 0
2.4896 10.0824 -1.1619 -0.491 -0.555 0.672 195 143 124 0 0
2.4997 10.0702 -1.1673 -0.409 -0.753 0.515 193 141 121 0 0
2.5267 10.0545 -1.1781 -0.208 -0.813 0.544 185 133 115 0 0
3.3223 9.0386 -1.6132 -0.390 -0.626 0.675 216 166 146 0 0
3.6732 8.9592 -1.7284 0.040 -0.872 0.489 167 117 97 0 0
4.0945 9.1778 -1.8016 0.485 -0.870 -0.088 135 92 73 0 0
4.8466 9.7098 -1.9026 0.418 -0.861 -0.291 143 100 83 0 0
3.1397 8.1181 -1.7531 -0.991 0.058 0.120 132 89 71 0 0
3.1325 8.0317 -1.7690 -0.435 -0.251 0.865 225 197 172 0 0
3.5061 7.5763 -1.9688 -0.210 -0.931 0.297 224 207 181 0 0
3.8257 7.2447 -2.1277 -0.453 -0.452 0.769 234 217 189 0 0
4.1865 6.7771 -2.3264 -0.379 -0.497 0.781 233 214 185 0 0
4.2199 6.7287 -2.3458 -0.419 -0.571 0.706 229 210 183 0 0
4.3485 6.5327 -2.4228 -0.497 -0.471 0.729 229 212 186 0 0
4.3830 6.4853 -2.4423 -0.635 -0.757 0.156 230 213 185 0 0
4.4604 6.3955 -2.4828 -0.661 -0.320 0.679 228 210 182 0 0
4.6613 6.0597 -2.6091 -0.181 -0.663 0.726 228 211 183 0 0
4.7499 5.9923 -2.6480 -0.740 -0.371 0.562 225 205 178 0 0
4.7539 5.9782 -2.6521 -0.740 -0.371 0.562 224 207 179 0 0
5.0898 5.8381 -2.7758 0.218 -0.850 0.480 238 238 235 0 0
1.9433 10.7203 -0.8933 -0.616 -0.311 0.724 190 141 121 0 0
1.9912 10.6288 -0.9258 -0.474 -0.386 0.791 207 160 140 0 0
2.1522 10.4614 -1.0059 -0.260 -0.665 0.700 183 132 110 0 0
2.2756 10.3189 -1.0702 -0.671 -0.449 0.590 172 120 98 0 0
2.2822 10.3020 -1.0756 -0.671 -0.449 0.590 185 134 112 0 0
2.2866 10.2820 -1.0810 -0.848 -0.316 0.425 200 148 127 0 0
2.3494 10.2123 -1.1132 -0.723 -0.545 0.425 187 136 115 0 0
2.4665 10.0866 -1.1722 -0.760 -0.421 0.495 188 135 117 0 0
2.4955 10.0485 -1.1883 -0.422 -0.567 0.707 193 139 118 0 0
2.6153 9.9008 -1.2528 -0.325 -0.592 0.737 176 131 112 0 0
2.8249 9.6180 -1.3705 -0.369 -0.522 0.769 197 145 124 0 0
2.8335 9.6041 -1.3758 -0.369 -0.522 0.769 182 131 113 0 0
3.2232 9.1708 -1.5756 -0.172 -0.878 0.446 190 137 116 0 0
3.2392 9.1647 -1.5814 -0.172 -0.878 0.446 163 110 89 0 0
3.2444 9.1474 -1.5864 -0.247 -0.838 0.486 154 98 77 0 0
3.2588 9.1395 -1.5921 -0.645 -0.587 0.490 162 106 85 0 0
3.2996 9.0458 -1.6230 -0.477 -0.433 0.765 189 137 116 0 0
4.0788 9.1710 -1.8174 0.438 -0.844 -0.309 139 96 77 0 0
4.2440 9.3029 -1.8369 0.514 -0.763 -0.392 137 94 77 0 0
4.3483 9.3770 -1.8510 0.543 -0.774 -0.326 135 92 75 0 0
4.4589 9.4564 -1.8659 0.481 -0.777 -0.406 124 81 64 0 0
4.6466 9.5826 -1.8928 0.462 -0.784 -0.416 135 92 75 0 0
4.7399 9.6445 -1.9064 0.410 -0.756 -0.510 142 99 82 0 0
4.8284 9.7015 -1.9196 0.369 -0.743 -0.559 145 101 84 0 0
3.1710 7.8373 -1.8366 -0.339 -0.743 0.577 232 215 187 0 0
3.1939 7.8186 -1.8469 -0.223 -0.867 0.445 230 213 185 0 0
3.2048 7.8088 -1.8520 -0.431 -0.865 0.256 230 213 185 0 0
3.4098 7.6181 -1.9494 -0.307 -0.684 0.661 228 211 183 0 0
3.4259 7.6123 -1.9552 -0.396 -0.597 0.698 231 212 184 0 0
3.4478 7.5923 -1.9655 -0.389 -0.724 0.570 230 210 181 0 0
4.3096 6.5318 -2.4284 -0.417 -0.643 0.643 232 215 189 0 0
4.3441 6.5016 -2.4445 -0.440 -0.596 0.672 229 212 186 0 0
4.3773 6.4536 -2.4638 -0.486 -0.461 0.742 229 209 182 0 0
4.7190 5.9815 -2.6580 -0.430 -0.549 0.717 229 209 182 0 0
4.7376 5.9750 -2.6646 -0.535 -0.514 0.671 227 210 182 0 0
5.1086 5.8523 -2.7949 0.269 -0.926 0.263 239 238 234 0 0
1.7295 11.2706 -0.7371 -0.770 -0.138 0.622 245 244 243 0 0
1.7496 11.1579 -0.7660 -0.211 -0.817 0.536 177 151 139 0 0
2.1517 10.4173 -1.0326 -0.349 -0.570 0.744 183 133 111 0 0
2.1645 10.4091 -1.0379 -0.373 -0.533 0.760 180 132 110 0 0
2.4587 10.0856 -1.1880 -0.813 -0.319 0.488 198 148 129 0 0
2.4621 10.0647 -1.1933 -0.708 -0.465 0.532 175 125 104 0 0
2.4728 10.0533 -1.1986 -0.436 -0.654 0.618 179 125 104 0 0
2.6401 9.8415 -1.2897 -0.508 -0.495 0.705 175 129 111 0 0
2.7030 9.7472 -1.3270 -0.231 -0.639 0.733 192 144 127 0 0
2.7088 9.7299 -1.3322 -0.337 -0.485 0.807 199 152 135 0 0
2.7194 9.7183 -1.3376 -0.429 -0.518 0.740 186 138 122 0 0
2.8107 9.6099 -1.3859 -0.349 -0.611 0.710 182 131 112 0 0
2.8178 9.5942 -1.3911 -0.407 -0.602 0.687 187 137 119 0 0
2.9499 9.4612 -1.4560 -0.252 -0.845 0.472 183 132 111 0 0
2.9643 9.4538 -1.4616 -0.252 -0.845 0.472 167 115 94 0 0
3.3700 8.9902 -1.6722 -0.277 -0.591 0.757 169 120 99 0 0
4.0638 9.1648 -1.8333 0.482 -0.874 0.060 136 93 75 0 0
4.3380 9.3755 -1.8679 0.540 -0.771 -0.337 137 94 77 0 0
4.6507 9.5948 -1.9115 0.465 -0.786 -0.407 134 93 75 0 0
4.7498 9.6621 -1.9258 0.404 -0.752 -0.521 132 91 73 0 0
4.8251 9.7070 -1.9380 0.363 -0.741 -0.565 142 98 80 0 0
3.1717 7.8252 -1.8556 -0.417 -0.834 0.362 234 217 189 0 0
3.1797 7.8128 -1.8604 -0.405 -0.909 0.101 226 209 181 0 0
3.1958 7.8075 -1.8661 -0.351 -0.934 0.071 227 210 182 0 0
3.2069 7.7979 -1.8712 -0.542 -0.744 0.391 230 213 185 0 0
3.2167 7.7870 -1.8762 -0.495 -0.672 0.550 229 212 184 0 0
3.3843 7.6415 -1.9538 -0.279 -0.754 0.594 232 213 184 0 0
3.3856 7.6236 -1.9578 -0.436 -0.894 0.101 230 213 185 0 0
3.4042 7.6199 -1.9639 -0.468 -0.538 0.701 228 211 183 0 0
3.4117 7.6071 -1.9686 -0.468 -0.538 0.701 229 211 183 0 0
3.6031 7.3846 -2.0688 -0.718 -0.401 0.569 230 213 185 0 0
3.7038 7.3135 -2.1120 -0.087 -0.879 0.469 228 210 182 0 0
3.7687 7.2152 -2.1507 -0.818 -0.294 0.494 230 213 185 0 0
3.9556 7.0056 -2.2469 -0.351 -0.742 0.570 233 215 187 0 0
3.9710 6.9984 -2.2527 -0.591 -0.573 0.568 234 215 187 0 0
4.0227 6.9270 -2.2821 -0.126 -0.780 0.613 232 214 187 0 0
4.0339 6.9168 -2.2874 -0.320 -0.664 0.676 233 216 188 0 0
4.0796 6.8415 -2.3158 -0.267 -0.639 0.721 233 213 185 0 0
4.0913 6.8317 -2.3212 -0.188 -0.721 0.667 231 211 184 0 0
4.1596 6.7537 -2.3566 -0.321 -0.547 0.773 233 215 185 0 0
4.3113 6.5044 -2.4510 -0.267 -0.809 0.523 229 212 186 0 0
4.3595 6.4654 -2.4727 -0.428 -0.370 0.824 231 211 184 0 0
4.5053 6.1987 -2.5690 -0.426 -0.781 0.457 228 209 182 0 0
4.5185 6.1895 -2.5747 -0.239 -0.709 0.664 230 211 184 0 0
4.6383 6.0255 -2.6424 -0.255 -0.680 0.688 230 213 187 0 0
5.0692 5.8385 -2.8033 0.269 -0.926 0.263 239 238 235 0 0
1.7493 11.2850 -0.7578 -0.586 -0.061 0.808 246 243 241 0 0
1.7445 11.2477 -0.7641 -0.586 -0.061 0.808 243 243 242 0 0
1.7189 11.1471 -0.7774 0.064 -0.969 0.240 212 199 192 0 0
1.7382 11.1498 -0.7823 -0.244 -0.779 0.578 163 123 109 0 0
1.9056 10.6830 -0.9256 -0.513 -0.293 0.807 188 140 120 0 0
1.9382 10.6505 -0.9416 -0.261 -0.742 0.618 194 148 127 0 0
1.9467 10.6361 -0.9470 -0.190 -0.773 0.606 185 140 119 0 0
1.9642 10.6082 -0.9577 -0.657 -0.300 0.691 186 139 117 0 0
2.0850 10.4373 -1.0271 -0.564 -0.229 0.794 185 134 113 0 0
2.3041 10.1953 -1.1392 -0.476 -0.423 0.771 188 137 117 0 0
2.3113 10.1794 -1.1445 -0.554 -0.416 0.721 183 131 110 0 0
2.6604 9.7772 -1.3264 -0.339 -0.576 0.744 177 125 111 0 0
2.6742 9.7696 -1.3319 -0.281 -0.581 0.764 190 140 125 0 0
2.6807 9.7531 -1.3371 -0.511 -0.516 0.688 190 142 127 0 0
2.6886 9.7383 -1.3424 -0.511 -0.516 0.688 191 145 129 0 0
4.0448 9.1548 -1.8488 0.477 -0.873 0.100 136 93 75 0 0
4.3366 9.3824 -1.8855 0.536 -0.769 -0.347 130 87 70 0 0
4.5614 9.5444 -1.9165 0.499 -0.804 -0.325 130 87 70 0 0
4.7537 9.6741 -1.9447 0.446 -0.800 -0.401 130 89 69 0 0
4.8577 9.7456 -1.9598 0.438 -0.805 -0.400 141 98 78 0 0
3.1728 7.8134 -1.8746 -0.381 -0.889 0.252 229 212 184 0 0
3.1888 7.8080 -1.8803 -0.325 -0.927 0.187 231 214 186 0 0
3.1855 7.7859 -1.8839 -0.585 -0.386 0.714 233 215 187 0 0
3.1897 7.7703 -1.8883 -0.640 -0.538 0.548 231 212 185 0 0
3.5058 7.4449 -2.0451 -0.250 -0.658 0.710 232 214 185 0 0
3.5881 7.3978 -2.0782 -0.734 -0.622 0.274 232 215 187 0 0
3.6349 7.3412 -2.1031 -0.389 -0.695 0.605 231 212 185 0 0
3.6609 7.3058 -2.1178 -0.198 -0.874 0.444 233 214 184 0 0
3.8908 7.0380 -2.2382 -0.654 -0.537 0.533 229 212 184 0 0
3.9093 7.0330 -2.2445 -0.887 -0.174 0.427 230 213 185 0 0
3.9187 7.0216 -2.2495 -0.373 -0.744 0.555 228 211 183 0 0
3.9291 7.0111 -2.2547 -0.266 -0.888 0.376 230 213 185 0 0
3.9393 7.0003 -2.2598 -0.526 -0.836 0.155 233 213 186 0 0
3.9493 6.9894 -2.2649 -0.669 -0.674 0.314 232 213 184 0 0
4.0040 6.9202 -2.2946 -0.126 -0.780 0.613 231 213 185 0 0
4.0175 6.9116 -2.3002 -0.320 -0.664 0.676 230 213 185 0 0
4.0223 6.8972 -2.3046 -0.410 -0.407 0.816 234 217 189 0 0
4.1578 6.7409 -2.3752 -0.191 -0.955 0.227 226 209 180 0 0
4.2922 6.5153 -2.4597 -0.296 -0.760 0.579 232 215 187 0 0
4.3054 6.5063 -2.4653 -0.210 -0.801 0.560 232 215 188 0 0
4.3104 6.4924 -2.4696 -0.551 -0.546 0.631 234 217 189 0 0
4.3145 6.4779 -2.4738 -0.566 -0.343 0.750 235 215 188 0 0
4.4084 6.3482 -2.5271 -0.432 -0.628 0.647 229 212 185 0 0
4.5364 6.1226 -2.6098 -0.677 -0.357 0.644 230 213 187 0 0
4.5484 6.0965 -2.6186 -0.531 -0.526 0.664 228 211 183 0 0
4.7420 5.8272 -2.7289 -0.235 -0.571 0.786 226 207 179 0 0
5.0301 5.8247 -2.8117 0.269 -0.926 0.263 235 237 235 0 0
1.7359 11.2442 -0.7804 -0.636 0.037 0.771 245 243 242 0 0
1.7375 10.8462 -0.8619 -0.509 -0.364 0.780 189 141 119 0 0
2.1761 10.3133 -1.0961 -0.442 -0.664 0.603 193 145 125 0 0
2.1864 10.3016 -1.1015 -0.442 -0.664 0.603 187 139 119 0 0
2.6574 9.7334 -1.3522 -0.350 -0.503 0.790 196 150 134 0 0
2.6893 9.6993 -1.3683 -0.543 -0.482 0.688 193 143 129 0 0
2.8768 9.4654 -1.4696 -0.467 -0.438 0.768 163 109 93 0 0
3.2114 9.0237 -1.6555 -0.197 -0.823 0.534 182 128 106 0 0
3.2233 9.0135 -1.6610 -0.137 -0.815 0.562 201 147 126 0 0
4.3372 9.3911 -1.9033 0.538 -0.772 -0.339 133 90 74 0 0
4.4579 9.4802 -1.9198 0.517 -0.809 -0.281 132 90 73 0 0
4.7557 9.6844 -1.9635 0.451 -0.800 -0.395 135 94 75 0 0
4.8566 9.7531 -1.9785 0.481 -0.808 -0.342 142 98 80 0 0
3.0589 7.9721 -1.8260 -0.545 -0.068 0.836 230 206 175 0 0
3.0412 7.9170 -1.8321 -0.266 -0.583 0.768 228 207 178 0 0
3.1814 7.8081 -1.8945 -0.262 -0.943 0.205 229 212 184 0 0
3.1706 7.7795 -1.8972 -0.611 -0.349 0.711 234 217 189 0 0
3.1764 7.7653 -1.9018 -0.640 -0.332 0.693 233 214 187 0 0
3.5153 7.4215 -2.0689 -0.163 -0.744 0.648 233 216 187 0 0
3.6477 7.3019 -2.1312 -0.198 -0.874 0.444 233 215 183 0 0
3.6610 7.2753 -2.1405 -0.450 -0.452 0.770 233 216 187 0 0
3.8891 7.0427 -2.2532 -0.728 -0.423 0.540 232 215 188 0 0
3.9054 7.0183 -2.2628 -0.373 -0.744 0.555 232 215 187 0 0
3.9317 7.0009 -2.2739 -0.391 -0.903 0.176 232 212 184 0 0
4.1119 6.6654 -2.3939 -0.222 -0.799 0.558 231 211 182 0 0
4.1244 6.6561 -2.3994 -0.267 -0.697 0.665 230 210 180 0 0
4.4021 6.3333 -2.5447 -0.620 -0.415 0.666 227 210 183 0 0
4.4069 6.3194 -2.5489 -0.620 -0.415 0.666 225 207 181 0 0
4.4157 6.2911 -2.5572 -0.745 -0.289 0.601 230 212 186 0 0
4.5209 6.0868 -2.6290 -0.797 -0.511 0.322 228 211 183 0 0
4.5273 6.0740 -2.6334 -0.797 -0.511 0.322 229 211 183 0 0
4.5430 6.0663 -2.6395 -0.999 0.053 -0.012 229 211 183 0 0
4.6357 6.0022 -2.6791 -0.496 -0.511 0.702 229 212 186 0 0
4.6424 5.9896 -2.6836 -0.452 -0.545 0.706 230 213 187 0 0
4.6555 5.9802 -2.6893 -0.369 -0.560 0.742 230 213 187 0 0
4.7097 5.8479 -2.7318 -0.551 -0.549 0.629 228 209 182 0 0
4.7192 5.8367 -2.7367 -0.353 -0.935 -0.044 228 209 182 0 0
4.7358 5.8291 -2.7430 -0.546 -0.600 0.585 228 208 181 0 0
4.7178 5.8044 -2.7429 -0.341 -0.509 0.790 226 206 179 0 0
4.9914 5.8111 -2.8200 0.269 -0.926 0.263 235 238 237 0 0
4.9241 5.7468 -2.8138 0.051 -0.705 0.708 238 238 236 0 0
1.7235 10.8621 -0.8722 -0.399 -0.436 0.807 195 149 130 0 0
1.7863 10.7389 -0.9153 -0.695 -0.342 0.633 182 136 119 0 0
1.7970 10.7280 -0.9206 -0.585 -0.551 0.596 196 150 133 0 0
2.0029 10.4701 -1.0321 -0.336 -0.565 0.754 185 137 115 0 0
2.4250 9.9432 -1.2604 -0.432 -0.548 0.716 194 147 130 0 0
2.6751 9.6666 -1.3885 -0.255 -0.593 0.764 181 129 111 0 0
2.8646 9.4363 -1.4897 -0.385 -0.500 0.776 183 131 110 0 0
2.9029 9.4094 -1.5062 -0.579 -0.448 0.681 187 133 112 0 0
2.9325 9.3493 -1.5269 -0.323 -0.470 0.821 169 111 90 0 0
3.3751 8.9515 -1.7349 -0.347 -0.874 0.339 169 116 95 0 0
3.3895 8.9435 -1.7406 -0.347 -0.874 0.339 185 133 112 0 0
4.4552 9.4860 -1.9375 0.525 -0.808 -0.267 129 88 70 0 0
4.6452 9.6148 -1.9661 0.524 -0.814 -0.249 134 91 74 0 0
4.7560 9.6933 -1.9821 0.490 -0.820 -0.295 142 99 82 0 0
4.8622 9.7669 -1.9978 0.524 -0.827 -0.206 140 96 78 0 0
3.0432 7.9843 -1.8353 -0.565 -0.078 0.821 221 196 165 0 0
3.0408 7.9624 -1.8391 -0.565 -0.078 0.821 229 205 174 0 0
3.0142 7.8992 -1.8442 -0.529 -0.603 0.597 233 212 182 0 0
3.0254 7.8898 -1.8493 -0.482 -0.679 0.554 232 213 184 0 0
3.0502 7.8927 -1.8559 -0.176 -0.830 0.528 229 212 183 0 0
3.1650 7.7427 -1.9193 -0.376 -0.566 0.734 233 216 188 0 0
3.2480 7.6610 -1.9598 -0.687 -0.426 0.589 227 212 185 0 0
3.2549 7.6478 -1.9644 -0.702 -0.338 0.627 232 216 190 0 0
3.5068 7.4211 -2.0829 -0.185 -0.770 0.611 228 211 181 0 0
3.5155 7.4094 -2.0878 -0.077 -0.826 0.558 233 216 187 0 0
3.5932 7.3218 -2.1279 -0.149 -0.827 0.542 233 216 188 0 0
3.6065 7.3136 -2.1334 -0.126 -0.919 0.373 235 216 188 0 0
3.6374 7.3003 -2.1450 -0.345 -0.670 0.657 231 212 182 0 0
3.7401 7.1399 -2.2070 -0.101 -0.788 0.607 230 214 185 0 0
3.9038 7.0053 -2.2815 -0.317 -0.739 0.595 232 215 186 0 0
4.0848 6.6537 -2.4048 -0.580 -0.799 0.158 231 212 185 0 0
4.1003 6.6464 -2.4107 -0.438 -0.852 0.285 230 213 185 0 0
4.5202 6.0755 -2.6473 -0.521 -0.826 0.213 228 207 180 0 0
4.6277 5.9870 -2.6962 -0.453 -0.578 0.679 228 211 185 0 0
4.7021 5.8491 -2.7456 -0.807 -0.512 0.295 228 211 183 0 0
4.7312 5.8319 -2.7574 -0.589 -0.794 0.146 227 207 180 0 0
1.6908 10.9043 -0.8719 -0.452 -0.254 0.855 185 136 115 0 0
1.6978 10.8593 -0.8830 -0.455 -0.256 0.853 189 142 122 0 0
1.7015 10.8373 -0.8885 -0.407 -0.360 0.840 193 148 129 0 0
1.7709 10.7249 -0.9312 -0.822 -0.382 0.422 186 139 121 0 0
1.7827 10.7158 -0.9365 -0.638 -0.520 0.567 197 150 131 0 0
1.7852 10.6923 -0.9419 -0.222 -0.766 0.603 206 159 139 0 0
1.9047 10.6026 -0.9946 -0.329 -0.593 0.735 190 145 126 0 0
1.9860 10.4551 -1.0478 -0.457 -0.591 0.665 179 131 108 0 0
1.9981 10.4462 -1.0531 -0.143 -0.777 0.613 178 130 108 0 0
2.0119 10.4399 -1.0584 -0.344 -0.720 0.602 175 127 105 0 0
2.0311 10.4147 -1.0690 -0.476 -0.570 0.670 175 127 107 0 0
2.6810 9.6341 -1.4143 -0.307 -0.550 0.776 193 142 123 0 0
2.8494 9.4272 -1.5047 -0.386 -0.529 0.756 160 105 85 0 0
2.9024 9.3238 -1.5409 -0.431 -0.492 0.756 172 114 94 0 0
2.9111 9.3104 -1.5461 -0.555 -0.427 0.714 182 125 105 0 0
3.3644 8.9485 -1.7502 -0.315 -0.887 0.337 175 120 99 0 0
3.3774 8.9392 -1.7558 -0.309 -0.924 0.224 178 126 104 0 0
3.5533 8.9119 -1.8122 -0.091 -0.842 0.531 136 93 77 0 0
3.0160 7.9662 -1.8474 -0.605 0.104 0.790 221 197 166 0 0
3.0146 7.9454 -1.8512 -0.605 0.069 0.793 228 206 175 0 0
3.0143 7.8865 -1.8630 -0.482 -0.679 0.554 230 211 181 0 0
3.2116 7.6937 -1.9589 -0.158 -0.774 0.613 230 213 186 0 0
3.2266 7.6874 -1.9645 -0.258 -0.484 0.836 230 213 187 0 0
3.6286 7.2268 -2.1737 -0.220 -0.674 0.705 229 212 183 0 0
4.2158 6.4856 -2.4929 -0.724 -0.301 0.620 228 211 185 0 0
4.2215 6.4553 -2.5006 -0.515 -0.353 0.781 230 212 183 0 0
4.4356 6.1647 -2.6211 -0.359 -0.585 0.727 227 208 180 0 0
4.4444 6.1533 -2.6260 -0.359 -0.585 0.727 232 212 185 0 0
4.4532 6.1418 -2.6308 -0.331 -0.612 0.719 229 210 183 0 0
4.6221 5.8139 -2.7458 -0.636 -0.344 0.690 226 209 181 0 0
4.6870 5.7991 -2.7675 -0.100 -0.748 0.656 227 207 180 0 0
4.8566 5.7244 -2.8316 0.017 -0.792 0.611 237 239 236 0 0
1.7743 10.7129 -0.9522 -0.583 -0.421 0.695 188 141 122 0 0
1.7855 10.6754 -0.9629 -0.554 -0.371 0.745 190 144 122 0 0
2.0003 10.4325 -1.0740 -0.387 -0.591 0.708 185 136 115 0 0
2.0098 10.4199 -1.0793 -0.387 -0.591 0.708 174 126 106 0 0
2.3954 9.9227 -1.2910 -0.438 -0.476 0.763 180 129 111 0 0
2.7664 9.5048 -1.4826 -0.248 -0.829 0.501 188 133 113 0 0
2.7746 9.4908 -1.4878 -0.403 -0.504 0.764 172 116 96 0 0
2.8766 9.3262 -1.5504 -0.619 -0.274 0.736 192 134 112 0 0
2.8972 9.3030 -1.5611 -0.561 -0.459 0.689 201 145 123 0 0
3.3621 8.9317 -1.7706 -0.255 -0.867 0.429 168 114 93 0 0
3.3966 8.9438 -1.7782 -0.157 -0.776 0.611 169 116 93 0 0
3.0287 7.8092 -1.8989 -0.418 -0.539 0.732 231 214 188 0 0
3.1388 7.7331 -1.9461 -0.558 -0.369 0.743 231 213 184 0 0
3.1590 7.7123 -1.9561 -0.349 -0.594 0.724 229 212 185 0 0
3.2177 7.6673 -1.9822 -0.459 -0.463 0.758 230 213 186 0 0
3.2630 7.5918 -2.0105 -0.471 -0.735 0.488 234 217 189 0 0
3.2760 7.5838 -2.0159 -0.290 -0.864 0.412 230 213 185 0 0
3.2899 7.5765 -2.0214 -0.290 -0.864 0.412 231 214 186 0 0
3.3611 7.4663 -2.0642 -0.480 -0.581 0.657 231 214 186 0 0
3.4934 7.3860 -2.1187 -0.398 -0.548 0.736 232 212 185 0 0
3.7638 7.0434 -2.2660 -0.254 -0.654 0.713 234 217 189 0 0
3.9591 6.8428 -2.3630 -0.216 -0.831 0.513 234 215 185 0 0
4.0319 6.6826 -2.4162 -0.569 -0.518 0.638 227 208 181 0 0
4.0587 6.6483 -2.4309 -0.315 -0.703 0.637 232 215 187 0 0
4.0709 6.6389 -2.4363 -0.315 -0.883 0.349 232 215 187 0 0
4.2049 6.4844 -2.5062 -0.724 -0.301 0.620 231 212 185 0 0
4.3443 6.2829 -2.5871 -0.373 -0.570 0.732 228 211 185 0 0
4.3674 6.2631 -2.5978 -0.188 -0.848 0.495 227 210 184 0 0
4.5807 5.8611 -2.7404 -0.613 -0.734 0.293 227 210 182 0 0
4.5910 5.8505 -2.7455 -0.613 -0.734 0.293 226 209 181 0 0
4.9466 5.7727 -2.8644 0.191 -0.965 0.181 237 239 236 0 0
1.6974 11.3710 -0.8160 -0.151 -0.165 0.975 244 243 241 0 0
1.7718 10.6642 -0.9787 -0.554 -0.371 0.745 188 143 123 0 0
1.9952 10.4082 -1.0949 -0.506 -0.435 0.745 188 139 122 0 0
2.0089 10.3754 -1.1055 -0.527 -0.441 0.727 190 139 120 0 0
2.1761 10.1696 -1.1953 -0.298 -0.544 0.785 189 139 122 0 0
2.2449 10.0847 -1.2323 -0.345 -0.670 0.658 186 134 113 0 0
2.3698 9.9233 -1.3010 -0.483 -0.547 0.684 162 110 90 0 0
2.7231 9.5100 -1.4865 -0.370 -0.672 0.642 174 118 100 0 0
2.8623 9.3183 -1.5654 -0.619 -0.274 0.736 163 107 86 0 0
2.8713 9.3053 -1.5706 -0.431 -0.492 0.756 172 117 94 0 0
2.8841 9.2965 -1.5761 -0.561 -0.459 0.689 191 135 113 0 0
3.1442 9.0078 -1.7096 -0.428 -0.448 0.785 189 137 116 0 0
4.6399 9.6351 -2.0208 0.469 -0.773 -0.427 131 89 70 0 0
2.9968 7.9818 -1.8713 -0.770 -0.087 0.632 201 167 141 0 0
2.9831 7.8136 -1.9008 -0.151 -0.934 0.323 231 212 184 0 0
2.9941 7.8042 -1.9059 -0.288 -0.633 0.718 231 214 187 0 0
3.2618 7.5784 -2.0291 -0.369 -0.639 0.675 230 213 186 0 0
3.3481 7.4621 -2.0774 -0.480 -0.581 0.657 228 211 183 0 0
3.4793 7.3812 -2.1319 -0.455 -0.585 0.672 233 214 188 0 0
3.4926 7.3547 -2.1410 -0.486 -0.543 0.684 232 215 189 0 0
3.4992 7.3415 -2.1456 -0.599 -0.471 0.647 228 211 185 0 0
3.5067 7.3289 -2.1503 -0.692 -0.441 0.572 231 214 187 0 0
3.8992 6.8607 -2.3582 -0.250 -0.856 0.453 233 214 184 0 0
3.9302 6.8292 -2.3736 -0.281 -0.701 0.656 231 212 182 0 0
4.0662 6.6416 -2.4507 -0.243 -0.900 0.362 227 210 182 0 0
4.1916 6.4650 -2.5225 -0.561 -0.451 0.694 229 209 182 0 0
4.3535 6.2605 -2.6105 -0.362 -0.626 0.691 226 209 181 0 0
4.3631 6.2495 -2.6155 -0.362 -0.626 0.691 221 204 176 0 0
4.3452 6.2228 -2.6156 -0.673 -0.356 0.649 224 207 179 0 0
4.3607 6.2152 -2.6217 -0.664 -0.553 0.504 227 210 182 0 0
4.3625 6.1999 -2.6253 -0.518 -0.567 0.640 230 213 185 0 0
4.4541 6.0231 -2.6873 -0.217 -0.890 0.400 228 211 184 0 0
4.4744 6.0180 -2.6942 -0.285 -0.770 0.570 229 212 184 0 0
4.5179 5.9608 -2.7183 -0.367 -0.537 0.759 228 208 181 0 0
4.5674 5.8751 -2.7498 -0.556 -0.788 0.263 229 212 184 0 0
4.5762 5.8638 -2.7547 -0.642 -0.736 -0.216 227 210 182 0 0
4.5800 5.8500 -2.7585 -0.627 -0.779 -0.025 226 209 181 0 0
4.6207 5.8074 -2.7789 -0.502 -0.487 0.715 224 206 180 0 0
4.9065 5.7743 -2.8689 0.246 -0.958 0.147 236 237 235 0 0
4.9217 5.7658 -2.8750 0.191 -0.965 0.181 237 238 236 0 0
1.5307 11.1289 -0.8333 -0.658 -0.739 -0.147 244 243 241 0 0
1.6672 11.3309 -0.8332 -0.481 -0.003 0.877 245 244 242 0 0
1.6590 11.2874 -0.8394 -0.348 -0.086 0.934 244 243 241 0 0
1.6902 10.6836 -0.9684 -0.518 -0.429 0.740 191 144 122 0 0
1.8607 10.4851 -1.0578 -0.168 -0.667 0.726 179 132 112 0 0
2.5850 9.6399 -1.4378 -0.332 -0.512 0.792 184 129 112 0 0
2.9907 9.1238 -1.6591 -0.478 -0.438 0.762 185 131 111 0 0
3.4382 8.8891 -1.8368 0.003 -0.936 0.352 189 139 118 0 0
4.0805 9.2598 -1.9515 0.450 -0.814 -0.368 124 81 63 0 0
2.9927 7.9847 -1.8857 -0.170 -0.977 -0.131 194 160 133 0 0
3.0114 7.9822 -1.8917 -0.122 -0.986 -0.112 220 193 162 0 0
2.9724 7.8107 -1.9144 -0.151 -0.934 0.323 230 213 185 0 0
3.0662 7.7403 -1.9558 -0.307 -0.709 0.635 231 212 185 0 0
3.3274 7.4702 -2.0860 -0.309 -0.687 0.658 231 214 185 0 0
3.4465 7.3801 -2.1388 -0.488 -0.703 0.517 233 216 190 0 0
3.4556 7.3688 -2.1437 -0.570 -0.523 0.633 236 219 193 0 0
3.4694 7.3612 -2.1492 -0.552 -0.690 0.468 236 219 193 0 0
3.4847 7.3547 -2.1550 -0.544 -0.733 0.408 233 216 188 0 0
3.4872 7.3383 -2.1590 -0.599 -0.471 0.647 230 213 185 0 0
3.4901 7.3222 -2.1630 -0.754 -0.458 0.470 232 215 187 0 0
3.5704 7.2013 -2.2105 -0.313 -0.895 -0.318 227 208 180 0 0
3.6678 7.0934 -2.2605 -0.289 -0.505 0.813 232 215 187 0 0
3.7949 6.9353 -2.3291 -0.333 -0.611 0.718 235 215 188 0 0
3.8364 6.8937 -2.3496 -0.274 -0.713 0.646 230 213 185 0 0
3.8608 6.8754 -2.3603 -0.307 -0.598 0.740 230 212 185 0 0
3.8708 6.8647 -2.3654 -0.390 -0.521 0.759 230 210 183 0 0
3.9126 6.8406 -2.3824 -0.206 -0.805 0.556 232 213 183 0 0
3.9887 6.6659 -2.4394 -0.475 -0.581 0.661 232 212 185 0 0
4.1741 6.4263 -2.5413 -0.558 -0.314 0.768 230 213 185 0 0
4.2164 6.4015 -2.5586 -0.446 -0.425 0.788 230 213 185 0 0
4.3568 6.1855 -2.6426 -0.518 -0.567 0.640 229 212 184 0 0
4.4534 6.0279 -2.7022 -0.455 -0.838 0.301 224 207 180 0 0
4.4664 6.0188 -2.7078 -0.455 -0.838 0.301 226 209 182 0 0
4.4707 5.9890 -2.7150 -0.389 -0.541 0.746 230 211 185 0 0
4.4796 5.9778 -2.7199 -0.234 -0.687 0.688 229 209 182 0 0
4.5108 5.9463 -2.7352 -0.562 -0.535 0.631 229 208 181 0 0
4.5586 5.8757 -2.7633 -0.307 -0.910 0.279 228 211 183 0 0
4.5739 5.8677 -2.7693 -0.594 -0.802 0.061 225 208 180 0 0
4.6284 5.7692 -2.8049 -0.325 -0.647 0.690 224 204 177 0 0
4.9247 5.7723 -2.8911 0.210 -0.974 0.089 238 237 235 0 0
4.9773 5.7817 -2.9046 0.255 -0.963 0.092 238 238 236 0 0
1.5678 11.1734 -0.8531 -0.487 -0.363 0.795 244 243 242 0 0
1.5823 11.1687 -0.8583 -0.079 -0.483 0.872 244 243 240 0 0
1.7939 10.5549 -1.0417 -0.416 -0.541 0.731 186 138 119 0 0
1.8072 10.5213 -1.0523 -0.553 -0.469 0.689 182 135 116 0 0
1.8456 10.4722 -1.0733 -0.211 -0.629 0.749 174 126 107 0 0
1.9250 10.4041 -1.1101 -0.246 -0.660 0.710 192 149 131 0 0
2.2554 9.9907 -1.2890 -0.387 -0.497 0.776 210 159 141 0 0
2.2752 9.9418 -1.3044 -0.715 -0.470 0.517 188 141 124 0 0
2.2822 9.9262 -1.3096 -0.678 -0.476 0.561 190 143 126 0 0
2.2914 9.9133 -1.3148 -0.694 -0.571 0.439 188 139 122 0 0
2.3401 9.9024 -1.3313 -0.476 -0.520 0.709 191 142 123 0 0
2.5334 9.6817 -1.4318 -0.342 -0.627 0.700 183 132 113 0 0
2.7595 9.3807 -1.5578 -0.419 -0.614 0.669 180 123 103 0 0
2.9005 9.2158 -1.6319 -0.513 -0.335 0.791 173 118 97 0 0
2.9063 9.1992 -1.6368 -0.168 -0.609 0.775 179 124 104 0 0
2.9179 9.1891 -1.6422 -0.168 -0.609 0.775 192 137 117 0 0
3.1750 8.9213 -1.7708 -0.270 -0.795 0.542 164 113 95 0 0
3.1907 8.9152 -1.7766 -0.755 -0.403 0.517 180 130 111 0 0
3.3109 8.9258 -1.8099 -0.449 -0.733 0.512 167 115 93 0 0
3.3255 8.9182 -1.8157 -0.323 -0.802 0.503 172 117 96 0 0
3.3428 8.9133 -1.8218 -0.416 -0.618 0.668 163 107 85 0 0
3.8553 9.1218 -1.9315 0.132 -0.865 -0.484 106 61 45 0 0
4.1217 9.2836 -1.9780 0.068 -0.980 -0.188 131 90 72 0 0
4.1644 9.3006 -1.9872 -0.011 -0.904 -0.427 147 106 88 0 0
2.9948 7.9935 -1.9009 -0.920 -0.293 -0.262 177 147 123 0 0
2.9966 7.9754 -1.9050 -0.985 0.165 -0.048 217 187 160 0 0
2.9405 7.8078 -1.9216 -0.540 -0.543 0.643 229 209 182 0 0
2.9615 7.8074 -1.9279 -0.293 -0.846 0.446 231 213 186 0 0
2.9713 7.7777 -1.9366 -0.316 -0.579 0.751 235 218 190 0 0
2.9893 7.7746 -1.9425 -0.508 -0.715 0.480 231 213 185 0 0
2.9969 7.7622 -1.9472 -0.585 -0.547 0.599 232 214 188 0 0
3.0107 7.7553 -1.9526 -0.727 -0.459 0.510 236 219 193 0 0
3.0174 7.7421 -1.9572 -0.489 -0.614 0.620 234 217 191 0 0
3.1975 7.5563 -2.0469 -0.193 -0.745 0.638 233 216 190 0 0
3.2244 7.5226 -2.0615 -0.336 -0.793 0.508 233 216 188 0 0
3.4696 7.3308 -2.1715 -0.420 -0.598 0.683 232 215 187 0 0
3.4796 7.3203 -2.1766 -0.633 -0.474 0.612 235 218 190 0 0
3.5454 7.2067 -2.2183 -0.249 -0.968 0.013 236 216 189 0 0
3.5627 7.2017 -2.2244 -0.291 -0.932 -0.214 234 213 186 0 0
3.8428 6.8689 -2.3726 -0.252 -0.698 0.671 232 215 187 0 0
3.8480 6.8550 -2.3769 -0.661 -0.187 0.727 234 217 189 0 0
3.8670 6.8504 -2.3834 -0.276 -0.654 0.705 233 214 184 0 0
3.8834 6.8441 -2.3894 -0.417 -0.668 0.616 232 213 183 0 0
3.9163 6.8314 -2.4016 -0.571 -0.571 0.590 236 216 189 0 0
4.3417 6.1823 -2.6550 -0.314 -0.666 0.677 231 212 185 0 0
4.3842 6.0600 -2.6917 -0.422 -0.503 0.755 231 214 186 0 0
4.4545 6.0176 -2.7207 -0.289 -0.956 -0.043 230 212 184 0 0
4.4542 5.9854 -2.7270 -0.333 -0.667 0.667 225 208 180 0 0
4.4662 5.9598 -2.7356 -0.575 -0.734 0.360 228 208 182 0 0
4.4761 5.9491 -2.7406 -0.646 -0.422 0.636 231 211 186 0 0
4.4977 5.9445 -2.7478 -0.659 -0.748 -0.079 233 213 188 0 0
4.5136 5.8892 -2.7634 -0.658 -0.312 0.685 229 209 183 0 0
4.5599 5.8814 -2.7786 -0.337 -0.590 0.733 228 208 181 0 0
4.6250 5.7725 -2.8193 -0.409 -0.558 0.722 228 207 178 0 0
4.9908 5.7933 -2.9229 0.273 -0.944 0.183 238 238 238 0 0
1.5377 11.1623 -0.8641 -0.229 -0.519 0.824 245 243 242 0 0
1.5474 11.1495 -0.8695 -0.229 -0.519 0.824 244 243 241 0 0
1.5657 11.1223 -0.8802 -0.230 -0.539 0.810 222 210 206 0 0
1.7890 10.5035 -1.0678 -0.533 -0.452 0.715 182 136 118 0 0
1.8369 10.4689 -1.0887 -0.224 -0.779 0.585 169 121 102 0 0
1.8496 10.4613 -1.0940 -0.224 -0.779 0.585 176 126 106 0 0
2.1442 10.1022 -1.2516 -0.314 -0.550 0.774 166 114 93 0 0
2.1496 10.0842 -1.2568 -0.279 -0.614 0.738 193 142 122 0 0
2.1709 10.0624 -1.2673 -0.232 -0.601 0.764 194 143 124 0 0
2.2938 9.9005 -1.3354 -0.820 -0.553 0.149 187 140 123 0 0
2.4256 9.7502 -1.4039 -0.542 -0.488 0.685 178 125 108 0 0
2.8834 9.1593 -1.6553 -0.525 -0.295 0.798 187 132 112 0 0
3.1365 8.9339 -1.7744 -0.074 -0.900 0.430 202 151 131 0 0
3.1627 8.9164 -1.7856 -0.319 -0.846 0.426 179 128 108 0 0
3.1796 8.9115 -1.7916 -0.618 -0.526 0.583 162 112 92 0 0
3.4114 8.8781 -1.8667 0.087 -0.930 0.358 147 96 75 0 0
4.0835 9.2787 -1.9867 0.451 -0.842 -0.296 116 75 57 0 0
4.1148 9.2851 -1.9947 0.080 -0.993 0.085 133 92 74 0 0
4.6595 9.6788 -2.0785 0.497 -0.784 -0.372 126 82 63 0 0
2.9794 8.0256 -1.9064 -0.354 -0.455 -0.817 137 89 73 0 0
2.9973 8.0223 -1.9123 -0.354 -0.455 -0.817 147 107 90 0 0
3.0068 8.0112 -1.9173 -0.926 0.175 -0.335 184 156 133 0 0
3.0115 7.9958 -1.9217 -0.880 0.024 -0.474 213 184 156 0 0
3.0125 7.9771 -1.9257 -0.896 0.028 -0.443 228 203 170 0 0
2.9422 7.8158 -1.9365 -0.482 -0.719 0.501 228 208 181 0 0
2.9497 7.8034 -1.9412 -0.407 -0.886 0.221 230 212 184 0 0
2.9522 7.7865 -1.9453 -0.451 -0.477 0.754 233 216 188 0 0
2.9696 7.7828 -1.9511 -0.494 -0.790 0.363 232 215 187 0 0
2.9795 7.7725 -1.9561 -0.508 -0.715 0.480 235 215 188 0 0
2.9894 7.7621 -1.9611 -0.734 -0.501 0.459 232 214 187 0 0
2.9945 7.7475 -1.9654 -0.799 -0.280 0.533 239 222 194 0 0
3.2037 7.5304 -2.0699 -0.713 -0.601 0.362 230 210 183 0 0
3.4483 7.3387 -2.1799 -0.175 -0.627 0.759 231 214 186 0 0
3.5772 7.1284 -2.2593 -0.260 -0.707 0.658 229 212 184 0 0
3.5885 7.1189 -2.2645 -0.373 -0.599 0.709 232 215 189 0 0
3.6036 7.1121 -2.2703 -0.365 -0.545 0.755 235 218 191 0 0
3.6120 7.1004 -2.2751 -0.444 -0.395 0.804 236 219 191 0 0
3.6331 7.0444 -2.2923 -0.478 -0.748 0.460 234 215 187 0 0
3.6610 7.0291 -2.3036 -0.247 -0.871 0.426 232 214 186 0 0
3.6899 7.0321 -2.3115 -0.225 -0.974 0.018 228 208 181 0 0
3.8185 6.8755 -2.3803 -0.243 -0.768 0.593 228 211 183 0 0
3.8382 6.8540 -2.3904 -0.465 -0.435 0.771 231 214 186 0 0
3.9979 6.5978 -2.4879 -0.296 -0.698 0.652 227 211 182 0 0
4.0469 6.5440 -2.5129 -0.419 -0.577 0.702 230 213 185 0 0
4.0743 6.4936 -2.5309 -0.705 -0.400 0.585 229 210 181 0 0
4.3477 6.0451 -2.6998 -0.745 -0.515 0.424 229 210 183 0 0
4.3683 6.0404 -2.7069 -0.278 -0.957 -0.076 230 211 184 0 0
4.4001 6.0256 -2.7192 -0.399 -0.917 -0.012 232 213 186 0 0
4.4361 6.0289 -2.7292 -0.189 -0.971 0.143 228 208 181 0 0
4.4433 6.0167 -2.7337 -0.408 -0.738 0.537 228 208 181 0 0
4.4187 5.9875 -2.7322 -0.330 -0.797 0.506 227 208 180 0 0
4.4325 5.9789 -2.7379 -0.274 -0.829 0.487 227 210 181 0 0
4.4522 5.9575 -2.7480 -0.319 -0.670 0.670 229 209 182 0 0
4.4673 5.9495 -2.7540 -0.515 -0.545 0.662 229 209 183 0 0
4.9558 5.7815 -2.9314 0.273 -0.944 0.183 237 237 237 0 0
1.5227 11.1767 -0.8746 -0.180 -0.375 0.909 244 243 240 0 0
1.5301 11.1310 -0.8857 -0.209 -0.497 0.842 243 244 241 0 0
1.5631 10.6762 -0.9843 -0.454 -0.585 0.672 186 141 124 0 0
1.6468 10.6451 -1.0152 -0.354 -0.696 0.624 182 137 118 0 0
2.1270 10.0877 -1.2667 -0.256 -0.533 0.806 162 110 89 0 0
2.1373 10.0765 -1.2720 -0.215 -0.610 0.762 165 114 94 0 0
2.1461 10.0631 -1.2772 -0.289 -0.598 0.747 174 123 104 0 0
2.1567 10.0523 -1.2825 -0.434 -0.598 0.674 199 148 129 0 0
2.1672 10.0413 -1.2877 -0.694 -0.397 0.600 175 124 106 0 0
2.2812 9.8929 -1.3506 -0.651 -0.420 0.633 193 146 130 0 0
2.3544 9.8152 -1.3875 -0.461 -0.583 0.669 194 146 127 0 0
2.3630 9.8017 -1.3927 -0.448 -0.564 0.694 196 145 127 0 0
2.3923 9.7412 -1.4132 -0.328 -0.583 0.743 148 98 81 0 0
2.4135 9.7436 -1.4190 -0.545 -0.504 0.669 172 123 106 0 0
2.5511 9.5287 -1.5019 -0.113 -0.753 0.648 199 146 128 0 0
2.7072 9.3602 -1.5811 -0.522 -0.304 0.797 184 128 108 0 0
2.8676 9.1499 -1.6699 -0.540 -0.293 0.789 175 121 101 0 0
4.0708 9.2747 -2.0028 0.476 -0.844 -0.246 114 73 55 0 0
4.1017 9.2807 -2.0108 0.123 -0.973 0.195 135 92 76 0 0
4.6663 9.6937 -2.0978 0.481 -0.775 -0.411 131 85 69 0 0
2.9833 8.0359 -1.9218 -0.081 -0.460 -0.884 146 98 82 0 0
3.0141 8.0447 -1.9293 -0.113 -0.433 -0.894 154 119 103 0 0
3.0443 8.0526 -1.9367 -0.339 -0.236 -0.911 201 177 155 0 0
3.0585 8.0458 -1.9422 -0.374 -0.231 -0.898 207 180 152 0 0
3.0571 8.0246 -1.9459 -0.554 -0.043 -0.832 220 195 161 0 0
2.9218 7.8041 -1.9488 -0.490 -0.561 0.667 234 214 187 0 0
2.9641 7.7462 -1.9727 -0.340 -0.805 0.486 230 212 185 0 0
2.9852 7.7458 -1.9790 -0.793 -0.229 0.565 231 214 186 0 0
2.9873 7.7286 -1.9830 -0.793 -0.229 0.565 227 210 182 0 0
3.0858 7.6060 -2.0362 -0.176 -0.738 0.651 233 213 184 0 0
3.1304 7.5875 -2.0531 -0.378 -0.559 0.738 233 215 187 0 0
3.1876 7.5420 -2.0790 -0.269 -0.725 0.634 233 215 188 0 0
3.4090 7.2778 -2.1963 -0.631 -0.631 0.451 233 216 188 0 0
3.4088 7.2595 -2.1998 -0.310 -0.912 0.268 232 215 187 0 0
3.4186 7.2489 -2.2048 -0.264 -0.863 0.431 228 211 183 0 0
3.4308 7.2402 -2.2101 -0.353 -0.870 0.345 230 212 183 0 0
3.4511 7.2377 -2.2167 -0.511 -0.481 0.713 233 214 185 0 0
3.5951 7.0939 -2.2875 -0.365 -0.545 0.755 233 216 188 0 0
3.6228 7.0429 -2.3057 -0.364 -0.826 0.431 232 213 186 0 0
3.6596 7.0340 -2.3184 -0.190 -0.939 0.287 235 218 190 0 0
3.6513 7.0103 -2.3205 -0.327 -0.506 0.798 236 218 190 0 0
3.9088 6.6822 -2.4611 -0.335 -0.665 0.668 232 213 186 0 0
4.1304 6.4329 -2.5756 -0.471 -0.739 0.481 229 210 180 0 0
4.1423 6.3901 -2.5875 -0.402 -0.456 0.794 227 207 180 0 0
4.3331 6.0584 -2.7090 -0.212 -0.805 0.554 230 210 183 0 0
4.3423 6.0474 -2.7138 -0.410 -0.643 0.647 231 211 184 0 0
4.3575 6.0396 -2.7199 -0.181 -0.983 -0.014 227 207 180 0 0
4.3897 6.0411 -2.7291 -0.168 -0.984 -0.051 228 210 183 0 0
4.5579 5.7801 -2.8300 -0.535 -0.635 0.557 224 204 177 0 0
4.9195 5.7690 -2.9396 0.291 -0.942 0.167 238 238 236 0 0
1.5516 10.6678 -0.9997 -0.499 -0.498 0.709 177 131 115 0 0
1.5624 10.6578 -1.0049 -0.415 -0.550 0.725 173 127 111 0 0
1.7190 10.5505 -1.0725 -0.635 -0.523 0.569 173 126 105 0 0
1.7464 10.5118 -1.0882 -0.150 -0.824 0.546 198 152 134 0 0
1.7583 10.5031 -1.0934 -0.394 -0.669 0.630 198 153 135 0 0
1.7678 10.4909 -1.0986 -0.466 -0.546 0.696 176 131 113 0 0
1.7775 10.4788 -1.1039 -0.458 -0.507 0.730 198 152 134 0 0
1.9468 10.2546 -1.1979 -0.435 -0.517 0.737 194 146 125 0 0
1.9597 10.2472 -1.2032 -0.382 -0.617 0.688 186 139 119 0 0
2.5165 9.5428 -1.5061 -0.344 -0.540 0.769 173 118 101 0 0
2.5254 9.5298 -1.5113 -0.306 -0.580 0.755 165 110 91 0 0
2.5360 9.5189 -1.5166 -0.172 -0.740 0.650 157 102 83 0 0
2.7737 9.2362 -1.6424 -0.467 -0.433 0.771 186 131 111 0 0
2.9227 9.0821 -1.7168 -0.391 -0.590 0.706 197 148 127 0 0
2.9279 9.0651 -1.7217 -0.421 -0.512 0.749 176 125 105 0 0
2.9418 9.0576 -1.7273 -0.302 -0.589 0.750 184 132 112 0 0
2.9476 9.0413 -1.7321 -0.321 -0.523 0.789 175 120 100 0 0
2.9556 9.0275 -1.7372 -0.363 -0.521 0.772 190 134 114 0 0
2.9705 9.0209 -1.7429 -0.496 -0.486 0.720 174 118 98 0 0
2.9779 9.0064 -1.7480 -0.361 -0.604 0.711 161 108 87 0 0
3.0095 8.9729 -1.7639 -0.203 -0.757 0.621 183 130 109 0 0
3.2101 8.8915 -1.8396 -0.172 -0.946 0.275 169 113 90 0 0
3.2366 8.8962 -1.8466 -0.268 -0.836 0.478 153 98 76 0 0
3.3807 8.8631 -1.8960 0.113 -0.877 0.467 132 85 65 0 0
4.0868 9.2746 -2.0266 0.118 -0.938 0.325 134 92 76 0 0
5.1125 10.0434 -2.1832 0.144 -0.926 0.350 142 98 79 0 0
5.1382 10.0414 -2.1912 -0.289 -0.604 0.742 141 98 83 0 0
