ply
format ascii 1.0
element vertex 823
property float x
property float y
property float z
property float nx
property float ny
property float nz
property uchar diffuse_red
property uchar diffuse_green
property uchar diffuse_blue
property uchar class
property uchar detection
end_header
2.0505 10.5212 -0.9999 -0.620 -0.590 0.517 181 132 111 0 0
2.0864 10.5023 -0.9946 -0.179 -0.662 0.728 184 132 108 0 0
2.1043 10.4951 -0.9919 0.096 -0.710 0.698 173 121 97 0 0
2.1221 10.5001 -0.9890 -0.060 -0.738 0.672 162 110 87 0 0
2.2836 10.4905 -0.9638 -0.372 -0.570 0.733 180 128 104 0 0
2.3015 10.4823 -0.9611 -0.372 -0.570 0.733 184 132 108 0 0
2.3372 10.4678 -0.9558 -0.294 -0.614 0.732 170 120 97 0 0
2.3551 10.4625 -0.9530 -0.294 -0.614 0.732 181 131 108 0 0
2.5533 10.4479 -0.9222 -0.435 -0.657 0.616 182 132 111 0 0
2.5711 10.4397 -0.9195 -0.239 -0.660 0.712 184 134 113 0 0
2.5898 10.4545 -0.9163 -0.215 -0.735 0.643 187 137 115 0 0
2.6078 10.4514 -0.9136 -0.368 -0.744 0.558 186 136 113 0 0
2.6437 10.4413 -0.9081 -0.127 -0.800 0.586 172 121 98 0 0
2.8237 10.4022 -0.8805 -0.320 -0.528 0.787 189 137 115 0 0
2.9683 10.3810 -0.8581 -0.303 -0.623 0.721 189 137 116 0 0
3.2371 10.3067 -0.8171 -0.407 -0.667 0.624 195 145 122 0 0
3.2543 10.2948 -0.8146 -0.269 -0.681 0.681 186 134 113 0 0
3.3104 10.3043 -0.8057 -0.580 -0.544 0.607 171 118 100 0 0
3.3272 10.2882 -0.8033 -0.854 -0.460 0.241 190 139 120 0 0
3.6504 10.2122 -0.7538 -0.461 -0.628 0.627 187 133 112 0 0
3.7234 10.2042 -0.7425 -0.257 -0.631 0.732 202 150 128 0 0
4.3575 10.0871 -0.6448 -0.217 -0.575 0.789 143 86 67 0 0
4.8983 9.9660 -0.5619 -0.287 -0.644 0.709 176 118 94 0 0
5.2286 9.9156 -0.5109 0.217 -0.737 0.640 177 119 97 0 0
5.2446 9.9038 -0.5086 -0.200 -0.665 0.719 185 127 105 0 0
5.2631 9.9014 -0.5057 -0.200 -0.665 0.719 184 127 107 0 0
5.3713 9.8770 -0.4891 -0.412 -0.628 0.659 183 129 107 0 0
5.3917 9.8812 -0.4858 -0.139 -0.681 0.719 188 134 112 0 0
5.4611 9.8553 -0.4754 -0.245 -0.688 0.684 184 132 110 0 0
5.4793 9.8518 -0.4726 -0.163 -0.666 0.728 180 128 106 0 0
5.5735 9.8448 -0.4579 -0.284 -0.614 0.736 208 162 141 0 0
6.8036 10.0168 -0.2620 -0.368 -0.888 -0.277 151 106 94 0 0
6.7728 8.7469 -0.2876 -0.357 -0.056 0.932 247 248 245 0 0
6.7601 8.6770 -0.2907 -0.385 -0.061 0.921 247 248 245 0 0
6.6839 7.8946 -0.3154 -0.439 -0.288 0.851 235 218 192 0 0
6.6996 7.8913 -0.3130 -0.387 -0.323 0.863 233 216 190 0 0
6.9322 7.5377 -0.2823 -0.281 -0.673 0.684 228 212 186 0 0
6.9469 7.5334 -0.2801 -0.092 -0.720 0.688 229 213 188 0 0
6.9634 7.5326 -0.2775 0.045 -0.683 0.729 232 216 191 0 0
6.9824 7.5367 -0.2744 -0.194 -0.733 0.652 227 210 184 0 0
7.6229 7.5757 -0.1733 0.320 -0.640 0.699 210 193 171 0 0
8.0755 8.0286 -0.0948 0.526 -0.627 0.574 249 249 246 0 0
0.9130 10.8953 -1.1913 -0.230 -0.699 0.677 246 240 235 0 0
1.1189 10.7641 -1.1610 -0.626 -0.301 0.720 205 156 138 0 0
1.1395 10.7277 -1.1583 -0.626 -0.301 0.720 207 158 141 0 0
1.3408 10.6168 -1.1284 -0.452 -0.648 0.612 194 145 123 0 0
1.4477 10.5927 -1.1120 -0.759 -0.536 0.369 169 123 105 0 0
1.6606 10.5692 -1.0790 -0.396 -0.557 0.730 195 148 130 0 0
1.6962 10.5634 -1.0735 -0.572 -0.740 0.353 193 146 126 0 0
1.7142 10.5562 -1.0708 -0.484 -0.742 0.464 183 136 116 0 0
1.9281 10.5305 -1.0377 -0.333 -0.647 0.685 181 132 115 0 0
1.9460 10.5244 -1.0350 0.036 -0.675 0.737 191 142 125 0 0
2.1427 10.4816 -1.0048 0.062 -0.688 0.723 182 132 109 0 0
2.7697 10.3645 -0.9083 -0.282 -0.638 0.716 192 140 119 0 0
2.7876 10.3596 -0.9056 -0.282 -0.638 0.716 198 146 125 0 0
4.0963 10.0742 -0.7048 -0.086 -0.650 0.755 175 123 102 0 0
4.1160 10.0805 -0.7016 -0.187 -0.814 0.550 162 110 88 0 0
4.3554 10.0609 -0.6644 -0.308 -0.554 0.774 148 93 77 0 0
4.3722 10.0511 -0.6619 -0.486 -0.490 0.723 189 135 118 0 0
5.3340 9.8702 -0.5140 -0.377 -0.632 0.677 175 118 97 0 0
6.8274 10.0177 -0.2778 -0.515 -0.738 -0.436 137 89 76 0 0
7.1957 10.2570 -0.2166 0.616 -0.787 0.020 246 246 244 0 0
7.0364 7.5059 -0.2823 -0.312 -0.573 0.758 232 216 190 0 0
7.3893 7.4377 -0.2280 0.099 -0.722 0.685 235 219 193 0 0
7.4752 7.4676 -0.2141 0.358 -0.757 0.547 213 195 171 0 0
7.8327 7.7445 -0.1540 0.506 -0.590 0.629 242 239 230 0 0
8.0388 7.9640 -0.1185 0.485 -0.592 0.644 249 249 248 0 0
0.6330 11.3620 -1.2478 -0.938 -0.175 0.298 243 243 241 0 0
0.6899 11.3417 -1.2392 -0.237 -0.125 0.963 243 244 241 0 0
1.6281 10.5629 -1.1029 -0.570 -0.608 0.553 205 157 137 0 0
1.6460 10.5564 -1.1002 -0.517 -0.587 0.623 193 145 127 0 0
1.6644 10.5377 -1.0975 -0.324 -0.652 0.685 191 144 125 0 0
1.6820 10.5380 -1.0948 -0.167 -0.659 0.733 197 150 130 0 0
1.8068 10.5065 -1.0757 -0.361 -0.570 0.738 197 149 127 0 0
2.0739 10.4651 -1.0345 -0.356 -0.546 0.758 177 126 104 0 0
2.2877 10.4058 -1.0018 -0.009 -0.787 0.616 178 126 102 0 0
2.9665 10.2779 -0.8975 -0.289 -0.572 0.768 187 136 115 0 0
3.7570 10.1389 -0.7757 -0.418 -0.501 0.758 176 125 104 0 0
3.7921 10.1262 -0.7704 -0.454 -0.529 0.717 185 133 111 0 0
3.8087 10.1127 -0.7680 -0.182 -0.619 0.764 195 143 121 0 0
3.8281 10.1194 -0.7649 -0.215 -0.604 0.768 180 128 107 0 0
4.0954 10.0521 -0.7240 -0.086 -0.650 0.755 190 139 118 0 0
4.1325 10.0518 -0.7182 -0.349 -0.636 0.689 186 134 113 0 0
4.1499 10.0451 -0.7156 -0.349 -0.636 0.689 182 131 110 0 0
4.3708 10.0291 -0.6813 -0.401 -0.592 0.699 180 127 111 0 0
4.5873 9.9862 -0.6480 -0.430 -0.568 0.701 176 125 104 0 0
4.7097 9.9434 -0.6294 -0.529 -0.658 0.536 170 116 96 0 0
4.7502 9.9559 -0.6229 -0.243 -0.727 0.642 183 131 109 0 0
4.8538 9.9141 -0.6073 0.089 -0.670 0.737 156 100 79 0 0
4.8732 9.9164 -0.6042 -0.165 -0.606 0.778 173 115 92 0 0
5.7322 9.7774 -0.4718 -0.285 -0.827 0.485 165 114 92 0 0
7.2019 10.2641 -0.2356 0.650 -0.760 0.020 246 246 244 0 0
6.6482 7.8445 -0.3543 -0.376 -0.467 0.801 231 214 188 0 0
6.9143 7.5256 -0.3169 -0.352 -0.843 0.407 220 201 175 0 0
6.9982 7.4928 -0.3042 -0.212 -0.600 0.771 231 214 188 0 0
7.1761 7.4468 -0.2770 -0.076 -0.611 0.788 230 214 191 0 0
7.2363 7.4333 -0.2678 -0.181 -0.534 0.826 230 213 187 0 0
7.2495 7.4267 -0.2658 -0.113 -0.603 0.789 229 211 186 0 0
7.4695 7.4534 -0.2311 0.413 -0.774 0.480 211 194 169 0 0
0.6004 11.0490 -1.2761 -0.161 -0.326 0.932 243 243 241 0 0
0.6562 11.0270 -1.2677 -0.455 -0.288 0.842 244 244 242 0 0
1.3485 10.5767 -1.1650 -0.486 -0.575 0.659 177 130 107 0 0
1.4205 10.5428 -1.1541 -0.256 -0.675 0.692 174 131 113 0 0
1.4383 10.5391 -1.1514 -0.325 -0.659 0.678 186 146 128 0 0
1.4562 10.5321 -1.1487 -0.262 -0.657 0.707 199 158 140 0 0
1.4739 10.5273 -1.1460 -0.278 -0.655 0.702 209 167 148 0 0
2.2724 10.3967 -1.0230 -0.409 -0.671 0.618 176 124 100 0 0
2.2902 10.3916 -1.0203 -0.226 -0.747 0.625 166 114 90 0 0
2.3080 10.3921 -1.0175 -0.253 -0.599 0.759 188 137 115 0 0
2.7540 10.3091 -0.9489 0.025 -0.705 0.709 181 130 109 0 0
2.7724 10.3159 -0.9460 -0.049 -0.703 0.709 182 131 110 0 0
2.9859 10.2581 -0.9134 -0.029 -0.593 0.804 190 139 120 0 0
3.3949 10.1566 -0.8508 0.032 -0.864 0.502 188 133 112 0 0
3.7728 10.1004 -0.7925 -0.418 -0.501 0.758 187 135 114 0 0
3.7918 10.1046 -0.7895 -0.397 -0.590 0.703 182 130 109 0 0
3.8099 10.1020 -0.7867 -0.179 -0.742 0.646 180 129 108 0 0
3.8281 10.1000 -0.7839 -0.179 -0.742 0.646 201 151 130 0 0
3.8458 10.0954 -0.7811 0.255 -0.830 0.496 186 136 115 0 0
3.8652 10.1014 -0.7781 -0.021 -0.911 0.412 200 151 133 0 0
3.8863 10.1193 -0.7745 -0.411 -0.634 0.655 194 147 130 0 0
3.9015 10.0972 -0.7724 -0.524 -0.666 0.530 204 159 141 0 0
3.9356 10.0778 -0.7674 -0.730 -0.483 0.484 193 147 131 0 0
4.1131 10.0309 -0.7402 -0.086 -0.650 0.755 169 117 96 0 0
4.3510 10.0083 -0.7034 -0.310 -0.555 0.772 170 117 98 0 0
4.6338 9.9270 -0.6602 0.119 -0.992 0.031 184 133 116 0 0
4.6530 9.9294 -0.6572 0.119 -0.992 0.031 193 141 122 0 0
4.7080 9.9231 -0.6487 -0.461 -0.631 0.624 188 131 111 0 0
4.8687 9.8853 -0.6241 -0.203 -0.683 0.701 154 96 72 0 0
4.8863 9.8801 -0.6214 -0.317 -0.615 0.722 138 81 57 0 0
5.5142 9.7453 -0.5251 -0.296 -0.605 0.739 186 133 114 0 0
5.5319 9.7406 -0.5224 -0.336 -0.598 0.728 186 135 116 0 0
6.4913 9.8646 -0.3713 0.117 -0.957 0.264 141 94 78 0 0
6.8010 10.0382 -0.3209 0.203 -0.829 -0.522 144 97 82 0 0
6.5827 8.3419 -0.3749 -0.061 -0.708 0.704 248 247 242 0 0
6.6010 8.3432 -0.3720 -0.061 -0.708 0.704 245 239 231 0 0
6.6240 8.3150 -0.3687 -0.505 -0.032 0.863 230 215 200 0 0
6.7379 7.6384 -0.3589 -0.011 -0.596 0.803 231 211 184 0 0
7.1605 7.4140 -0.2956 0.174 -0.687 0.706 226 210 185 0 0
7.1848 7.3970 -0.2920 -0.219 -0.752 0.622 230 212 189 0 0
7.2003 7.3945 -0.2897 -0.219 -0.752 0.622 229 212 188 0 0
7.4626 7.4369 -0.2483 0.358 -0.757 0.547 232 214 190 0 0
0.5453 11.0856 -1.3034 -0.466 -0.279 0.839 244 244 242 0 0
0.5676 11.0483 -1.3003 -0.372 -0.287 0.883 243 243 241 0 0
0.5817 11.0784 -1.2978 -0.405 -0.255 0.878 243 243 241 0 0
0.6021 11.0561 -1.2948 -0.405 -0.255 0.878 244 243 241 0 0
0.6428 11.0118 -1.2890 -0.405 -0.255 0.878 244 243 241 0 0
0.6665 10.9598 -1.2858 -0.481 -0.273 0.833 245 244 242 0 0
1.5307 10.4950 -1.1561 -0.098 -0.927 0.362 184 139 120 0 0
1.5483 10.4924 -1.1533 -0.219 -0.945 0.243 174 128 110 0 0
1.6171 10.5247 -1.1423 -0.617 -0.519 0.592 193 145 123 0 0
3.0221 10.2226 -0.9267 -0.458 -0.613 0.644 168 116 95 0 0
3.1298 10.2101 -0.9101 -0.408 -0.548 0.730 185 131 110 0 0
3.8079 10.0689 -0.8060 0.334 -0.812 0.479 180 129 108 0 0
3.8622 10.0630 -0.7976 -0.034 -0.715 0.698 202 154 137 0 0
3.9350 10.0565 -0.7864 -0.681 -0.484 0.549 168 122 106 0 0
4.1122 10.0089 -0.7593 -0.086 -0.650 0.755 163 110 89 0 0
4.1301 10.0058 -0.7565 -0.303 -0.602 0.739 152 97 77 0 0
4.5614 9.9256 -0.6902 -0.423 -0.637 0.644 183 132 112 0 0
4.6335 9.9127 -0.6791 0.191 -0.775 0.602 184 133 115 0 0
4.6526 9.9144 -0.6762 -0.059 -0.818 0.573 168 116 95 0 0
4.8669 9.8661 -0.6433 -0.203 -0.683 0.701 181 121 97 0 0
4.8849 9.8623 -0.6405 -0.395 -0.644 0.655 190 133 110 0 0
4.9018 9.8545 -0.6380 -0.395 -0.644 0.655 173 119 95 0 0
5.8221 9.7387 -0.4959 -0.135 -0.884 0.447 172 118 94 0 0
5.8410 9.7373 -0.4930 -0.135 -0.884 0.447 150 96 72 0 0
5.8812 9.7422 -0.4867 -0.070 -0.877 0.475 163 109 84 0 0
6.9570 10.1116 -0.3155 0.485 -0.869 -0.095 147 104 88 0 0
6.9830 10.1246 -0.3114 0.549 -0.815 -0.187 136 92 79 0 0
6.5913 8.2362 -0.3916 -0.528 -0.025 0.849 231 210 190 0 0
7.4545 7.4187 -0.2656 0.236 -0.693 0.682 236 218 194 0 0
7.4825 7.4371 -0.2610 0.358 -0.757 0.547 234 217 193 0 0
7.7121 7.5608 -0.2240 0.467 -0.559 0.685 235 221 198 0 0
0.6373 10.9303 -1.3095 -0.445 -0.318 0.837 244 243 240 0 0
0.6776 10.8858 -1.3037 -0.481 -0.273 0.833 243 243 238 0 0
1.0924 10.5729 -1.2420 -0.008 -0.720 0.694 196 151 135 0 0
1.2153 10.5559 -1.2230 -0.595 -0.572 0.564 193 151 134 0 0
1.2884 10.5064 -1.2121 -0.126 -0.775 0.619 190 145 126 0 0
1.5168 10.4728 -1.1769 0.166 -0.956 0.243 179 133 116 0 0
1.5341 10.4764 -1.1742 0.166 -0.956 0.243 189 144 125 0 0
1.5511 10.4871 -1.1715 -0.219 -0.945 0.243 177 131 111 0 0
1.6224 10.4592 -1.1606 -0.244 -0.607 0.756 190 143 122 0 0
2.8097 10.2422 -0.9782 -0.034 -0.836 0.548 160 110 88 0 0
3.0059 10.2123 -0.9480 -0.040 -0.753 0.657 186 134 113 0 0
3.8847 10.0719 -0.8127 -0.350 -0.638 0.685 174 125 107 0 0
3.9024 10.0664 -0.8100 -0.570 -0.664 0.484 184 135 116 0 0
3.9174 10.0442 -0.8079 -0.731 -0.562 0.386 192 141 123 0 0
3.9492 10.0113 -0.8032 -0.755 -0.517 0.403 190 141 125 0 0
4.1468 9.9791 -0.7728 -0.358 -0.573 0.738 187 132 112 0 0
4.2509 9.9406 -0.7570 -0.199 -0.615 0.763 185 129 112 0 0
4.3955 9.9210 -0.7347 -0.181 -0.690 0.701 188 134 118 0 0
4.6327 9.8962 -0.6981 0.090 -0.725 0.683 157 103 83 0 0
4.6518 9.8979 -0.6951 -0.130 -0.735 0.665 160 104 83 0 0
4.7031 9.8760 -0.6874 -0.525 -0.541 0.657 175 117 97 0 0
4.8454 9.8428 -0.6655 -0.100 -0.654 0.750 171 110 87 0 0
4.8828 9.8420 -0.6597 -0.288 -0.664 0.690 180 122 100 0 0
4.9173 9.8291 -0.6545 -0.315 -0.597 0.738 182 126 106 0 0
4.9329 9.8158 -0.6522 0.136 -0.750 0.648 166 111 89 0 0
5.3118 9.7495 -0.5939 -0.233 -0.632 0.739 183 126 104 0 0
5.9675 9.7596 -0.4920 -0.394 -0.918 0.046 172 116 93 0 0
5.9845 9.7524 -0.4895 -0.394 -0.918 0.046 156 100 77 0 0
6.0051 9.7559 -0.4862 0.003 -0.998 0.064 152 97 75 0 0
6.2972 9.8066 -0.4404 0.124 -0.946 -0.298 132 87 71 0 0
6.8390 10.0665 -0.3541 0.139 -0.935 -0.326 142 91 73 0 0
7.0792 7.3791 -0.3400 0.026 -0.729 0.684 226 210 184 0 0
7.0943 7.3761 -0.3377 -0.153 -0.714 0.684 225 209 183 0 0
7.1622 7.3773 -0.3271 -0.274 -0.733 0.622 225 207 183 0 0
7.1924 7.3712 -0.3225 -0.228 -0.728 0.647 227 211 186 0 0
7.2070 7.3672 -0.3203 -0.219 -0.752 0.622 227 211 185 0 0
8.0563 7.9147 -0.1837 0.308 -0.393 0.866 248 250 247 0 0
0.4426 10.9640 -1.3583 -0.389 -0.324 0.862 242 244 241 0 0
0.4879 10.7535 -1.3528 -0.413 -0.816 -0.405 243 244 240 0 0
0.5065 10.7427 -1.3500 -0.413 -0.816 -0.405 242 244 240 0 0
0.5245 10.7370 -1.3473 -0.280 -0.871 -0.404 243 244 241 0 0
0.5426 10.7299 -1.3445 -0.280 -0.871 -0.404 243 243 242 0 0
0.9928 10.5545 -1.2760 -0.203 -0.584 0.786 159 113 95 0 0
1.2571 10.4945 -1.2355 -0.520 -0.563 0.643 188 149 130 0 0
1.2744 10.4948 -1.2328 -0.429 -0.779 0.458 192 153 134 0 0
1.2921 10.4892 -1.2301 -0.011 -0.788 0.615 176 135 117 0 0
1.3097 10.4855 -1.2274 0.295 -0.815 0.499 181 139 120 0 0
1.5896 10.4681 -1.1842 -0.370 -0.803 0.467 174 124 103 0 0
1.6072 10.4655 -1.1815 -0.170 -0.776 0.608 168 117 96 0 0
1.6248 10.4627 -1.1788 -0.168 -0.749 0.640 166 116 95 0 0
3.2180 10.1225 -0.9344 -0.072 -0.653 0.754 170 115 92 0 0
4.0183 9.9660 -0.8115 -0.301 -0.601 0.740 173 125 105 0 0
4.7010 9.8541 -0.7065 -0.480 -0.569 0.668 175 117 96 0 0
4.9101 9.7878 -0.6746 -0.676 -0.505 0.537 194 139 118 0 0
4.9314 9.7982 -0.6712 0.021 -0.743 0.669 178 123 102 0 0
5.0337 9.7568 -0.6557 0.165 -0.840 0.517 175 118 95 0 0
5.2160 9.7343 -0.6276 -0.211 -0.657 0.723 165 110 88 0 0
5.9677 9.7515 -0.5110 -0.124 -0.933 0.339 174 119 95 0 0
6.0175 9.7267 -0.5034 -0.247 -0.969 -0.000 162 107 86 0 0
6.2806 9.8071 -0.4621 0.092 -0.989 -0.112 127 81 64 0 0
6.3023 9.8124 -0.4587 0.228 -0.955 -0.191 128 82 66 0 0
6.8447 10.0730 -0.3728 0.188 -0.966 -0.178 146 97 80 0 0
6.9712 10.1308 -0.3528 0.422 -0.861 -0.282 149 103 88 0 0
6.5352 7.9101 -0.4362 -0.080 -0.599 0.797 214 194 166 0 0
6.5526 7.9108 -0.4334 0.039 -0.654 0.755 231 211 184 0 0
6.8586 7.4631 -0.3892 -0.326 -0.654 0.683 224 208 182 0 0
7.0889 7.3616 -0.3543 -0.199 -0.674 0.712 227 211 185 0 0
7.2338 7.3503 -0.3319 -0.213 -0.645 0.734 232 215 190 0 0
7.2491 7.3477 -0.3295 -0.094 -0.703 0.705 232 214 190 0 0
7.5422 7.3844 -0.2839 0.059 -0.646 0.761 232 216 190 0 0
7.5634 7.3913 -0.2805 0.052 -0.704 0.708 232 216 193 0 0
8.1196 7.9531 -0.1904 0.343 -0.409 0.846 248 250 247 0 0
0.3479 10.7890 -1.3929 -0.643 -0.745 -0.178 243 243 241 0 0
0.3893 10.7389 -1.3867 -0.067 -0.976 0.206 242 243 241 0 0
0.4065 10.7383 -1.3841 -0.067 -0.976 0.206 242 242 240 0 0
1.2599 10.4901 -1.2535 -0.482 -0.684 0.548 181 140 122 0 0
1.2778 10.4823 -1.2508 -0.429 -0.779 0.458 187 148 129 0 0
1.2956 10.4751 -1.2481 -0.011 -0.788 0.615 195 156 136 0 0
1.3129 10.4756 -1.2454 0.295 -0.815 0.499 189 147 128 0 0
1.4189 10.4458 -1.2292 -0.349 -0.672 0.653 199 158 140 0 0
1.7880 10.3748 -1.1725 -0.197 -0.635 0.747 177 128 107 0 0
1.8060 10.3576 -1.1699 -0.340 -0.637 0.692 181 130 109 0 0
2.4228 10.2661 -1.0750 -0.171 -0.648 0.743 188 140 119 0 0
2.4585 10.2694 -1.0695 -0.293 -0.694 0.657 182 134 117 0 0
2.4758 10.2545 -1.0669 -0.449 -0.683 0.577 175 128 109 0 0
2.4931 10.2371 -1.0643 -0.319 -0.619 0.718 178 130 108 0 0
2.8307 10.2041 -1.0123 -0.256 -0.598 0.760 183 131 107 0 0
2.8988 10.1467 -1.0021 0.045 -0.727 0.685 198 147 128 0 0
3.2181 10.0958 -0.9530 -0.027 -0.632 0.775 193 136 113 0 0
4.5186 9.8591 -0.7533 -0.251 -0.661 0.707 182 130 109 0 0
5.1324 9.6926 -0.6593 -0.455 -0.863 0.220 209 166 145 0 0
5.1538 9.7024 -0.6560 -0.269 -0.856 0.441 193 146 124 0 0
6.4065 9.8722 -0.4614 -0.032 -0.835 -0.549 140 93 77 0 0
6.4915 7.8839 -0.4593 -0.052 -0.662 0.748 230 210 183 0 0
6.5084 7.8835 -0.4567 0.430 -0.783 0.450 214 194 167 0 0
6.5327 7.8990 -0.4529 0.430 -0.783 0.450 221 201 174 0 0
6.5514 7.9025 -0.4500 0.267 -0.797 0.541 230 210 183 0 0
6.5661 7.8973 -0.4477 -0.006 -0.789 0.614 228 208 182 0 0
7.2018 7.3189 -0.3527 0.119 -0.923 0.365 228 211 185 0 0
0.8982 10.5178 -1.3276 -0.253 -0.556 0.792 197 154 136 0 0
1.1944 10.4744 -1.2821 -0.552 -0.636 0.539 195 151 134 0 0
1.2639 10.4692 -1.2714 -0.467 -0.627 0.624 190 145 129 0 0
1.2817 10.4622 -1.2687 -0.397 -0.638 0.660 182 138 120 0 0
1.2998 10.4507 -1.2660 -0.024 -0.627 0.779 191 147 128 0 0
1.3875 10.4323 -1.2525 -0.035 -0.781 0.624 197 151 131 0 0
1.4049 10.4306 -1.2498 -0.404 -0.689 0.601 183 139 120 0 0
1.4228 10.4226 -1.2471 -0.404 -0.689 0.601 185 143 125 0 0
1.7737 10.3549 -1.1933 -0.197 -0.635 0.747 192 144 126 0 0
2.4950 10.2149 -1.0826 -0.319 -0.619 0.718 189 139 119 0 0
2.8820 10.1227 -1.0233 -0.020 -0.723 0.691 181 130 110 0 0
2.9003 10.1296 -1.0204 0.045 -0.727 0.685 187 136 116 0 0
2.9178 10.1239 -1.0177 -0.271 -0.656 0.705 186 135 114 0 0
3.6426 9.9838 -0.9065 -0.282 -0.700 0.656 178 126 105 0 0
3.9958 9.9069 -0.8523 -0.188 -0.576 0.796 188 140 124 0 0
4.0673 9.8963 -0.8413 -0.352 -0.610 0.710 192 137 117 0 0
5.1524 9.6866 -0.6748 -0.566 -0.823 0.048 184 135 113 0 0
5.1705 9.6843 -0.6720 -0.472 -0.845 -0.249 179 129 106 0 0
5.1865 9.6738 -0.6696 -0.306 -0.943 0.134 182 127 106 0 0
5.5941 9.6468 -0.6069 -0.381 -0.887 0.261 175 123 101 0 0
6.9363 10.1313 -0.3979 0.213 -0.826 -0.523 137 91 76 0 0
7.1581 10.2146 -0.3633 -0.867 -0.261 -0.425 244 245 243 0 0
6.4884 7.9845 -0.4756 -0.713 -0.243 0.657 226 208 182 0 0
6.4840 7.8617 -0.4768 0.413 -0.798 0.439 225 205 178 0 0
6.5071 7.8749 -0.4732 0.508 -0.764 0.397 196 176 149 0 0
6.5312 7.8902 -0.4694 0.413 -0.798 0.439 225 206 177 0 0
6.5357 7.8628 -0.4688 -0.245 -0.760 0.602 230 210 183 0 0
6.9940 7.3620 -0.4001 -0.257 -0.741 0.620 225 209 183 0 0
7.1497 7.3110 -0.3763 -0.305 -0.645 0.701 226 210 183 0 0
7.9172 7.6476 -0.2566 0.322 -0.429 0.844 239 231 220 0 0
0.7279 10.5346 -1.3722 -0.232 -0.441 0.867 192 152 133 0 0
0.8689 10.4937 -1.3506 -0.287 -0.617 0.733 191 150 134 0 0
1.1987 10.4510 -1.2999 -0.540 -0.584 0.605 223 182 164 0 0
1.3557 10.4270 -1.2758 -0.238 -0.700 0.674 195 147 126 0 0
1.3733 10.4236 -1.2731 -0.238 -0.700 0.674 194 147 126 0 0
1.3905 10.4240 -1.2705 -0.044 -0.775 0.630 198 152 132 0 0
1.4793 10.3853 -1.2569 -0.473 -0.681 0.559 187 140 121 0 0
1.5153 10.3588 -1.2514 -0.103 -0.667 0.738 175 121 100 0 0
1.5494 10.3712 -1.2461 -0.367 -0.521 0.771 178 126 105 0 0
1.5671 10.3628 -1.2434 -0.279 -0.579 0.766 174 122 103 0 0
2.1278 10.2681 -1.1574 -0.149 -0.799 0.583 189 137 115 0 0
2.9199 10.1162 -1.0359 0.045 -0.727 0.685 194 142 121 0 0
2.9360 10.0909 -1.0334 -0.467 -0.568 0.678 188 137 116 0 0
3.0615 10.0941 -1.0141 0.041 -0.717 0.696 182 131 112 0 0
3.5337 9.9595 -0.9418 -0.532 -0.578 0.619 189 137 116 0 0
3.5529 9.9690 -0.9388 -0.045 -0.718 0.695 179 128 106 0 0
3.6241 9.9595 -0.9279 -0.216 -0.635 0.742 177 125 104 0 0
3.6418 9.9566 -0.9252 -0.216 -0.635 0.742 177 126 105 0 0
3.6773 9.9513 -0.9197 -0.416 -0.608 0.677 171 119 97 0 0
4.1714 9.8471 -0.8439 -0.426 -0.594 0.682 192 143 127 0 0
4.2598 9.8291 -0.8304 -0.350 -0.681 0.643 193 142 121 0 0
4.4564 9.7997 -0.8002 0.230 -0.825 0.516 196 144 123 0 0
4.8789 9.7016 -0.7354 -0.618 -0.510 0.598 187 132 109 0 0
5.1552 9.6865 -0.6929 -0.486 -0.844 0.228 163 107 86 0 0
5.1716 9.6778 -0.6904 -0.324 -0.909 0.264 173 119 98 0 0
5.2895 9.6288 -0.6724 -0.374 -0.751 0.544 189 131 107 0 0
5.4793 9.6339 -0.6432 -0.227 -0.974 -0.008 159 107 85 0 0
6.2542 9.8183 -0.5235 0.073 -0.953 -0.293 122 74 58 0 0
7.1360 10.3043 -0.3865 0.030 -0.830 -0.556 185 165 155 0 0
6.4663 7.9678 -0.4954 -0.909 -0.142 0.393 226 205 178 0 0
6.4541 7.8278 -0.4977 0.477 -0.764 0.435 225 205 177 0 0
6.4790 7.8451 -0.4938 0.513 -0.754 0.410 216 196 167 0 0
6.5052 7.8650 -0.4897 0.508 -0.764 0.397 206 187 157 0 0
6.5286 7.8788 -0.4861 0.539 -0.781 0.315 228 209 179 0 0
6.5332 7.8518 -0.4854 -0.228 -0.802 0.552 229 210 182 0 0
6.7515 7.4672 -0.4528 -0.165 -0.915 0.369 226 209 181 0 0
6.8301 7.4255 -0.4408 -0.173 -0.924 0.341 221 205 179 0 0
6.8457 7.4235 -0.4384 -0.173 -0.924 0.341 219 203 177 0 0
6.8613 7.4214 -0.4360 -0.173 -0.924 0.341 223 206 178 0 0
6.8727 7.4113 -0.4343 -0.330 -0.839 0.433 221 204 176 0 0
6.9791 7.3296 -0.4181 -0.345 -0.691 0.636 220 204 177 0 0
7.1674 7.2784 -0.3892 -0.193 -0.703 0.684 224 206 179 0 0
7.2966 7.2703 -0.3694 -0.200 -0.858 0.474 225 209 184 0 0
8.1400 7.8552 -0.2381 0.281 -0.394 0.875 249 249 247 0 0
0.7543 10.4731 -1.3865 -0.116 -0.568 0.815 204 164 147 0 0
1.0500 10.4116 -1.3411 -0.451 -0.657 0.604 188 145 128 0 0
1.1846 10.4422 -1.3204 -0.423 -0.601 0.679 217 175 159 0 0
1.2029 10.4288 -1.3176 -0.540 -0.584 0.605 213 172 155 0 0
1.2207 10.4200 -1.3149 -0.466 -0.619 0.632 207 166 149 0 0
1.4130 10.3801 -1.2854 -0.648 -0.596 0.474 183 139 121 0 0
1.4672 10.3372 -1.2771 -0.300 -0.721 0.624 191 144 127 0 0
1.9903 10.2550 -1.1969 -0.516 -0.722 0.461 199 152 131 0 0
2.1654 10.2315 -1.1700 -0.290 -0.646 0.706 183 134 112 0 0
2.1829 10.2266 -1.1673 -0.290 -0.646 0.706 185 137 115 0 0
2.2004 10.2212 -1.1647 -0.271 -0.612 0.743 187 138 118 0 0
2.6395 10.1469 -1.0973 -0.406 -0.757 0.512 179 122 103 0 0
2.6568 10.1381 -1.0947 -0.483 -0.699 0.528 186 130 111 0 0
2.6739 10.1232 -1.0921 -0.683 -0.580 0.443 192 139 118 0 0
2.6913 10.1182 -1.0894 -0.363 -0.676 0.641 193 142 120 0 0
2.7088 10.1123 -1.0867 -0.368 -0.691 0.622 181 128 105 0 0
2.7271 10.1231 -1.0839 -0.328 -0.651 0.684 172 119 97 0 0
2.8842 10.0761 -1.0598 -0.153 -0.657 0.738 184 133 113 0 0
2.9877 10.0297 -1.0440 -0.263 -0.632 0.729 178 127 107 0 0
3.1814 9.9996 -1.0142 -0.167 -0.633 0.756 201 145 124 0 0
3.2020 10.0299 -1.0110 -0.498 -0.542 0.677 178 125 103 0 0
3.3593 9.9866 -0.9869 -0.350 -0.530 0.772 190 137 119 0 0
4.3643 9.7851 -0.8328 -0.312 -0.737 0.599 193 143 120 0 0
4.4345 9.7688 -0.8220 -0.322 -0.849 0.418 176 124 104 0 0
4.4554 9.7810 -0.8188 0.265 -0.800 0.538 194 142 121 0 0
4.7382 9.7226 -0.7754 -0.273 -0.652 0.707 187 132 111 0 0
4.7551 9.7152 -0.7729 -0.238 -0.744 0.625 181 126 104 0 0
4.8922 9.6684 -0.7519 -0.522 -0.526 0.672 183 128 107 0 0
5.1717 9.6678 -0.7089 -0.106 -0.820 0.563 148 89 68 0 0
5.2738 9.6296 -0.6933 -0.239 -0.911 0.335 167 113 90 0 0
5.2921 9.6279 -0.6905 -0.209 -0.926 0.315 160 105 81 0 0
5.4611 9.6267 -0.6645 -0.315 -0.935 0.162 162 109 86 0 0
5.6108 9.6209 -0.6416 -0.232 -0.926 0.299 171 118 95 0 0
5.6285 9.6165 -0.6389 -0.010 -0.955 0.298 154 102 77 0 0
6.2841 9.8381 -0.5380 0.329 -0.928 -0.176 132 84 69 0 0
6.6762 9.9763 -0.4776 -0.001 -0.989 -0.145 129 86 72 0 0
7.1218 10.3129 -0.4089 0.439 -0.797 -0.415 162 120 107 0 0
7.1436 10.3147 -0.4055 -0.537 -0.645 -0.544 192 176 165 0 0
6.5049 7.8589 -0.5059 0.519 -0.728 0.448 223 204 173 0 0
6.5257 7.8669 -0.5027 0.407 -0.758 0.510 226 208 177 0 0
6.5308 7.8410 -0.5020 -0.228 -0.802 0.552 229 209 181 0 0
6.8429 7.4132 -0.4545 -0.383 -0.805 0.452 220 203 177 0 0
6.8548 7.4040 -0.4527 -0.295 -0.771 0.564 225 206 178 0 0
6.9748 7.3168 -0.4343 -0.345 -0.691 0.636 224 207 181 0 0
6.9999 7.3019 -0.4305 -0.434 -0.700 0.567 222 205 179 0 0
7.0094 7.2887 -0.4290 -0.552 -0.739 0.388 222 205 179 0 0
7.1963 7.2658 -0.4003 -0.181 -0.773 0.608 222 205 179 0 0
7.2433 7.2604 -0.3931 0.046 -0.829 0.557 221 204 179 0 0
8.1686 7.8096 -0.2505 0.434 -0.522 0.734 249 249 246 0 0
1.2248 10.3988 -1.3326 -0.466 -0.619 0.632 209 168 151 0 0
1.9931 10.2393 -1.2148 -0.536 -0.622 0.571 185 138 118 0 0
2.6415 10.1335 -1.1154 -0.406 -0.757 0.512 188 132 113 0 0
2.6589 10.1266 -1.1127 -0.455 -0.763 0.459 187 133 113 0 0
2.9888 10.0083 -1.0621 -0.263 -0.632 0.729 187 136 115 0 0
3.2025 10.0066 -1.0293 -0.509 -0.532 0.677 178 126 105 0 0
3.3925 9.9367 -1.0002 -0.137 -0.620 0.772 205 152 132 0 0
4.2010 9.7780 -0.8762 -0.100 -0.648 0.755 172 123 105 0 0
4.2361 9.7706 -0.8709 -0.627 -0.594 0.505 186 136 117 0 0
4.3808 9.7621 -0.8487 -0.067 -0.715 0.696 186 134 112 0 0
4.3999 9.7659 -0.8458 -0.013 -0.741 0.672 172 119 99 0 0
4.4171 9.7597 -0.8431 -0.271 -0.768 0.580 199 146 125 0 0
4.4343 9.7539 -0.8405 -0.233 -0.682 0.693 193 141 120 0 0
4.4560 9.7707 -0.8372 -0.050 -0.742 0.669 183 131 110 0 0
4.9421 9.6339 -0.7626 -0.183 -0.603 0.776 174 122 98 0 0
5.4425 9.6180 -0.6859 -0.361 -0.919 -0.158 174 120 96 0 0
5.4630 9.6233 -0.6828 -0.463 -0.884 0.058 174 121 97 0 0
5.6118 9.6147 -0.6600 -0.232 -0.926 0.299 174 119 96 0 0
5.6295 9.6108 -0.6573 -0.010 -0.955 0.298 169 118 91 0 0
6.2891 9.8437 -0.5564 0.238 -0.965 -0.107 131 82 68 0 0
6.4610 9.9323 -0.5301 0.164 -0.789 -0.593 127 78 63 0 0
6.8576 10.1173 -0.4694 0.455 -0.819 -0.349 142 96 81 0 0
6.9410 10.1704 -0.4567 0.243 -0.849 -0.468 152 106 91 0 0
7.1311 10.3276 -0.4276 0.475 -0.812 -0.338 166 125 114 0 0
7.1493 10.3207 -0.4248 -0.619 -0.628 -0.471 211 198 189 0 0
6.4236 7.7865 -0.5345 0.450 -0.743 0.496 226 207 177 0 0
6.4741 7.8230 -0.5268 0.407 -0.758 0.510 210 191 161 0 0
6.6356 7.5591 -0.5019 -0.642 -0.552 0.532 226 207 181 0 0
6.8305 7.4162 -0.4720 -0.345 -0.750 0.564 224 207 181 0 0
6.8518 7.3934 -0.4687 -0.295 -0.771 0.564 220 201 174 0 0
6.9827 7.2960 -0.4486 -0.416 -0.714 0.564 219 202 175 0 0
6.9966 7.2910 -0.4465 -0.434 -0.700 0.567 217 200 173 0 0
7.0096 7.2845 -0.4445 -0.434 -0.700 0.567 225 208 182 0 0
7.3492 7.2365 -0.3924 0.087 -0.843 0.531 228 210 186 0 0
7.3670 7.2383 -0.3897 0.009 -0.809 0.588 229 212 186 0 0
8.2493 7.9030 -0.2549 0.513 -0.513 0.688 249 249 248 0 0
0.9526 10.4129 -1.3925 0.067 -0.750 0.658 188 145 128 0 0
0.9699 10.4093 -1.3899 0.011 -0.677 0.736 192 147 130 0 0
0.9869 10.4103 -1.3873 -0.080 -0.638 0.766 199 154 136 0 0
1.0038 10.4117 -1.3847 -0.318 -0.650 0.690 174 129 111 0 0
1.0214 10.4060 -1.3820 -0.318 -0.650 0.690 181 137 120 0 0
1.2289 10.3778 -1.3502 -0.466 -0.619 0.632 192 151 132 0 0
1.5962 10.2682 -1.2938 -0.314 -0.587 0.747 179 128 109 0 0
1.6134 10.2698 -1.2912 -0.353 -0.588 0.728 181 132 113 0 0
1.6308 10.2664 -1.2885 -0.264 -0.678 0.686 181 134 114 0 0
2.3962 10.0860 -1.1711 -0.419 -0.794 0.441 181 129 107 0 0
2.4140 10.0994 -1.1684 0.078 -0.728 0.681 167 115 93 0 0
3.2361 9.9551 -1.0425 -0.061 -0.775 0.629 164 111 93 0 0
3.3923 9.9110 -1.0185 -0.239 -0.578 0.781 204 151 130 0 0
3.4271 9.9017 -1.0132 -0.344 -0.622 0.704 194 143 124 0 0
3.5881 9.8979 -0.9885 -0.252 -0.625 0.739 190 136 115 0 0
3.6056 9.8940 -0.9858 -0.252 -0.625 0.739 170 119 97 0 0
3.6233 9.8916 -0.9831 -0.174 -0.673 0.719 196 146 125 0 0
3.6407 9.8865 -0.9805 -0.288 -0.682 0.672 179 131 109 0 0
4.3577 9.7233 -0.8705 0.135 -0.796 0.590 187 136 113 0 0
4.4153 9.7371 -0.8617 -0.092 -0.755 0.650 184 130 108 0 0
4.4330 9.7340 -0.8590 -0.233 -0.735 0.637 188 135 111 0 0
4.4547 9.7508 -0.8557 -0.118 -0.623 0.774 161 109 87 0 0
4.4713 9.7420 -0.8532 0.036 -0.597 0.801 181 132 110 0 0
4.5558 9.7069 -0.8402 -0.271 -0.712 0.647 191 139 117 0 0
5.2323 9.5947 -0.7365 -0.110 -0.857 0.503 182 129 108 0 0
5.4315 9.6352 -0.7062 0.085 -0.981 -0.172 169 114 91 0 0
5.4508 9.6364 -0.7032 -0.113 -0.971 -0.213 167 113 89 0 0
5.5952 9.6131 -0.6811 0.056 -0.991 0.124 133 78 57 0 0
5.6137 9.6115 -0.6783 -0.078 -0.997 -0.003 158 103 82 0 0
5.8451 9.6786 -0.6431 0.004 -0.970 -0.241 161 113 92 0 0
6.1359 9.7921 -0.5988 0.223 -0.954 -0.200 114 67 51 0 0
6.6757 10.0112 -0.5168 -0.040 -0.979 -0.201 138 95 79 0 0
6.8666 10.1319 -0.4879 0.446 -0.844 -0.297 138 90 76 0 0
6.8885 10.1352 -0.4845 0.076 -0.842 -0.534 142 96 80 0 0
6.9492 10.1828 -0.4753 0.223 -0.887 -0.406 152 106 90 0 0
6.9710 10.1854 -0.4720 -0.016 -0.856 -0.516 154 108 92 0 0
7.1391 10.3389 -0.4466 0.583 -0.755 -0.299 162 124 113 0 0
6.5295 7.6820 -0.5342 -0.699 -0.511 0.500 223 204 174 0 0
6.9932 7.2801 -0.4624 -0.434 -0.700 0.567 214 197 169 0 0
7.0041 7.2698 -0.4607 -0.506 -0.746 0.432 212 195 167 0 0
7.0182 7.2653 -0.4586 -0.704 -0.609 0.365 229 212 184 0 0
7.0332 7.2322 -0.4562 -0.881 -0.472 0.007 222 202 175 0 0
7.1528 7.2388 -0.4380 -0.434 -0.717 0.546 222 204 179 0 0
7.3119 7.2256 -0.4136 -0.028 -0.887 0.462 224 208 182 0 0
7.3275 7.2236 -0.4112 -0.196 -0.794 0.576 226 209 184 0 0
7.3617 7.2250 -0.4060 -0.086 -0.823 0.562 226 209 183 0 0
7.3815 7.2300 -0.4030 0.043 -0.957 0.288 225 208 181 0 0
7.3992 7.2317 -0.4003 0.043 -0.957 0.288 223 206 178 0 0
7.4206 7.2394 -0.3970 0.172 -0.918 0.358 225 208 181 0 0
0.9431 10.3610 -1.4120 -0.418 -0.702 0.577 193 150 133 0 0
1.1830 10.3387 -1.3753 -0.148 -0.618 0.772 199 155 137 0 0
1.2002 10.3378 -1.3727 -0.148 -0.618 0.772 195 151 132 0 0
1.2325 10.3632 -1.3679 -0.326 -0.719 0.614 198 155 135 0 0
1.3394 10.3022 -1.3513 -0.452 -0.697 0.556 198 154 137 0 0
1.3571 10.2929 -1.3486 -0.452 -0.697 0.556 188 142 126 0 0
1.3756 10.2706 -1.3457 -0.216 -0.745 0.632 177 130 113 0 0
1.5307 10.2534 -1.3220 -0.323 -0.516 0.794 171 122 102 0 0
1.5478 10.2531 -1.3193 -0.357 -0.558 0.749 194 146 125 0 0
1.5652 10.2487 -1.3167 -0.239 -0.560 0.793 182 133 111 0 0
2.3983 10.0664 -1.1889 -0.335 -0.668 0.665 170 118 97 0 0
2.4158 10.0661 -1.1863 -0.178 -0.688 0.703 169 118 96 0 0
2.9383 9.9727 -1.1062 -0.041 -0.616 0.787 189 134 111 0 0
2.9564 9.9779 -1.1035 -0.215 -0.624 0.751 189 134 111 0 0
2.9739 9.9755 -1.1008 -0.132 -0.620 0.773 168 114 92 0 0
2.9914 9.9725 -1.0981 -0.302 -0.696 0.651 179 127 107 0 0
3.2013 9.9354 -1.0660 -0.258 -0.621 0.740 189 137 115 0 0
3.4471 9.8972 -1.0284 -0.276 -0.582 0.765 182 131 111 0 0
3.9345 9.7795 -0.9536 0.189 -0.808 0.558 187 136 116 0 0
3.9552 9.7962 -0.9505 -0.023 -0.707 0.707 185 133 114 0 0
3.9737 9.7984 -0.9477 -0.023 -0.707 0.707 191 139 118 0 0
4.0094 9.7954 -0.9422 -0.282 -0.614 0.737 185 130 110 0 0
4.4502 9.7150 -0.8747 -0.357 -0.698 0.621 177 125 101 0 0
4.4672 9.7090 -0.8721 -0.464 -0.713 0.526 180 130 108 0 0
4.6737 9.6458 -0.8403 -0.194 -0.742 0.642 195 141 118 0 0
4.6928 9.6487 -0.8375 -0.328 -0.628 0.705 183 128 107 0 0
4.9378 9.5944 -0.7999 -0.329 -0.670 0.665 170 114 92 0 0
5.2833 9.5664 -0.7471 -0.049 -0.986 0.161 161 108 87 0 0
5.4345 9.6356 -0.7243 0.061 -0.998 -0.010 173 117 94 0 0
5.4472 9.6144 -0.7223 -0.401 -0.898 -0.184 176 121 97 0 0
5.4831 9.6082 -0.7168 -0.180 -0.982 0.051 171 116 94 0 0
5.8495 9.6831 -0.6612 0.004 -0.970 -0.241 138 89 70 0 0
5.8685 9.6824 -0.6583 0.004 -0.970 -0.241 128 80 60 0 0
5.8862 9.6778 -0.6555 0.027 -0.954 -0.298 128 80 61 0 0
6.8955 10.1449 -0.5033 0.024 -0.999 -0.047 142 96 80 0 0
7.1721 10.2596 -0.4615 -0.608 -0.553 -0.570 245 244 242 0 0
6.5012 7.6879 -0.5544 -0.432 -0.780 0.453 223 204 174 0 0
6.5147 7.6808 -0.5524 -0.457 -0.688 0.564 224 205 176 0 0
6.5237 7.6642 -0.5509 -0.606 -0.644 0.468 223 204 175 0 0
6.6822 7.4412 -0.5259 -0.404 -0.863 0.304 223 207 182 0 0
6.7800 7.4051 -0.5109 -0.238 -0.963 0.129 224 207 180 0 0
6.7908 7.3940 -0.5092 -0.469 -0.797 0.380 218 201 173 0 0
6.8033 7.3860 -0.5073 -0.562 -0.729 0.390 220 203 176 0 0
6.8365 7.3225 -0.5020 -0.161 -0.756 0.635 228 212 188 0 0
6.9904 7.2703 -0.4783 -0.353 -0.743 0.568 216 199 169 0 0
7.0051 7.2668 -0.4760 -0.547 -0.722 0.424 211 193 164 0 0
7.0253 7.2434 -0.4729 -0.787 -0.578 0.216 222 202 177 0 0
7.4803 7.2504 -0.4035 0.040 -0.868 0.496 228 211 185 0 0
8.1939 7.7791 -0.2966 0.434 -0.497 0.752 249 249 247 0 0
0.7921 10.3745 -1.4532 -0.226 -0.597 0.770 171 124 104 0 0
1.3265 10.2768 -1.3713 -0.376 -0.844 0.381 193 148 130 0 0
1.3440 10.2703 -1.3686 -0.500 -0.829 0.250 190 145 126 0 0
1.3611 10.2700 -1.3660 -0.399 -0.778 0.486 180 135 116 0 0
1.4462 10.2761 -1.3531 -0.580 -0.620 0.528 189 139 118 0 0
1.4646 10.2546 -1.3502 -0.356 -0.632 0.688 186 136 116 0 0
1.4817 10.2535 -1.3476 -0.283 -0.649 0.706 159 108 89 0 0
1.4995 10.2423 -1.3448 -0.367 -0.632 0.683 187 136 117 0 0
1.5515 10.2297 -1.3368 -0.404 -0.586 0.702 177 126 106 0 0
1.8109 10.1866 -1.2971 -0.240 -0.624 0.743 186 135 114 0 0
1.8283 10.1831 -1.2945 -0.240 -0.624 0.743 181 130 109 0 0
2.3834 10.0652 -1.2094 -0.480 -0.533 0.697 192 141 120 0 0
2.4005 10.0489 -1.2067 -0.209 -0.734 0.646 185 133 112 0 0
2.4180 10.0525 -1.2041 -0.228 -0.723 0.652 190 139 117 0 0
2.5748 10.0356 -1.1801 -0.388 -0.542 0.746 181 131 111 0 0
2.9214 9.9450 -1.1269 -0.315 -0.739 0.595 162 105 85 0 0
2.9749 9.9530 -1.1188 -0.245 -0.583 0.774 180 125 102 0 0
2.9923 9.9506 -1.1161 -0.344 -0.601 0.721 174 122 101 0 0
3.0099 9.9483 -1.1134 -0.243 -0.666 0.705 179 130 110 0 0
3.0271 9.9427 -1.1108 -0.361 -0.586 0.726 181 133 113 0 0
4.0341 9.7101 -0.9563 -0.057 -0.696 0.716 190 137 120 0 0
4.0932 9.7389 -0.9475 -0.053 -0.772 0.634 182 129 109 0 0
4.1277 9.7291 -0.9422 -0.375 -0.579 0.724 196 145 123 0 0
4.2692 9.7087 -0.9205 -0.004 -0.739 0.674 184 132 110 0 0
4.2866 9.7045 -0.9179 -0.075 -0.608 0.790 179 126 106 0 0
4.8295 9.5926 -0.8347 0.051 -0.637 0.769 176 121 98 0 0
4.9368 9.5792 -0.8183 -0.484 -0.678 0.553 169 112 92 0 0
4.9527 9.5690 -0.8158 -0.468 -0.643 0.606 181 125 104 0 0
5.0859 9.5834 -0.7956 -0.540 -0.590 0.600 158 101 78 0 0
5.2853 9.5637 -0.7652 0.028 -0.963 0.267 175 120 99 0 0
5.3035 9.5619 -0.7624 -0.204 -0.948 0.244 160 106 83 0 0
5.4049 9.5889 -0.7471 -0.220 -0.913 0.343 167 111 88 0 0
5.4227 9.5854 -0.7444 -0.237 -0.931 0.279 166 109 88 0 0
5.5408 9.6024 -0.7265 -0.043 -0.927 0.373 180 127 106 0 0
5.8573 9.6982 -0.6788 -0.225 -0.974 0.033 132 81 62 0 0
5.8719 9.6840 -0.6765 0.233 -0.956 -0.178 128 77 59 0 0
5.9131 9.6920 -0.6703 0.243 -0.944 -0.225 142 92 77 0 0
5.9310 9.6878 -0.6675 0.097 -0.925 -0.367 130 79 65 0 0
7.0505 10.2621 -0.5002 0.703 -0.691 -0.168 141 96 80 0 0
7.1565 10.3652 -0.4846 0.587 -0.752 -0.301 165 130 120 0 0
6.5315 7.6400 -0.5655 -0.757 -0.539 0.369 227 209 180 0 0
6.5929 7.4901 -0.5554 -0.615 -0.774 0.152 225 208 182 0 0
6.8003 7.3753 -0.5232 -0.188 -0.805 0.563 223 206 179 0 0
6.9493 7.2813 -0.5001 -0.586 -0.719 0.373 215 198 170 0 0
6.9739 7.2657 -0.4962 -0.206 -0.828 0.521 222 205 176 0 0
7.3035 7.2023 -0.4457 -0.188 -0.757 0.625 223 206 181 0 0
7.9015 7.4557 -0.3561 0.314 -0.503 0.805 237 222 203 0 0
8.0202 7.5594 -0.3385 0.435 -0.553 0.710 224 216 205 0 0
8.2119 7.7744 -0.3105 0.477 -0.516 0.711 249 249 247 0 0
8.2673 7.8321 -0.3023 0.503 -0.539 0.676 249 249 247 0 0
0.8321 10.3386 -1.4649 -0.308 -0.557 0.771 187 144 126 0 0
1.3314 10.2397 -1.3885 -0.173 -0.724 0.668 179 133 114 0 0
1.3481 10.2445 -1.3860 -0.482 -0.663 0.573 179 132 114 0 0
1.3651 10.2461 -1.3834 -0.221 -0.689 0.690 174 127 108 0 0
1.3826 10.2390 -1.3807 -0.157 -0.798 0.582 182 133 115 0 0
1.4005 10.2238 -1.3779 -0.489 -0.633 0.600 192 142 124 0 0
1.4183 10.2117 -1.3751 -0.620 -0.546 0.564 184 134 113 0 0
1.4500 10.2539 -1.3706 -0.601 -0.666 0.442 183 132 110 0 0
1.4677 10.2421 -1.3678 -0.556 -0.705 0.441 175 124 102 0 0
1.4853 10.2330 -1.3650 -0.491 -0.732 0.471 179 127 106 0 0
1.5028 10.2257 -1.3623 -0.479 -0.791 0.381 187 136 115 0 0
1.5553 10.2019 -1.3542 -0.559 -0.684 0.469 160 109 88 0 0
1.6582 10.2000 -1.3386 -0.246 -0.965 0.090 182 134 114 0 0
1.6930 10.1866 -1.3332 0.115 -0.881 0.459 187 140 120 0 0
1.8312 10.1669 -1.3121 -0.211 -0.641 0.738 191 140 120 0 0
1.8485 10.1643 -1.3094 -0.211 -0.641 0.738 178 128 109 0 0
2.7318 9.9634 -1.1740 -0.076 -0.714 0.696 153 97 76 0 0
2.9403 9.9265 -1.1421 -0.011 -0.695 0.719 194 139 118 0 0
2.9584 9.9331 -1.1394 -0.087 -0.736 0.671 184 129 105 0 0
2.9933 9.9285 -1.1340 -0.344 -0.601 0.721 167 115 93 0 0
3.4095 9.8327 -1.0702 -0.415 -0.628 0.659 184 135 114 0 0
3.5642 9.7870 -1.0464 -0.537 -0.480 0.694 193 139 119 0 0
4.0350 9.6991 -0.9743 -0.101 -0.807 0.581 183 128 110 0 0
4.0535 9.7023 -0.9715 0.271 -0.787 0.554 173 119 100 0 0
4.0933 9.7238 -0.9656 -0.130 -0.699 0.703 179 126 105 0 0
4.1268 9.7086 -0.9604 -0.398 -0.573 0.717 191 140 118 0 0
4.2667 9.6810 -0.9390 -0.380 -0.604 0.701 193 139 117 0 0
4.3019 9.6754 -0.9336 -0.648 -0.634 0.423 183 129 108 0 0
4.3157 9.6529 -0.9314 -0.753 -0.508 0.418 179 126 104 0 0
4.4558 9.6270 -0.9099 -0.053 -0.593 0.804 180 128 105 0 0
4.4748 9.6306 -0.9071 -0.107 -0.665 0.739 172 120 97 0 0
4.4943 9.6370 -0.9042 -0.264 -0.610 0.747 181 128 107 0 0
4.6513 9.6030 -0.8801 -0.418 -0.628 0.657 187 136 113 0 0
4.6678 9.5952 -0.8775 -0.190 -0.741 0.645 177 125 103 0 0
4.8233 9.5550 -0.8537 0.022 -0.700 0.714 169 115 92 0 0
5.0432 9.5511 -0.8202 -0.083 -0.733 0.675 175 122 99 0 0
5.0679 9.5748 -0.8166 -0.698 -0.716 -0.024 153 99 77 0 0
5.0826 9.5603 -0.8143 -0.698 -0.716 -0.024 130 77 55 0 0
5.0979 9.5479 -0.8119 -0.572 -0.794 0.204 157 103 79 0 0
5.1181 9.5543 -0.8089 -0.503 -0.783 0.366 159 103 79 0 0
5.3052 9.5580 -0.7805 -0.252 -0.911 -0.327 164 110 86 0 0
5.3236 9.5569 -0.7777 -0.122 -0.992 -0.010 162 105 82 0 0
5.5099 9.6158 -0.7498 -0.582 -0.794 0.178 165 110 86 0 0
5.6939 9.5977 -0.7217 0.194 -0.981 0.008 167 115 92 0 0
6.4246 9.9637 -0.6133 0.266 -0.811 -0.521 140 92 78 0 0
6.9979 10.2280 -0.5280 0.526 -0.699 -0.484 150 104 90 0 0
7.1337 10.3535 -0.5082 0.619 -0.732 -0.284 154 109 94 0 0
6.4433 7.7332 -0.5954 -0.430 -0.589 0.684 224 207 182 0 0
6.5052 7.6498 -0.5854 -0.498 -0.611 0.616 225 205 179 0 0
6.5318 7.6352 -0.5813 -0.764 -0.503 0.405 223 205 177 0 0
6.5284 7.5926 -0.5815 -0.355 -0.740 0.571 221 203 175 0 0
6.7464 7.3619 -0.5469 0.133 -0.991 0.006 219 200 174 0 0
6.7605 7.3572 -0.5447 -0.292 -0.850 0.438 219 202 174 0 0
6.8015 7.3089 -0.5381 -0.199 -0.896 0.397 225 209 183 0 0
6.8281 7.2969 -0.5340 -0.373 -0.831 0.413 219 203 179 0 0
6.9019 7.2806 -0.5227 -0.411 -0.751 0.517 222 205 177 0 0
6.9115 7.2677 -0.5212 -0.619 -0.691 0.373 222 205 177 0 0
6.9408 7.2608 -0.5167 -0.192 -0.850 0.491 218 201 173 0 0
6.9700 7.2538 -0.5122 -0.214 -0.803 0.557 221 204 175 0 0
7.2558 7.2018 -0.4684 -0.284 -0.754 0.593 221 202 176 0 0
7.5577 7.2300 -0.4228 0.217 -0.851 0.477 230 215 189 0 0
7.6002 7.2441 -0.4164 0.206 -0.873 0.441 230 214 189 0 0
7.9463 7.4667 -0.3654 0.435 -0.553 0.710 237 221 202 0 0
8.0394 7.5574 -0.3518 0.435 -0.553 0.710 218 213 204 0 0
8.2293 7.7689 -0.3244 0.503 -0.539 0.676 249 249 247 0 0
8.2780 7.8160 -0.3174 0.493 -0.543 0.680 249 249 247 0 0
0.7340 10.3363 -1.4978 -0.532 -0.698 0.479 186 139 121 0 0
1.5061 10.2095 -1.3798 -0.491 -0.732 0.471 173 122 101 0 0
1.5410 10.1951 -1.3744 -0.506 -0.651 0.565 147 96 75 0 0
1.9035 10.1265 -1.3189 -0.312 -0.624 0.717 182 131 111 0 0
2.7161 9.9486 -1.1944 -0.033 -0.741 0.670 152 95 75 0 0
2.7508 9.9425 -1.1891 -0.266 -0.682 0.681 186 130 110 0 0
2.9771 9.9130 -1.1545 -0.324 -0.608 0.725 185 133 111 0 0
2.9943 9.9066 -1.1519 -0.344 -0.601 0.721 189 137 117 0 0
3.2193 9.8553 -1.1173 -0.248 -0.638 0.729 182 130 109 0 0
3.2367 9.8516 -1.1147 -0.248 -0.638 0.729 193 141 120 0 0
3.2711 9.8413 -1.1094 -0.592 -0.593 0.546 174 127 107 0 0
3.7230 9.7531 -1.0402 -0.219 -0.609 0.763 184 135 118 0 0
3.7906 9.7259 -1.0297 -0.503 -0.699 0.509 183 134 117 0 0
3.8059 9.7084 -1.0273 -0.489 -0.640 0.593 197 147 129 0 0
3.9670 9.7070 -1.0029 -0.530 -0.583 0.616 170 114 95 0 0
4.0918 9.6992 -0.9839 0.097 -0.792 0.603 183 128 107 0 0
4.1077 9.6869 -0.9814 -0.250 -0.649 0.718 164 108 87 0 0
4.3478 9.6175 -0.9444 -0.204 -0.606 0.769 183 128 105 0 0
4.3801 9.5982 -0.9394 -0.440 -0.645 0.625 185 130 111 0 0
4.4366 9.6086 -0.9309 -0.275 -0.616 0.738 182 131 110 0 0
4.4921 9.6136 -0.9225 0.128 -0.666 0.735 189 136 115 0 0
4.6656 9.5731 -0.8959 -0.194 -0.895 0.402 193 144 121 0 0
4.6839 9.5735 -0.8931 -0.164 -0.784 0.599 193 144 122 0 0
4.8215 9.5361 -0.8720 0.104 -0.732 0.673 189 137 115 0 0
5.0432 9.5402 -0.8384 -0.174 -0.753 0.634 152 99 78 0 0
5.0622 9.5425 -0.8356 -0.091 -0.774 0.626 140 88 68 0 0
5.3085 9.5597 -0.7984 -0.014 -0.995 0.098 158 100 78 0 0
5.3263 9.5567 -0.7957 -0.122 -0.992 -0.010 172 114 91 0 0
5.6230 9.6047 -0.7511 -0.374 -0.889 0.262 168 113 93 0 0
6.2609 9.8889 -0.6568 0.176 -0.963 -0.204 130 83 67 0 0
6.2810 9.8896 -0.6538 0.025 -0.970 -0.242 137 90 74 0 0
6.3008 9.8894 -0.6508 0.025 -0.970 -0.242 145 98 81 0 0
6.9774 10.2211 -0.5511 0.375 -0.904 -0.208 142 94 80 0 0
7.1426 10.3672 -0.5272 0.555 -0.782 -0.283 155 112 98 0 0
7.1589 10.3555 -0.5247 -0.637 -0.663 -0.394 178 157 146 0 0
6.4607 7.6924 -0.6084 -0.777 -0.452 0.438 226 206 180 0 0
6.4821 7.6665 -0.6049 -0.691 -0.583 0.427 225 204 179 0 0
6.4906 7.6488 -0.6035 -0.751 -0.480 0.453 226 206 181 0 0
6.5017 7.6368 -0.6017 -0.614 -0.496 0.614 225 205 179 0 0
6.5259 7.6173 -0.5979 -0.466 -0.556 0.689 225 205 177 0 0
6.5259 7.5821 -0.5976 -0.290 -0.771 0.567 223 203 176 0 0
6.5421 7.5811 -0.5951 -0.858 -0.487 0.163 225 205 178 0 0
6.6147 7.4566 -0.5831 -0.508 -0.735 0.450 224 207 180 0 0
6.6699 7.4344 -0.5746 -0.614 -0.750 0.246 220 203 175 0 0
6.6907 7.4099 -0.5712 -0.602 -0.691 0.400 217 200 172 0 0
6.6989 7.3934 -0.5698 -0.493 -0.787 0.371 217 200 172 0 0
6.7616 7.3224 -0.5597 -0.452 -0.734 0.507 222 205 177 0 0
6.8613 7.2925 -0.5444 -0.191 -0.829 0.525 220 204 179 0 0
6.8767 7.2904 -0.5420 -0.191 -0.829 0.525 219 202 176 0 0
6.8995 7.2713 -0.5384 -0.354 -0.724 0.592 218 201 173 0 0
6.9225 7.2527 -0.5348 -0.440 -0.703 0.558 221 204 178 0 0
6.9389 7.2525 -0.5323 -0.239 -0.936 0.258 221 204 178 0 0
6.9487 7.2401 -0.5307 -0.360 -0.731 0.579 220 203 176 0 0
8.2491 7.7670 -0.3381 0.475 -0.526 0.705 249 249 247 0 0
0.3992 10.6004 -1.5691 0.466 -0.885 -0.003 243 243 241 0 0
0.4150 10.6087 -1.5668 0.466 -0.885 -0.003 244 242 238 0 0
0.4311 10.6151 -1.5644 0.100 -0.987 -0.124 199 174 164 0 0
0.5334 10.4833 -1.5476 -0.586 -0.723 0.365 179 132 110 0 0
1.5100 10.1827 -1.3971 -0.430 -0.667 0.608 158 107 86 0 0
1.5281 10.1628 -1.3941 -0.359 -0.651 0.669 186 135 114 0 0
2.0103 10.0465 -1.3201 -0.583 -0.481 0.655 189 139 118 0 0
2.0275 10.0400 -1.3174 0.092 -0.707 0.702 187 139 117 0 0
2.0618 10.0547 -1.3124 -0.552 -0.516 0.656 179 128 107 0 0
2.0791 10.0321 -1.3096 -0.263 -0.601 0.755 164 113 92 0 0
2.1479 10.0218 -1.2991 -0.013 -0.670 0.742 178 130 111 0 0
2.5791 9.9484 -1.2332 -0.217 -0.647 0.731 194 144 127 0 0
2.5971 9.9626 -1.2306 -0.266 -0.618 0.740 206 158 141 0 0
2.7178 9.9305 -1.2120 0.083 -0.793 0.603 164 110 89 0 0
2.7349 9.9247 -1.2094 0.015 -0.790 0.613 184 130 109 0 0
2.7524 9.9246 -1.2067 -0.320 -0.762 0.562 195 143 122 0 0
3.2698 9.8020 -1.1273 -0.317 -0.680 0.662 179 131 112 0 0
3.9268 9.6632 -1.0267 -0.547 -0.632 0.550 172 116 96 0 0
3.9428 9.6516 -1.0241 -0.547 -0.632 0.550 181 124 105 0 0
3.9596 9.6446 -1.0215 -0.315 -0.659 0.683 175 116 98 0 0
4.0884 9.6642 -1.0023 -0.305 -0.670 0.677 166 111 90 0 0
4.1554 9.6358 -0.9918 -0.244 -0.611 0.753 172 122 100 0 0
4.2961 9.6168 -0.9704 0.059 -0.699 0.712 192 143 121 0 0
4.3784 9.5759 -0.9576 -0.442 -0.563 0.698 180 128 108 0 0
4.7507 9.5342 -0.9009 -0.660 -0.709 0.248 180 128 107 0 0
4.7660 9.5218 -0.8984 -0.632 -0.745 0.215 196 144 122 0 0
4.7998 9.5107 -0.8932 -0.120 -0.776 0.619 194 140 119 0 0
4.9657 9.5149 -0.8682 -0.248 -0.907 0.339 166 115 95 0 0
4.9841 9.5150 -0.8654 0.043 -0.921 0.386 160 109 87 0 0
5.0240 9.5270 -0.8595 -0.174 -0.753 0.634 166 115 94 0 0
5.2106 9.5326 -0.8313 0.111 -0.972 0.209 141 85 62 0 0
5.6272 9.6089 -0.7691 0.013 -0.998 0.062 142 87 67 0 0
5.6455 9.6069 -0.7663 -0.074 -0.981 -0.182 128 76 55 0 0
6.2663 9.8956 -0.6753 -0.052 -0.929 -0.366 129 81 66 0 0
6.3057 9.8948 -0.6694 0.092 -0.955 -0.283 126 78 62 0 0
6.7013 10.0374 -0.6110 0.360 -0.926 -0.114 149 110 93 0 0
6.8430 10.1369 -0.5905 0.563 -0.816 -0.129 168 126 110 0 0
6.3679 7.8538 -0.6399 -0.826 -0.304 0.475 221 204 176 0 0
6.4796 7.6556 -0.6211 -0.705 -0.546 0.452 226 206 180 0 0
6.5144 7.5876 -0.6152 -0.333 -0.733 0.593 222 203 174 0 0
6.5196 7.5634 -0.6141 -0.188 -0.704 0.684 224 205 177 0 0
6.7405 7.3404 -0.5786 -0.709 -0.532 0.463 221 204 177 0 0
6.7580 7.3104 -0.5756 -0.403 -0.694 0.597 224 207 181 0 0
6.8296 7.2901 -0.5646 -0.452 -0.834 0.318 208 192 164 0 0
6.8428 7.2838 -0.5625 -0.452 -0.834 0.318 221 205 179 0 0
6.8585 7.2824 -0.5601 -0.145 -0.901 0.408 220 203 177 0 0
6.8742 7.2810 -0.5578 -0.145 -0.901 0.408 220 203 175 0 0
6.9226 7.2482 -0.5501 -0.326 -0.730 0.601 219 201 175 0 0
6.9485 7.2351 -0.5461 -0.253 -0.774 0.581 218 201 174 0 0
6.9725 7.2186 -0.5423 -0.305 -0.833 0.462 217 200 172 0 0
6.9890 7.2187 -0.5398 -0.204 -0.891 0.407 217 200 172 0 0
8.2139 7.7084 -0.3595 0.504 -0.547 0.669 248 250 246 0 0
0.3536 10.9424 -1.5981 -0.889 -0.248 -0.385 243 243 241 0 0
1.0873 10.2120 -1.4792 -0.170 -0.569 0.805 203 161 142 0 0
2.0302 10.0098 -1.3347 0.370 -0.819 0.439 181 133 111 0 0
2.0473 10.0188 -1.3322 0.370 -0.819 0.439 178 128 106 0 0
3.2176 9.7825 -1.1530 -0.039 -0.712 0.701 193 141 120 0 0
3.2878 9.7797 -1.1424 -0.312 -0.604 0.733 182 132 114 0 0
3.3230 9.7789 -1.1371 -0.427 -0.706 0.565 185 136 118 0 0
3.3748 9.7681 -1.1292 -0.488 -0.615 0.619 186 139 124 0 0
3.8276 9.6983 -1.0601 -0.453 -0.649 0.612 188 133 113 0 0
3.9265 9.6449 -1.0446 -0.589 -0.612 0.528 187 131 110 0 0
3.9423 9.6319 -1.0421 -0.589 -0.612 0.528 186 131 110 0 0
4.3767 9.5540 -0.9757 -0.402 -0.594 0.697 164 111 94 0 0
4.7052 9.4835 -0.9253 -0.102 -0.793 0.601 195 148 128 0 0
4.7232 9.4828 -0.9226 -0.217 -0.823 0.526 210 162 142 0 0
4.7417 9.4843 -0.9198 0.019 -0.794 0.608 205 155 134 0 0
4.7609 9.4886 -0.9170 0.112 -0.850 0.515 196 144 123 0 0
4.7988 9.4950 -0.9113 0.042 -0.768 0.639 165 113 91 0 0
5.2126 9.5299 -0.8493 0.154 -0.933 0.326 126 72 47 0 0
5.2295 9.5238 -0.8467 -0.204 -0.973 0.105 161 106 80 0 0
5.2474 9.5212 -0.8440 -0.152 -0.987 0.053 166 110 83 0 0
5.3052 9.5284 -0.8353 -0.089 -0.995 0.040 190 129 103 0 0
5.3226 9.5238 -0.8327 -0.327 -0.944 0.035 176 114 89 0 0
5.6301 9.6092 -0.7873 -0.119 -0.977 -0.177 126 74 54 0 0
5.6495 9.6107 -0.7843 0.034 -0.986 -0.166 133 81 62 0 0
6.2736 9.9077 -0.6936 0.098 -0.785 -0.612 132 83 68 0 0
6.3773 9.9738 -0.6787 0.330 -0.941 -0.075 127 81 65 0 0
6.5139 10.0165 -0.6586 0.346 -0.938 0.025 116 69 51 0 0
6.5386 10.0286 -0.6550 0.250 -0.959 -0.131 126 79 63 0 0
6.6263 10.0458 -0.6420 -0.138 -0.840 -0.525 117 74 58 0 0
6.9968 10.2531 -0.5885 0.422 -0.793 -0.439 145 98 83 0 0
6.3628 7.8746 -0.6571 -0.722 -0.392 0.571 221 203 178 0 0
6.3628 7.8366 -0.6566 -0.863 -0.320 0.392 223 206 179 0 0
6.4818 7.6190 -0.6362 -0.830 -0.455 0.323 223 204 178 0 0
6.4887 7.5983 -0.6349 -0.842 -0.447 0.302 226 209 183 0 0
6.5339 7.5531 -0.6276 -0.596 -0.767 0.239 226 207 177 0 0
6.8406 7.2748 -0.5782 -0.167 -0.889 0.425 218 201 174 0 0
6.8557 7.2724 -0.5759 -0.136 -0.840 0.525 218 201 173 0 0
7.2676 7.1516 -0.5124 -0.121 -0.862 0.492 216 199 169 0 0
7.3095 7.1381 -0.5059 -0.130 -0.899 0.417 220 203 174 0 0
8.1244 7.5937 -0.3882 0.529 -0.549 0.648 245 244 234 0 0
8.1877 7.6637 -0.3794 0.526 -0.548 0.651 249 251 245 0 0
0.3499 10.9864 -1.6181 -0.889 -0.248 -0.385 244 244 242 0 0
1.2961 10.1578 -1.4650 -0.444 -0.632 0.635 188 142 126 0 0
1.3136 10.1480 -1.4623 -0.445 -0.592 0.671 190 143 126 0 0
1.4344 10.1051 -1.4435 -0.380 -0.549 0.745 181 134 116 0 0
1.5521 10.1210 -1.4260 -0.444 -0.550 0.707 184 136 116 0 0
1.6736 10.0586 -1.4070 -0.262 -0.685 0.680 184 136 115 0 0
1.9124 10.0491 -1.3709 -0.288 -0.572 0.768 187 136 115 0 0
2.0499 10.0029 -1.3496 0.065 -0.673 0.737 175 127 105 0 0
2.0671 9.9951 -1.3469 -0.140 -0.718 0.682 182 132 112 0 0
2.1014 9.9709 -1.3415 -0.301 -0.585 0.753 177 129 108 0 0
2.8049 9.8378 -1.2339 -0.157 -0.640 0.752 185 133 112 0 0
3.7745 9.6829 -1.0860 -0.037 -0.708 0.706 192 137 117 0 0
3.8277 9.6814 -1.0780 -0.453 -0.649 0.612 179 125 105 0 0
4.3270 9.5625 -1.0013 -0.394 -0.565 0.725 199 154 135 0 0
4.7214 9.4634 -0.9407 -0.219 -0.786 0.578 191 143 123 0 0
4.7388 9.4605 -0.9380 -0.219 -0.786 0.578 192 144 122 0 0
4.7598 9.4725 -0.9350 0.038 -0.778 0.627 202 153 131 0 0
4.8726 9.4868 -0.9182 -0.167 -0.754 0.635 187 134 113 0 0
5.2319 9.5222 -0.8646 -0.217 -0.975 0.054 182 128 103 0 0
5.6345 9.6140 -0.8053 -0.020 -1.000 -0.008 137 84 66 0 0
5.6530 9.6126 -0.8024 0.111 -0.981 -0.158 135 84 66 0 0
6.4973 10.0181 -0.6806 0.418 -0.883 -0.213 119 70 53 0 0
6.5220 10.0301 -0.6771 0.157 -0.890 -0.429 130 81 64 0 0
6.5461 10.0402 -0.6736 0.251 -0.908 -0.335 135 88 72 0 0
6.6183 10.0700 -0.6631 -0.562 -0.800 -0.211 115 72 56 0 0
6.6351 10.0608 -0.6605 -0.416 -0.826 -0.381 112 69 53 0 0
6.8161 10.1570 -0.6345 0.558 -0.783 -0.275 149 106 90 0 0
6.8611 10.1665 -0.6278 0.528 -0.769 -0.360 137 94 78 0 0
6.8899 10.1868 -0.6237 0.475 -0.747 -0.465 140 94 79 0 0
6.9164 10.2011 -0.6199 0.598 -0.781 -0.179 144 97 81 0 0
6.9730 10.2381 -0.6119 0.541 -0.807 -0.237 129 83 67 0 0
7.0321 10.2805 -0.6036 0.614 -0.789 0.010 144 97 82 0 0
