ply
format ascii 1.0
element vertex 819
property float x
property float y
property float z
property float nx
property float ny
property float nz
property uchar diffuse_red
property uchar diffuse_green
property uchar diffuse_blue
property uchar class
property uchar detection
end_header
2.5747 11.3902 -0.3908 -0.525 -0.235 0.818 174 121 98 0 0
2.5755 11.3701 -0.3983 -0.331 -0.445 0.832 199 144 121 0 0
2.5794 11.3533 -0.4057 -0.250 -0.519 0.817 198 145 121 0 0
2.5319 11.2602 -0.4207 -0.640 0.073 0.765 195 143 121 0 0
2.5162 11.1608 -0.4502 -0.198 -0.706 0.680 191 143 125 0 0
2.5274 11.1521 -0.4575 -0.535 -0.343 0.772 188 140 121 0 0
2.5294 11.1337 -0.4649 -0.704 -0.202 0.681 184 135 118 0 0
2.5285 11.1122 -0.4722 -0.704 -0.202 0.681 188 141 123 0 0
2.5223 11.0851 -0.4795 -0.419 -0.398 0.816 185 138 120 0 0
2.5931 10.9755 -0.5457 -0.314 -0.708 0.632 180 134 115 0 0
2.5951 10.9572 -0.5530 -0.411 -0.524 0.746 174 126 108 0 0
2.5797 10.9210 -0.5599 -0.343 -0.767 0.543 196 147 129 0 0
2.5821 10.9033 -0.5672 -0.411 -0.878 0.243 196 149 130 0 0
2.9100 10.2861 -0.9128 -0.455 -0.369 0.810 190 137 119 0 0
2.9132 10.2694 -0.9200 -0.402 -0.492 0.772 180 126 108 0 0
2.9928 10.0880 -1.0151 -0.589 -0.231 0.775 185 133 119 0 0
3.0048 10.0599 -1.0297 -0.190 -0.592 0.783 174 125 110 0 0
3.0127 10.0475 -1.0372 -0.190 -0.592 0.783 184 135 119 0 0
3.0953 9.8689 -1.1325 -0.412 -0.417 0.810 180 131 110 0 0
3.1524 9.7452 -1.1985 -0.627 -0.419 0.656 179 130 114 0 0
3.1785 9.7097 -1.2211 -0.360 -0.576 0.734 194 146 129 0 0
3.1851 9.6961 -1.2285 -0.360 -0.576 0.734 178 131 115 0 0
3.2001 9.6893 -1.2367 -0.533 -0.516 0.670 181 134 119 0 0
3.2081 9.6769 -1.2442 -0.482 -0.576 0.660 177 132 117 0 0
3.2145 9.6255 -1.2649 -0.484 -0.424 0.766 193 145 129 0 0
3.2768 9.4684 -1.3448 -0.320 -0.475 0.820 184 128 108 0 0
3.2982 9.4476 -1.3604 -0.261 -0.621 0.739 167 109 90 0 0
3.3123 9.4398 -1.3686 -0.439 -0.819 0.371 172 113 94 0 0
3.3223 9.4289 -1.3763 -0.487 -0.808 0.332 148 87 66 0 0
3.3336 9.4189 -1.3842 -0.487 -0.808 0.332 171 110 87 0 0
3.3357 9.4019 -1.3911 -0.568 -0.812 0.135 169 108 87 0 0
3.3385 9.2191 -1.4573 -0.555 -0.725 0.407 162 104 85 0 0
3.3444 9.2051 -1.4645 -0.671 -0.604 0.431 153 96 77 0 0
3.3514 9.1920 -1.4719 -0.671 -0.604 0.431 168 112 92 0 0
3.1676 8.1252 -1.7818 -0.789 -0.613 0.045 231 228 221 0 0
3.1931 8.1246 -1.7918 -0.823 0.528 0.211 230 229 223 0 0
3.0961 7.9658 -1.8112 -0.585 -0.313 0.748 226 204 173 0 0
3.1115 7.7972 -1.8772 -0.384 -0.429 0.818 229 212 185 0 0
3.2954 7.5188 -2.0469 -0.221 -0.967 0.125 233 215 186 0 0
3.4364 7.3406 -2.1645 -0.309 -0.710 0.633 229 211 184 0 0
3.4459 7.3297 -2.1720 -0.309 -0.710 0.633 230 211 184 0 0
3.4581 7.3044 -2.1857 -0.421 -0.621 0.661 230 210 183 0 0
3.4631 7.2912 -2.1923 -0.436 -0.467 0.769 229 211 183 0 0
3.4667 7.2773 -2.1986 -0.436 -0.467 0.769 230 212 184 0 0
3.4675 7.2620 -2.2044 -0.475 -0.317 0.821 229 209 181 0 0
3.4706 7.2478 -2.2106 -0.443 -0.344 0.828 230 210 183 0 0
3.8616 6.4247 -2.6538 -0.648 -0.501 0.573 228 209 182 0 0
3.8650 6.4110 -2.6600 -0.633 -0.457 0.625 230 210 183 0 0
3.9556 6.1914 -2.7730 -0.629 -0.280 0.725 225 205 177 0 0
4.2762 5.6220 -3.0988 -0.060 -0.990 0.126 241 242 239 0 0
2.5528 11.4411 -0.3835 -0.377 -0.473 0.796 170 135 123 0 0
2.5568 11.4245 -0.3910 -0.468 -0.221 0.855 172 120 101 0 0
2.5543 11.4007 -0.3985 -0.468 -0.221 0.855 167 115 94 0 0
2.5519 11.3770 -0.4060 -0.468 -0.221 0.855 169 116 94 0 0
2.5388 11.3418 -0.4135 -0.426 -0.188 0.885 187 133 109 0 0
2.5332 11.3149 -0.4209 -0.406 -0.184 0.895 194 140 117 0 0
2.5205 11.2802 -0.4283 -0.430 -0.075 0.900 183 130 108 0 0
2.4993 11.0925 -0.4869 -0.560 -0.367 0.743 184 137 119 0 0
2.4993 11.0721 -0.4942 -0.502 -0.401 0.766 171 127 108 0 0
2.5052 11.0579 -0.5015 -0.421 -0.569 0.707 171 125 107 0 0
2.5115 11.0442 -0.5089 -0.421 -0.569 0.707 169 121 103 0 0
2.6874 10.6986 -0.6995 -0.457 -0.285 0.843 179 128 105 0 0
2.7774 10.5074 -0.8021 -0.280 -0.671 0.687 184 135 113 0 0
3.0723 9.8787 -1.1391 -0.412 -0.417 0.810 177 128 110 0 0
3.0753 9.8621 -1.1462 -0.412 -0.417 0.810 177 129 108 0 0
3.0992 9.8250 -1.1686 -0.248 -0.577 0.778 194 145 128 0 0
3.1984 9.6224 -1.2788 -0.554 -0.409 0.725 182 133 117 0 0
3.2063 9.5911 -1.2930 -0.204 -0.685 0.700 188 137 120 0 0
3.1955 9.5451 -1.3052 -0.439 -0.727 0.527 193 136 116 0 0
3.2996 9.3840 -1.4026 -0.570 -0.295 0.767 153 93 71 0 0
3.3223 9.3827 -1.4117 -0.473 -0.248 0.846 171 111 91 0 0
3.5696 9.0102 -1.6394 -0.305 -0.800 0.517 138 86 64 0 0
5.7481 10.2386 -2.0403 0.311 -0.942 -0.125 216 208 201 0 0
5.1192 9.7110 -1.9861 -0.235 0.139 0.962 221 214 206 0 0
3.2014 8.1548 -1.8020 -0.914 0.403 0.042 231 227 220 0 0
3.1920 8.1322 -1.8064 -0.845 0.522 0.117 230 228 222 0 0
3.1746 8.1048 -1.8095 -0.845 0.522 0.117 226 219 208 0 0
3.2673 7.5270 -2.0507 -0.452 -0.428 0.783 230 213 185 0 0
3.2805 7.5184 -2.0589 -0.234 -0.957 -0.172 232 215 187 0 0
3.7101 6.6719 -2.5252 -0.258 -0.706 0.659 227 208 179 0 0
3.7412 6.4736 -2.6077 -0.497 -0.868 -0.004 226 209 181 0 0
3.7513 6.4627 -2.6154 -0.412 -0.911 -0.020 226 209 181 0 0
3.8287 6.4638 -2.6448 -0.602 -0.684 0.411 226 211 182 0 0
3.8321 6.4351 -2.6564 -0.437 -0.607 0.664 227 209 182 0 0
3.8365 6.4218 -2.6628 -0.619 -0.261 0.741 227 207 180 0 0
3.8406 6.4084 -2.6691 -0.478 -0.504 0.720 228 208 181 0 0
3.8513 6.3676 -2.6878 -0.447 -0.415 0.793 230 211 182 0 0
3.9037 6.1940 -2.7697 -0.471 -0.676 0.566 225 205 177 0 0
3.9118 6.1822 -2.7770 -0.471 -0.676 0.566 222 202 174 0 0
2.4859 11.2544 -0.4433 -0.590 0.136 0.796 190 138 116 0 0
2.5576 10.9409 -0.5823 -0.303 -0.558 0.773 191 142 123 0 0
2.5421 10.9045 -0.5891 -0.282 -0.689 0.667 179 129 110 0 0
2.6657 10.6880 -0.7138 -0.458 -0.554 0.695 177 126 103 0 0
2.6536 10.6561 -0.7204 -0.671 -0.541 0.508 169 117 94 0 0
2.6595 10.6420 -0.7277 -0.671 -0.541 0.508 184 132 110 0 0
2.8119 10.3538 -0.8889 -0.370 -0.557 0.743 187 139 121 0 0
3.0039 9.9070 -1.1216 -0.357 -0.751 0.555 188 138 120 0 0
3.0220 9.8843 -1.1367 -0.167 -0.677 0.717 190 141 124 0 0
3.1681 9.5706 -1.3045 -0.729 -0.480 0.489 188 137 119 0 0
3.1808 9.5432 -1.3191 -0.432 -0.699 0.571 162 105 85 0 0
3.2553 9.4339 -1.3867 -0.148 -0.590 0.794 145 91 70 0 0
5.7379 10.2431 -2.0584 0.356 -0.934 -0.028 216 207 200 0 0
5.0847 9.6779 -2.0067 -0.305 0.105 0.947 221 214 206 0 0
3.1504 8.1476 -1.8027 -0.189 -0.173 0.967 231 226 220 0 0
3.1980 8.1443 -1.8223 -0.843 0.538 0.012 231 227 222 0 0
3.1802 8.1166 -1.8253 -0.843 0.538 0.012 231 224 214 0 0
3.1625 8.0889 -1.8282 -0.818 0.566 0.100 186 163 138 0 0
3.1102 7.7323 -1.9347 -0.342 -0.677 0.652 232 212 185 0 0
3.1591 7.6967 -1.9661 -0.362 -0.574 0.735 230 213 185 0 0
3.6933 6.5060 -2.5951 -0.964 -0.267 -0.011 231 212 184 0 0
3.7409 6.5105 -2.6119 -0.356 -0.683 0.638 231 213 185 0 0
3.7393 6.4949 -2.6169 -0.382 -0.685 0.620 231 215 186 0 0
3.7652 6.4754 -2.6338 -0.437 -0.793 -0.425 227 208 181 0 0
3.7889 6.4699 -2.6449 -0.282 -0.959 -0.037 226 209 181 0 0
3.8227 6.4684 -2.6585 -0.921 -0.230 -0.316 227 211 183 0 0
3.8789 6.2065 -2.7731 -0.328 -0.672 0.664 228 208 181 0 0
3.8855 6.1941 -2.7801 -0.384 -0.725 0.572 227 208 178 0 0
3.9192 6.1474 -2.8097 -0.467 -0.398 0.789 228 208 179 0 0
2.4475 11.2242 -0.4581 -0.536 0.023 0.844 199 147 125 0 0
2.6391 10.6526 -0.7349 -0.595 -0.496 0.632 182 130 108 0 0
2.6452 10.6388 -0.7422 -0.466 -0.492 0.735 174 122 100 0 0
2.6464 10.6202 -0.7492 -0.322 -0.650 0.688 185 133 112 0 0
2.6636 10.5973 -0.7640 -0.239 -0.625 0.743 178 127 106 0 0
2.7057 10.5393 -0.8009 -0.518 -0.425 0.742 171 125 105 0 0
2.7059 10.5196 -0.8079 -0.438 -0.429 0.790 191 144 124 0 0
2.7086 10.5025 -0.8150 -0.434 -0.303 0.848 172 125 105 0 0
3.1622 9.6131 -1.3060 -0.383 -0.481 0.789 186 138 122 0 0
3.1599 9.5551 -1.3257 -0.528 -0.763 0.373 181 123 103 0 0
3.1682 9.5430 -1.3332 -0.752 -0.450 0.481 175 118 98 0 0
3.1764 9.5308 -1.3406 -0.511 -0.303 0.804 202 145 125 0 0
3.3262 9.2385 -1.5023 -0.394 -0.487 0.780 182 132 111 0 0
3.3553 9.1135 -1.5579 -0.286 -0.539 0.792 185 133 111 0 0
3.3728 9.1080 -1.5666 -0.234 -0.487 0.842 190 138 116 0 0
3.3783 9.0938 -1.5738 -0.219 -0.570 0.792 182 130 109 0 0
5.7176 10.2408 -2.0749 0.370 -0.928 0.041 214 206 199 0 0
4.9984 9.5900 -2.0264 -0.195 0.079 0.978 223 216 208 0 0
3.1273 8.1414 -1.8138 -0.242 -0.380 0.893 230 227 220 0 0
3.2052 8.1572 -1.8384 -0.850 0.522 -0.076 233 227 222 0 0
3.1889 8.1303 -1.8416 -0.833 0.551 -0.052 232 227 217 0 0
3.1692 8.1014 -1.8442 -0.833 0.552 -0.035 180 160 136 0 0
3.1509 8.0735 -1.8470 -0.832 0.553 -0.026 201 169 137 0 0
3.1313 8.0448 -1.8495 -0.826 0.561 -0.049 214 185 151 0 0
3.0634 7.7606 -1.9238 -0.526 -0.652 0.547 233 213 186 0 0
3.1422 7.6949 -1.9777 -0.316 -0.684 0.657 226 209 181 0 0
3.1535 7.6535 -1.9967 -0.595 -0.158 0.788 227 210 182 0 0
3.1400 7.6141 -2.0055 -0.614 -0.163 0.772 229 209 182 0 0
3.5917 6.8324 -2.4575 -0.336 -0.459 0.822 228 209 179 0 0
3.6941 6.5134 -2.6102 -0.564 -0.531 0.632 228 209 179 0 0
3.6979 6.5000 -2.6165 -0.443 -0.851 0.283 227 207 178 0 0
3.7091 6.4896 -2.6245 -0.462 -0.567 0.681 228 208 179 0 0
3.7305 6.4833 -2.6350 -0.382 -0.685 0.620 228 207 178 0 0
3.7380 6.4714 -2.6422 -0.312 -0.944 0.111 228 207 178 0 0
3.7921 6.4632 -2.6660 -0.526 -0.821 0.222 230 210 180 0 0
3.8581 6.2056 -2.7829 -0.288 -0.701 0.652 225 205 177 0 0
4.3118 5.6229 -3.1653 0.001 -0.956 -0.295 243 242 244 0 0
2.4984 11.4165 -0.4290 -0.241 -0.493 0.836 166 115 96 0 0
2.5027 11.4003 -0.4364 -0.301 -0.467 0.831 172 120 99 0 0
2.3820 11.1236 -0.4872 -0.581 0.061 0.812 191 139 118 0 0
2.5595 10.7835 -0.6765 -0.556 -0.523 0.645 174 123 102 0 0
2.5736 10.7179 -0.7052 -0.505 -0.316 0.803 172 121 102 0 0
2.6275 10.6521 -0.7494 -0.862 -0.333 0.383 176 124 104 0 0
2.6349 10.6395 -0.7568 -0.712 -0.297 0.636 181 128 106 0 0
2.6363 10.6210 -0.7638 -0.712 -0.297 0.636 179 127 105 0 0
2.6387 10.6036 -0.7709 -0.515 -0.442 0.734 176 124 103 0 0
2.6439 10.5889 -0.7782 -0.403 -0.435 0.805 186 136 113 0 0
2.6828 10.5278 -0.8149 -0.603 -0.404 0.688 184 136 116 0 0
2.6855 10.5107 -0.8220 -0.539 -0.454 0.709 185 137 117 0 0
2.9246 9.9925 -1.0983 -0.583 -0.308 0.752 187 133 114 0 0
2.9268 9.9753 -1.1052 -0.486 -0.490 0.724 189 134 114 0 0
2.9654 9.8943 -1.1489 -0.440 -0.235 0.867 189 139 122 0 0
3.1319 9.5986 -1.3183 -0.422 -0.273 0.865 182 133 118 0 0
3.1372 9.5841 -1.3254 -0.495 -0.132 0.859 183 134 116 0 0
3.2584 9.3628 -1.4508 -0.424 -0.381 0.822 137 85 64 0 0
3.2604 9.3459 -1.4576 -0.424 -0.381 0.822 141 83 61 0 0
3.2626 9.3291 -1.4644 -0.634 -0.350 0.690 170 109 88 0 0
3.2646 9.3122 -1.4712 -0.510 -0.264 0.819 176 115 94 0 0
3.3114 9.1637 -1.5419 -0.458 -0.305 0.835 179 128 107 0 0
3.3227 9.0991 -1.5691 -0.316 -0.567 0.761 190 138 116 0 0
3.3685 9.0960 -1.5880 -0.315 -0.418 0.852 198 147 126 0 0
3.8792 9.0671 -1.7972 -0.942 -0.330 0.067 121 74 58 0 0
5.1987 9.7324 -2.0760 -0.846 -0.351 0.401 223 216 208 0 0
3.1885 8.1384 -1.8564 -0.696 0.124 -0.707 233 228 219 0 0
3.1845 8.1193 -1.8616 -0.801 0.594 -0.072 183 163 141 0 0
3.1621 8.0888 -1.8637 -0.798 0.599 -0.070 194 161 128 0 0
3.1392 8.0580 -1.8656 -0.798 0.599 -0.070 215 183 149 0 0
3.0430 7.8043 -1.9178 -0.694 -0.117 0.710 230 213 186 0 0
3.1349 7.6507 -2.0079 -0.463 -0.257 0.848 230 213 185 0 0
3.1318 7.6331 -2.0129 -0.557 -0.401 0.727 227 210 182 0 0
3.1338 7.6183 -2.0189 -0.538 -0.433 0.723 230 213 185 0 0
3.5502 6.8514 -2.4522 -0.303 -0.522 0.797 229 210 182 0 0
3.6737 6.5270 -2.6149 -0.564 -0.682 0.465 226 207 179 0 0
3.6890 6.5183 -2.6239 -0.539 -0.362 0.761 226 207 179 0 0
3.6881 6.5030 -2.6290 -0.475 -0.667 0.574 232 212 182 0 0
2.4807 11.3877 -0.4514 -0.301 -0.467 0.831 174 121 99 0 0
2.4445 11.3269 -0.4587 -0.559 -0.097 0.823 187 134 112 0 0
2.4105 11.2069 -0.4877 -0.462 -0.057 0.885 201 151 127 0 0
2.3956 11.1702 -0.4948 -0.525 -0.038 0.851 192 142 119 0 0
2.3869 11.1402 -0.5020 -0.435 -0.289 0.853 176 124 103 0 0
2.5487 10.7037 -0.7192 -0.757 -0.050 0.652 186 134 114 0 0
2.6207 10.5967 -0.7852 -0.375 -0.410 0.831 184 131 109 0 0
2.6292 10.5654 -0.7995 -0.430 -0.430 0.794 193 142 121 0 0
2.8644 10.0647 -1.0681 -0.393 -0.526 0.755 179 131 113 0 0
2.8983 9.9797 -1.1113 -0.348 -0.545 0.763 182 126 109 0 0
2.9104 9.9712 -1.1191 -0.486 -0.490 0.724 175 122 99 0 0
2.9430 9.8852 -1.1622 -0.657 -0.204 0.726 197 148 131 0 0
2.9595 9.8614 -1.1770 -0.317 -0.484 0.816 192 144 128 0 0
2.9871 9.8279 -1.1996 -0.276 -0.548 0.790 188 137 118 0 0
3.2897 9.1936 -1.5417 -0.469 -0.215 0.857 145 92 71 0 0
3.3187 9.1238 -1.5776 -0.382 -0.724 0.574 192 138 117 0 0
3.3456 9.0888 -1.6005 -0.420 -0.350 0.837 184 132 111 0 0
3.8776 9.0756 -1.8132 -0.992 -0.105 -0.065 118 71 57 0 0
5.2371 9.7684 -2.1006 -0.365 -0.194 0.911 222 215 207 0 0
3.2112 8.1610 -1.8751 -0.647 0.100 -0.756 233 228 220 0 0
3.2154 8.1470 -1.8817 -0.750 0.620 -0.230 184 166 144 0 0
3.1807 8.1087 -1.8817 -0.736 0.663 -0.136 190 157 124 0 0
3.1095 7.6282 -2.0233 -0.305 -0.487 0.818 227 209 182 0 0
3.2171 7.4987 -2.1110 -0.325 -0.701 0.635 230 213 185 0 0
3.2772 7.2958 -2.2061 -0.319 -0.515 0.795 231 211 185 0 0
3.3325 7.2311 -2.2506 -0.245 -0.609 0.755 230 213 185 0 0
3.4216 7.0589 -2.3461 -0.417 -0.626 0.659 233 216 188 0 0
3.5290 6.8337 -2.4675 -0.318 -0.713 0.625 228 208 181 0 0
3.6321 6.6067 -2.5880 -0.491 -0.603 0.629 227 207 178 0 0
3.6591 6.5130 -2.6316 -0.554 -0.672 0.491 226 206 179 0 0
3.6759 6.4900 -2.6462 -0.492 -0.421 0.762 228 210 181 0 0
3.9069 5.8860 -2.9496 -0.496 -0.806 0.322 224 205 177 0 0
3.9238 5.8772 -2.9593 -0.472 -0.725 0.502 220 201 173 0 0
3.9330 5.8658 -2.9669 -0.423 -0.766 0.485 224 204 176 0 0
2.4462 11.5295 -0.4071 -0.894 -0.446 0.025 244 243 241 0 0
2.3570 11.4083 -0.4148 -0.957 -0.149 0.249 244 243 241 0 0
2.3884 10.9299 -0.5955 -0.457 -0.877 0.151 181 135 119 0 0
2.4008 10.9228 -0.6028 -0.406 -0.813 0.417 180 134 116 0 0
2.5731 10.6397 -0.7701 -0.373 -0.646 0.666 179 131 110 0 0
2.5810 10.6277 -0.7774 -0.373 -0.646 0.666 182 130 109 0 0
2.5888 10.6156 -0.7848 -0.276 -0.604 0.748 164 107 85 0 0
2.7799 10.1720 -1.0159 -0.248 -0.570 0.783 190 138 117 0 0
2.8790 9.9730 -1.1249 -0.348 -0.545 0.763 151 95 75 0 0
2.9254 9.8802 -1.1758 -0.582 -0.159 0.798 178 131 115 0 0
3.2198 9.2239 -1.5224 -0.381 -0.494 0.782 167 112 92 0 0
3.3008 9.1200 -1.5907 -0.493 -0.733 0.470 157 101 81 0 0
3.8777 9.0851 -1.8296 -0.992 -0.105 -0.065 118 73 60 0 0
5.2171 9.7659 -2.1161 -0.434 -0.182 0.882 222 216 207 0 0
3.7197 8.7039 -1.9017 0.308 -0.937 0.165 224 220 211 0 0
3.2318 8.1824 -1.8936 -0.681 0.156 -0.716 233 229 222 0 0
3.2388 8.1700 -1.9007 -0.737 0.650 -0.185 185 170 148 0 0
3.1869 8.1208 -1.8976 -0.697 0.716 -0.025 190 157 125 0 0
3.0942 7.5956 -2.0461 -0.478 -0.362 0.800 225 208 180 0 0
3.1837 7.5039 -2.1135 -0.548 -0.336 0.766 228 209 182 0 0
3.3052 7.2246 -2.2595 -0.295 -0.591 0.751 231 214 186 0 0
3.3392 7.1490 -2.2995 -0.585 -0.295 0.756 229 212 184 0 0
3.4034 7.0420 -2.3623 -0.391 -0.503 0.771 227 211 183 0 0
3.6000 6.6301 -2.5845 -0.567 -0.339 0.750 227 208 178 0 0
3.5985 6.6145 -2.5894 -0.326 -0.688 0.648 228 209 179 0 0
3.6074 6.6033 -2.5969 -0.326 -0.688 0.648 229 209 182 0 0
3.6664 6.4931 -2.6588 -0.445 -0.577 0.685 231 211 184 0 0
3.7641 6.2351 -2.7879 -0.243 -0.806 0.539 228 208 181 0 0
3.8392 6.1015 -2.8645 -0.385 -0.445 0.809 224 205 175 0 0
3.8914 5.8873 -2.9603 -0.441 -0.678 0.587 222 205 177 0 0
3.8949 5.8741 -2.9664 -0.554 -0.532 0.640 223 206 178 0 0
2.4421 11.5368 -0.4222 -0.894 -0.446 0.025 243 242 240 0 0
2.3522 11.4147 -0.4297 -0.978 -0.166 0.127 242 241 239 0 0
2.3580 11.4003 -0.4370 -0.215 -0.712 0.668 243 242 239 0 0
2.3612 11.3830 -0.4443 -0.113 -0.776 0.621 244 242 239 0 0
2.3783 11.3812 -0.4517 -0.075 -0.755 0.652 234 224 218 0 0
2.3779 10.9299 -0.6100 -0.490 -0.871 0.040 176 130 114 0 0
2.3824 10.9145 -0.6172 -0.454 -0.734 0.505 177 130 113 0 0
2.3911 10.9036 -0.6245 -0.437 -0.735 0.518 169 122 101 0 0
2.4145 10.8679 -0.6462 -0.345 -0.556 0.756 174 126 104 0 0
2.4302 10.8242 -0.6678 -0.575 -0.183 0.798 189 137 116 0 0
2.4296 10.8035 -0.6748 -0.303 -0.440 0.845 190 139 118 0 0
2.4944 10.7703 -0.7120 -0.161 -0.835 0.526 207 161 140 0 0
2.5012 10.7573 -0.7193 -0.182 -0.835 0.519 190 141 119 0 0
2.4924 10.7284 -0.7259 -0.280 -0.710 0.646 171 120 99 0 0
2.5018 10.7180 -0.7333 -0.280 -0.710 0.646 142 91 69 0 0
2.5099 10.7063 -0.7406 -0.296 -0.670 0.681 168 117 95 0 0
2.6364 10.3976 -0.8989 -0.516 -0.428 0.742 172 122 100 0 0
2.6962 10.2985 -0.9573 -0.447 -0.501 0.741 199 150 133 0 0
2.7194 10.2814 -0.9724 -0.320 -0.469 0.823 186 138 119 0 0
2.7710 10.1166 -1.0507 -0.380 -0.539 0.751 179 128 107 0 0
2.7782 10.1039 -1.0579 -0.430 -0.548 0.717 180 129 108 0 0
2.7953 10.1001 -1.0660 -0.346 -0.588 0.731 180 128 109 0 0
2.8862 9.9323 -1.1608 -0.385 -0.541 0.748 188 137 119 0 0
3.1445 9.3408 -1.4703 -0.255 -0.653 0.713 160 105 84 0 0
3.1785 9.2570 -1.5132 -0.509 -0.355 0.785 168 113 93 0 0
3.1805 9.2403 -1.5199 -0.356 -0.507 0.785 176 122 101 0 0
3.2004 9.2188 -1.5353 -0.384 -0.522 0.761 187 132 112 0 0
3.2866 9.1190 -1.6043 -0.378 -0.721 0.581 205 153 132 0 0
3.8848 9.0995 -1.8470 -0.907 -0.354 -0.229 111 68 54 0 0
3.8917 9.0855 -1.8547 -0.826 -0.224 -0.517 128 100 89 0 0
5.1910 9.7593 -2.1305 -0.399 -0.417 0.817 222 215 207 0 0
3.2579 8.2072 -1.9131 -0.695 0.182 -0.696 233 229 222 0 0
3.2532 8.1875 -1.9182 -0.665 0.743 0.074 191 177 155 0 0
3.1909 8.1317 -1.9132 -0.649 0.745 0.153 188 157 124 0 0
2.9224 7.8672 -1.9002 -0.787 0.047 0.615 224 203 171 0 0
3.0710 7.6059 -2.0506 -0.343 -0.804 0.486 223 206 177 0 0
3.0782 7.5943 -2.0575 -0.543 -0.601 0.587 226 209 181 0 0
3.2242 7.2987 -2.2189 -0.313 -0.729 0.608 234 217 191 0 0
3.2816 7.2355 -2.2637 -0.239 -0.628 0.741 231 214 186 0 0
3.3161 7.1295 -2.3146 -0.154 -0.890 0.429 229 211 183 0 0
3.6445 6.4911 -2.6682 -0.561 -0.330 0.759 223 203 176 0 0
3.7076 6.2940 -2.7624 -0.306 -0.901 0.308 229 210 184 0 0
3.8813 5.9194 -2.9624 -0.360 -0.560 0.746 224 207 179 0 0
3.8783 5.8752 -2.9768 -0.488 -0.714 0.503 226 209 181 0 0
2.3251 11.3959 -0.4445 -0.579 -0.778 0.243 242 241 239 0 0
2.3514 11.4045 -0.4519 -0.472 -0.401 0.785 243 241 238 0 0
2.3542 11.3869 -0.4592 -0.472 -0.401 0.785 246 242 238 0 0
2.3567 11.3687 -0.4665 -0.256 -0.557 0.790 226 213 205 0 0
2.3464 11.2124 -0.5172 -0.358 -0.092 0.929 190 141 118 0 0
2.3255 11.1690 -0.5242 -0.436 -0.066 0.897 185 134 110 0 0
2.3161 11.1382 -0.5312 -0.349 -0.176 0.921 190 138 115 0 0
2.2985 11.0176 -0.5665 -0.486 -0.317 0.815 191 140 119 0 0
2.3594 10.9014 -0.6314 -0.410 -0.649 0.640 189 142 124 0 0
2.3682 10.8906 -0.6386 -0.360 -0.586 0.726 194 146 126 0 0
2.3748 10.8775 -0.6458 -0.360 -0.586 0.726 197 149 129 0 0
2.3933 10.8568 -0.6604 -0.257 -0.581 0.772 193 145 124 0 0
2.4096 10.8138 -0.6819 -0.344 -0.379 0.859 190 138 117 0 0
2.4149 10.7994 -0.6891 -0.478 -0.324 0.817 194 142 121 0 0
2.4848 10.7117 -0.7475 -0.280 -0.710 0.646 182 131 110 0 0
2.5635 10.5925 -0.8204 -0.183 -0.719 0.671 174 120 98 0 0
2.6108 10.4226 -0.8987 -0.479 -0.397 0.783 184 131 111 0 0
2.6130 10.4052 -0.9056 -0.398 -0.410 0.821 200 147 126 0 0
2.7669 10.0849 -1.0789 -0.342 -0.600 0.723 177 123 104 0 0
2.7770 10.0747 -1.0864 -0.383 -0.643 0.663 162 105 87 0 0
2.7956 10.0151 -1.1147 -0.507 -0.749 0.427 195 142 123 0 0
2.8051 10.0044 -1.1222 -0.595 -0.626 0.505 189 139 121 0 0
2.8851 9.8279 -1.2157 -0.452 -0.619 0.643 179 129 112 0 0
3.0557 9.4835 -1.4039 -0.403 -0.571 0.715 195 136 113 0 0
3.1007 9.3716 -1.4610 -0.399 -0.563 0.724 172 119 98 0 0
3.1322 9.3226 -1.4906 -0.370 -0.432 0.822 170 117 96 0 0
3.1309 9.3032 -1.4969 -0.328 -0.525 0.786 181 128 107 0 0
3.1609 9.2531 -1.5263 -0.518 -0.365 0.774 219 166 146 0 0
3.2709 9.0987 -1.6240 -0.371 -0.792 0.485 199 148 127 0 0
3.2710 9.0806 -1.6303 -0.474 -0.358 0.804 187 136 115 0 0
3.8901 9.1128 -1.8643 -0.883 -0.277 -0.378 111 69 54 0 0
3.9010 9.1014 -1.8725 -0.648 -0.346 -0.679 121 92 80 0 0
3.2907 8.2364 -1.9340 -0.791 0.348 -0.504 233 229 223 0 0
3.2755 8.2100 -1.9372 -0.646 0.749 0.150 195 181 160 0 0
3.2065 8.1499 -1.9310 -0.623 0.744 0.241 185 154 123 0 0
3.1373 8.0899 -1.9246 -0.596 0.737 0.319 183 150 113 0 0
2.9178 7.8404 -1.9250 -0.419 -0.444 0.792 225 202 172 0 0
3.1947 7.3062 -2.2219 -0.355 -0.631 0.690 229 212 185 0 0
3.3053 7.1161 -2.3323 -0.221 -0.621 0.752 229 209 182 0 0
3.5288 6.6586 -2.5811 -0.460 -0.488 0.742 229 212 185 0 0
3.5611 6.6276 -2.6048 -0.295 -0.568 0.768 232 213 184 0 0
2.3250 11.4075 -0.4594 -0.639 -0.515 0.571 243 242 240 0 0
2.3306 11.3929 -0.4667 -0.594 -0.450 0.667 244 242 238 0 0
2.3308 11.3723 -0.4740 -0.544 -0.438 0.716 228 223 218 0 0
2.3451 11.3674 -0.4814 -0.485 -0.327 0.811 210 192 183 0 0
2.3461 11.3478 -0.4887 -0.485 -0.327 0.811 228 191 179 0 0
2.2954 11.1474 -0.5385 -0.439 -0.007 0.899 192 140 118 0 0
2.2889 11.1198 -0.5456 -0.306 -0.170 0.937 200 148 126 0 0
2.2763 11.0048 -0.5808 -0.642 -0.111 0.759 187 137 118 0 0
2.3597 10.8928 -0.6532 -0.467 -0.404 0.787 187 140 122 0 0
2.3608 10.8739 -0.6602 -0.519 -0.291 0.804 179 132 114 0 0
2.3652 10.8585 -0.6673 -0.415 -0.426 0.804 186 139 121 0 0
2.3723 10.8459 -0.6745 -0.304 -0.602 0.738 187 139 120 0 0
2.3742 10.8279 -0.6816 -0.404 -0.522 0.751 178 129 108 0 0
2.3860 10.8202 -0.6890 -0.252 -0.439 0.862 185 134 113 0 0
2.4597 10.7170 -0.7544 -0.473 -0.739 0.480 148 96 75 0 0
2.4701 10.7077 -0.7618 -0.351 -0.654 0.670 150 98 77 0 0
2.4705 10.6882 -0.7687 -0.280 -0.587 0.760 180 129 108 0 0
2.8708 9.8444 -1.2229 -0.828 -0.434 0.354 195 147 130 0 0
2.8778 9.8316 -1.2302 -0.668 -0.609 0.427 180 132 112 0 0
2.9637 9.6414 -1.3308 -0.461 -0.690 0.558 179 131 114 0 0
3.0763 9.3804 -1.4668 -0.391 -0.661 0.641 193 140 120 0 0
3.0863 9.3515 -1.4809 -0.329 -0.493 0.805 186 133 112 0 0
3.0985 9.3427 -1.4889 -0.543 -0.503 0.673 179 126 105 0 0
3.1050 9.3111 -1.5025 -0.488 -0.663 0.568 159 106 87 0 0
3.1020 9.2905 -1.5085 -0.393 -0.656 0.644 135 83 64 0 0
3.1282 9.2924 -1.5183 -0.402 -0.899 0.175 189 137 116 0 0
3.2524 9.0763 -1.6432 -0.600 -0.247 0.761 181 130 108 0 0
3.8903 9.1225 -1.8807 -0.842 -0.410 -0.351 113 71 55 0 0
3.9093 9.1167 -1.8903 -0.564 -0.451 -0.692 119 86 75 0 0
5.2715 9.8555 -2.1736 -0.251 -0.250 0.935 221 214 206 0 0
5.8055 10.1887 -2.2694 0.117 -0.909 0.400 221 214 206 0 0
3.6377 8.6774 -1.9359 0.273 -0.951 0.145 224 218 212 0 0
3.6701 8.6807 -1.9476 0.264 -0.956 0.128 225 220 214 0 0
3.2731 8.2507 -1.9401 -0.381 -0.580 -0.721 232 227 220 0 0
3.2971 8.2490 -1.9502 -0.742 -0.091 -0.664 232 228 222 0 0
3.3121 8.2415 -1.9588 -0.576 0.752 0.321 199 186 166 0 0
3.2225 8.1683 -1.9488 -0.567 0.748 0.346 187 157 127 0 0
3.1464 8.1039 -1.9411 -0.577 0.739 0.348 185 153 117 0 0
2.9039 7.8718 -1.9257 -0.794 0.266 0.547 222 197 162 0 0
2.8931 7.8492 -1.9294 -0.760 0.258 0.596 225 202 168 0 0
3.4782 6.6886 -2.5678 -0.295 -0.565 0.771 228 210 183 0 0
3.4984 6.6674 -2.5832 -0.349 -0.553 0.757 226 209 183 0 0
3.5915 6.4833 -2.6846 -0.507 -0.362 0.782 229 209 182 0 0
3.6278 6.3207 -2.7559 -0.502 -0.448 0.740 226 209 181 0 0
2.3131 11.4058 -0.4742 -0.639 -0.515 0.571 243 242 241 0 0
2.3184 11.3909 -0.4815 -0.674 -0.338 0.657 244 240 237 0 0
2.3217 11.3738 -0.4888 -0.608 -0.465 0.644 225 218 212 0 0
2.3260 11.3577 -0.4961 -0.577 -0.354 0.736 209 183 173 0 0
2.3333 11.3451 -0.5034 -0.526 -0.195 0.828 185 145 129 0 0
2.3295 11.3201 -0.5107 -0.552 -0.194 0.811 186 140 119 0 0
2.3301 11.3000 -0.5179 -0.456 -0.244 0.856 189 142 120 0 0
2.2756 11.1370 -0.5530 -0.511 -0.018 0.860 190 138 116 0 0
2.2519 11.0907 -0.5597 -0.377 -0.323 0.868 180 128 107 0 0
2.2545 11.0733 -0.5668 -0.300 -0.386 0.872 186 136 118 0 0
2.2544 11.0529 -0.5739 -0.105 -0.797 0.595 172 125 107 0 0
2.2627 11.0417 -0.5811 -0.198 -0.598 0.777 188 140 120 0 0
2.2696 11.0290 -0.5883 -0.247 -0.573 0.781 188 138 118 0 0
2.3382 10.8811 -0.6673 -0.503 -0.337 0.796 184 137 119 0 0
2.3431 10.8663 -0.6744 -0.519 -0.291 0.804 182 136 119 0 0
2.3461 10.8494 -0.6815 -0.406 -0.442 0.800 197 151 134 0 0
2.3497 10.8333 -0.6886 -0.406 -0.442 0.800 179 132 114 0 0
2.4354 10.7031 -0.7682 -0.305 -0.502 0.809 156 105 84 0 0
2.4383 10.6863 -0.7752 -0.379 -0.440 0.814 176 124 103 0 0
2.4555 10.6246 -0.8036 -0.345 -0.508 0.789 186 138 118 0 0
2.5209 10.4933 -0.8755 -0.475 -0.519 0.711 188 136 115 0 0
2.5321 10.4652 -0.8898 -0.356 -0.510 0.783 166 118 98 0 0
2.5542 10.4281 -0.9115 -0.270 -0.521 0.810 181 133 113 0 0
2.6647 10.1846 -1.0406 -0.497 -0.360 0.789 196 145 125 0 0
2.8297 9.8567 -1.2209 -0.271 -0.600 0.753 188 137 121 0 0
2.8847 9.7910 -1.2658 -0.523 -0.409 0.747 177 123 104 0 0
2.8805 9.7499 -1.2784 -0.411 -0.687 0.599 190 139 126 0 0
2.8881 9.7376 -1.2858 -0.258 -0.772 0.581 185 137 124 0 0
2.9281 9.6590 -1.3291 -0.467 -0.240 0.851 161 112 95 0 0
2.9277 9.6401 -1.3356 -0.387 -0.278 0.879 168 117 99 0 0
2.9363 9.5729 -1.3625 -0.433 -0.595 0.677 193 145 125 0 0
3.0615 9.3600 -1.4867 -0.433 -0.413 0.801 185 129 109 0 0
3.0668 9.3458 -1.4938 -0.359 -0.527 0.770 182 127 104 0 0
3.0822 9.3396 -1.5021 -0.575 -0.387 0.721 189 133 111 0 0
3.0858 9.3240 -1.5090 -0.338 -0.585 0.737 190 134 114 0 0
3.0955 9.3133 -1.5166 -0.522 -0.534 0.666 168 114 93 0 0
3.0962 9.2955 -1.5231 -0.408 -0.436 0.802 187 133 113 0 0
3.9116 9.1657 -1.8940 -0.909 -0.362 0.207 136 93 76 0 0
3.9028 9.1407 -1.8991 -0.278 -0.808 -0.520 114 72 56 0 0
3.9252 9.1372 -1.9093 -0.303 -0.712 -0.633 115 82 70 0 0
5.7976 10.1949 -2.2879 0.139 -0.858 0.494 222 215 207 0 0
5.7308 10.1282 -2.2845 -0.106 -0.953 0.284 222 215 207 0 0
3.2967 8.2742 -1.9594 -0.410 -0.705 -0.578 232 226 219 0 0
3.4043 8.3253 -1.9845 -0.612 0.733 0.298 232 227 222 0 0
3.3224 8.2565 -1.9759 -0.573 0.755 0.320 201 189 170 0 0
3.2279 8.1801 -1.9648 -0.573 0.755 0.320 188 159 129 0 0
3.1544 8.1172 -1.9574 -0.584 0.747 0.318 190 158 123 0 0
3.1046 7.3352 -2.2103 -0.394 -0.669 0.630 230 213 185 0 0
3.1372 7.3063 -2.2334 -0.352 -0.713 0.607 233 214 188 0 0
3.4106 6.7705 -2.5295 -0.311 -0.737 0.601 232 215 187 0 0
3.5493 6.5172 -2.6732 -0.323 -0.698 0.639 235 215 188 0 0
2.2900 11.3913 -0.4889 -0.137 -0.864 0.485 242 242 240 0 0
2.3011 11.3830 -0.4963 -0.335 -0.703 0.628 243 242 238 0 0
2.3099 11.3721 -0.5036 -0.561 -0.370 0.740 218 205 199 0 0
2.3109 11.3524 -0.5109 -0.619 -0.261 0.741 183 146 135 0 0
2.3085 11.2875 -0.5325 -0.572 -0.168 0.803 181 131 107 0 0
2.3076 11.2659 -0.5397 -0.474 -0.253 0.843 191 142 118 0 0
2.2493 11.1398 -0.5602 -0.558 0.106 0.823 181 128 106 0 0
2.2276 11.0956 -0.5669 -0.503 -0.243 0.829 173 119 99 0 0
2.2265 11.0741 -0.5739 -0.503 -0.243 0.829 188 135 116 0 0
2.2260 11.0533 -0.5809 -0.191 -0.713 0.675 143 93 74 0 0
2.2304 11.0380 -0.5881 -0.307 -0.627 0.716 171 123 103 0 0
2.2376 11.0257 -0.5953 -0.383 -0.519 0.764 177 127 106 0 0
2.2429 11.0112 -0.6024 -0.383 -0.519 0.764 186 135 116 0 0
2.2485 10.9971 -0.6095 -0.510 -0.419 0.751 188 141 124 0 0
2.3183 10.8512 -0.6883 -0.340 -0.430 0.836 177 129 113 0 0
2.3252 10.8385 -0.6955 -0.353 -0.467 0.811 202 154 138 0 0
2.3312 10.8249 -0.7027 -0.415 -0.426 0.804 191 143 128 0 0
2.3746 10.7309 -0.7528 -0.405 -0.644 0.649 178 126 105 0 0
2.3816 10.7183 -0.7600 -0.514 -0.588 0.624 171 119 99 0 0
2.3863 10.7034 -0.7670 -0.341 -0.812 0.474 190 140 121 0 0
2.5035 10.5064 -0.8826 -0.534 -0.626 0.568 173 125 105 0 0
2.5052 10.4885 -0.8895 -0.475 -0.519 0.711 162 114 95 0 0
2.5113 10.4750 -0.8966 -0.439 -0.507 0.742 192 145 127 0 0
2.5132 10.4573 -0.9036 -0.356 -0.510 0.783 196 151 132 0 0
2.5532 10.3213 -0.9669 -0.490 -0.451 0.746 182 135 117 0 0
2.6386 10.2091 -1.0402 -0.417 -0.231 0.879 192 143 123 0 0
2.7403 9.9773 -1.1617 -0.237 -0.769 0.594 164 111 90 0 0
2.7402 9.9583 -1.1683 -0.489 -0.427 0.761 178 122 102 0 0
2.8538 9.8122 -1.2647 -0.599 -0.526 0.604 174 126 106 0 0
2.8591 9.7417 -1.2914 -0.301 -0.532 0.791 179 129 115 0 0
2.8968 9.6801 -1.3279 -0.252 -0.517 0.818 156 100 83 0 0
2.9024 9.6661 -1.3350 -0.252 -0.517 0.818 172 114 97 0 0
2.9109 9.6546 -1.3424 -0.503 -0.213 0.838 167 113 94 0 0
2.9091 9.5788 -1.3681 -0.647 -0.503 0.573 182 133 116 0 0
2.9201 9.5694 -1.3758 -0.470 -0.570 0.674 173 124 107 0 0
2.9835 9.4364 -1.4475 -0.477 -0.486 0.732 181 128 107 0 0
3.1530 9.1120 -1.6284 -0.420 -0.870 0.259 174 123 101 0 0
3.2749 8.9311 -1.7402 -0.336 -0.704 0.625 175 121 100 0 0
3.9134 9.1765 -1.9107 -0.770 -0.578 -0.271 136 92 76 0 0
3.9328 9.1520 -1.9270 -0.247 -0.757 -0.604 121 87 74 0 0
5.3625 10.0679 -2.1814 0.429 -0.808 0.403 215 208 200 0 0
5.7089 10.1249 -2.3004 0.168 -0.838 0.518 222 215 207 0 0
3.3037 8.2872 -1.9759 -0.426 -0.608 -0.670 231 227 220 0 0
3.4129 8.3394 -2.0015 -0.612 0.733 0.298 232 226 221 0 0
3.3344 8.2726 -1.9933 -0.585 0.753 0.301 204 194 179 0 0
3.2378 8.1947 -1.9817 -0.573 0.755 0.320 187 159 129 0 0
3.1593 8.1286 -1.9732 -0.591 0.759 0.274 189 156 120 0 0
3.0767 8.0603 -1.9639 -0.595 0.757 0.271 178 146 108 0 0
3.0140 7.5259 -2.1248 -0.248 -0.551 0.797 231 214 186 0 0
3.1149 7.3019 -2.2432 -0.406 -0.722 0.560 226 209 182 0 0
3.1289 7.2939 -2.2516 -0.295 -0.855 0.426 230 213 185 0 0
3.3539 6.8419 -2.4991 -0.347 -0.770 0.535 227 208 181 0 0
3.3646 6.8318 -2.5069 -0.450 -0.654 0.608 232 213 183 0 0
3.7136 6.0462 -2.9203 -0.552 -0.247 0.797 228 209 179 0 0
2.2943 11.3662 -0.5183 -0.561 -0.370 0.740 185 166 159 0 0
2.2949 11.3461 -0.5256 -0.714 -0.219 0.665 148 103 91 0 0
2.2946 11.3251 -0.5328 -0.714 -0.219 0.665 168 118 102 0 0
2.2829 11.2705 -0.5470 -0.724 -0.081 0.685 191 142 118 0 0
2.2736 11.2396 -0.5540 -0.724 -0.015 0.690 209 158 136 0 0
2.2680 11.2128 -0.5610 -0.563 0.134 0.815 201 149 127 0 0
2.2481 11.1703 -0.5678 -0.563 0.134 0.815 190 137 115 0 0
2.2079 11.1055 -0.5741 -0.604 0.098 0.791 205 151 130 0 0
2.2168 11.0950 -0.5813 -0.496 -0.153 0.855 201 147 127 0 0
2.2086 11.0657 -0.5882 -0.355 -0.413 0.839 194 142 123 0 0
2.2106 11.0275 -0.6023 -0.301 -0.546 0.782 175 127 109 0 0
2.2166 11.0140 -0.6094 -0.301 -0.546 0.782 177 128 108 0 0
2.2866 10.9086 -0.6742 -0.324 -0.480 0.815 178 129 109 0 0
2.3047 10.8479 -0.7026 -0.392 -0.291 0.873 209 161 142 0 0
2.3148 10.8186 -0.7168 -0.326 -0.472 0.819 195 146 130 0 0
2.3612 10.7279 -0.7669 -0.317 -0.680 0.661 183 128 108 0 0
2.3680 10.7152 -0.7741 -0.306 -0.618 0.724 172 119 98 0 0
2.3755 10.7031 -0.7813 -0.306 -0.618 0.724 175 124 105 0 0
2.4310 10.5430 -0.8593 -0.379 -0.506 0.775 175 121 101 0 0
2.4360 10.5284 -0.8664 -0.379 -0.506 0.775 188 137 116 0 0
2.4924 10.4476 -0.9172 -0.393 -0.423 0.816 194 147 128 0 0
2.4970 10.4326 -0.9242 -0.366 -0.447 0.816 192 145 125 0 0
2.7234 9.9535 -1.1818 -0.489 -0.427 0.761 168 109 89 0 0
2.7709 9.8633 -1.2322 -0.543 -0.509 0.668 186 136 121 0 0
2.8891 9.5536 -1.3874 -0.451 -0.450 0.771 182 134 115 0 0
2.8976 9.5421 -1.3948 -0.394 -0.601 0.696 176 127 108 0 0
2.9037 9.5287 -1.4019 -0.216 -0.672 0.708 163 114 95 0 0
2.9641 9.4304 -1.4603 -0.543 -0.498 0.676 185 133 112 0 0
2.9688 9.4159 -1.4673 -0.543 -0.498 0.676 177 121 102 0 0
2.9810 9.4073 -1.4752 -0.442 -0.491 0.751 181 128 106 0 0
3.2012 9.0487 -1.6884 -0.499 -0.602 0.624 199 148 129 0 0
3.1714 8.9910 -1.6964 -0.338 -0.622 0.706 170 119 100 0 0
3.2571 8.9276 -1.7529 -0.371 -0.644 0.669 163 111 89 0 0
3.9127 9.1857 -1.9272 -0.436 -0.793 -0.425 141 97 80 0 0
5.3473 10.0470 -2.2055 0.437 -0.815 0.381 215 208 200 0 0
5.4244 10.0338 -2.2411 -0.163 -0.525 0.835 219 210 203 0 0
5.6621 10.1051 -2.3120 0.198 -0.804 0.560 221 214 206 0 0
5.5755 10.0255 -2.3048 -0.183 -0.611 0.770 223 216 208 0 0
3.7658 8.6982 -2.0373 0.086 -0.523 0.848 226 222 215 0 0
3.3138 8.3022 -1.9930 -0.419 -0.588 -0.691 231 227 220 0 0
3.3376 8.3002 -2.0032 -0.680 -0.311 -0.665 230 226 221 0 0
3.3446 8.2876 -2.0104 -0.610 0.752 0.248 205 196 181 0 0
3.2659 8.2209 -2.0019 -0.598 0.763 0.247 186 158 130 0 0
3.1798 8.1498 -1.9919 -0.603 0.763 0.231 189 156 120 0 0
3.0956 8.0804 -1.9822 -0.603 0.763 0.231 181 149 111 0 0
2.8478 7.7818 -1.9862 -0.597 -0.187 0.780 225 203 173 0 0
2.9888 7.5193 -2.1341 -0.255 -0.600 0.758 230 213 185 0 0
3.0938 7.2828 -2.2585 -0.490 -0.740 0.462 229 212 184 0 0
3.2903 6.9247 -2.4620 -0.500 -0.334 0.799 228 211 183 0 0
3.2913 6.9101 -2.4674 -0.500 -0.334 0.799 226 209 181 0 0
3.3075 6.8725 -2.4870 -0.365 -0.483 0.796 228 209 182 0 0
3.3213 6.8489 -2.5008 -0.542 -0.434 0.720 229 212 184 0 0
3.3319 6.8389 -2.5085 -0.439 -0.371 0.819 229 211 183 0 0
3.3968 6.7335 -2.5712 -0.503 -0.355 0.788 225 206 177 0 0
3.7552 5.8951 -3.0067 -0.289 -0.847 0.446 226 207 177 0 0
3.7609 5.8827 -3.0133 -0.515 -0.453 0.728 224 206 176 0 0
2.2743 11.3553 -0.5330 -0.128 -0.692 0.711 181 156 148 0 0
2.2792 11.3401 -0.5402 -0.445 -0.314 0.839 173 122 107 0 0
2.2763 11.3161 -0.5474 -0.564 -0.156 0.811 148 95 77 0 0
2.2710 11.2895 -0.5545 -0.647 -0.107 0.755 180 130 108 0 0
2.2669 11.2643 -0.5615 -0.647 -0.107 0.755 187 139 116 0 0
2.2222 11.1530 -0.5820 -0.501 0.090 0.861 199 144 123 0 0
2.1912 11.0983 -0.5884 -0.619 0.045 0.784 197 142 121 0 0
2.1890 11.0756 -0.5954 -0.510 -0.222 0.831 199 146 125 0 0
2.1890 11.0554 -0.6024 -0.500 -0.280 0.819 196 145 125 0 0
2.1924 11.0390 -0.6095 -0.145 -0.675 0.724 149 102 82 0 0
2.2091 10.9768 -0.6378 -0.416 -0.353 0.838 178 130 110 0 0
2.2855 10.8387 -0.7166 -0.367 -0.367 0.855 212 161 142 0 0
2.2937 10.8074 -0.7307 -0.443 -0.383 0.811 200 150 133 0 0
2.4098 10.5325 -0.8729 -0.366 -0.403 0.839 174 122 101 0 0
2.4175 10.5207 -0.8801 -0.304 -0.591 0.748 180 129 110 0 0
2.4738 10.4789 -0.9173 -0.643 -0.517 0.566 183 136 116 0 0
2.4778 10.4633 -0.9243 -0.660 -0.422 0.622 190 142 122 0 0
2.4839 10.4498 -0.9315 -0.713 -0.299 0.634 189 140 120 0 0
2.4855 10.4320 -0.9383 -0.643 -0.275 0.715 187 136 116 0 0
2.4864 10.4135 -0.9451 -0.543 -0.274 0.794 164 111 91 0 0
2.5223 10.3127 -0.9946 -0.279 -0.517 0.809 175 122 101 0 0
2.6067 10.1618 -1.0809 -0.248 -0.605 0.756 185 133 112 0 0
2.5882 10.1256 -1.0860 -0.431 -0.379 0.819 190 136 115 0 0
2.5912 10.1093 -1.0929 -0.469 -0.314 0.826 185 130 109 0 0
2.8862 9.5609 -1.4022 -0.608 -0.419 0.674 192 143 123 0 0
2.8901 9.5457 -1.4090 -0.650 -0.418 0.635 217 169 148 0 0
2.8896 9.5268 -1.4153 -0.564 -0.492 0.663 201 153 133 0 0
2.8998 9.5168 -1.4230 -0.438 -0.634 0.638 202 151 135 0 0
2.9616 9.3831 -1.4942 -0.337 -0.518 0.786 191 135 113 0 0
3.0311 9.2193 -1.5791 -0.543 -0.531 0.651 157 102 81 0 0
3.0424 9.2098 -1.5870 -0.433 -0.537 0.724 194 141 120 0 0
3.0479 9.1959 -1.5940 -0.433 -0.537 0.724 180 129 107 0 0
3.1113 9.0996 -1.6531 -0.550 -0.271 0.790 180 123 103 0 0
3.1487 9.0016 -1.7021 -0.401 -0.504 0.765 192 141 122 0 0
5.5071 10.1226 -2.2667 -0.194 -0.950 0.244 218 210 202 0 0
3.3495 8.3164 -2.0207 -0.624 -0.340 -0.704 230 227 221 0 0
3.3643 8.3087 -2.0294 -0.637 0.747 0.188 208 199 186 0 0
3.2910 8.2452 -2.0217 -0.611 0.766 0.200 185 157 130 0 0
3.0024 7.4413 -2.1837 -0.331 -0.597 0.730 229 212 184 0 0
3.0347 7.3663 -2.2228 -0.191 -0.538 0.821 233 216 189 0 0
3.0482 7.3274 -2.2417 -0.243 -0.725 0.645 230 213 185 0 0
3.0582 7.3174 -2.2492 -0.243 -0.725 0.645 231 214 186 0 0
3.2882 6.8706 -2.4970 -0.365 -0.483 0.796 228 209 181 0 0
3.3815 6.7337 -2.5822 -0.652 -0.108 0.750 228 208 179 0 0
3.6593 6.0976 -2.9149 -0.374 -0.776 0.508 227 207 180 0 0
3.7125 5.9298 -2.9946 -0.374 -0.713 0.593 225 205 178 0 0
3.7359 5.8808 -3.0210 -0.528 -0.470 0.707 222 203 172 0 0
2.2557 11.3460 -0.5475 -0.175 -0.572 0.801 181 147 137 0 0
2.2534 11.3226 -0.5547 -0.444 -0.176 0.879 158 106 89 0 0
2.2493 11.2974 -0.5618 -0.444 -0.176 0.879 173 120 100 0 0
2.2551 11.2832 -0.5690 -0.647 -0.107 0.755 190 141 118 0 0
2.2444 11.2507 -0.5759 -0.571 -0.105 0.814 192 144 121 0 0
2.2133 11.1749 -0.5895 -0.501 0.090 0.861 195 141 120 0 0
2.1944 11.1336 -0.5961 -0.501 0.090 0.861 184 131 109 0 0
2.1712 11.0876 -0.6026 -0.553 -0.019 0.833 181 126 105 0 0
2.1717 11.0679 -0.6096 -0.515 -0.243 0.822 202 150 129 0 0
2.1675 11.0430 -0.6165 -0.477 -0.321 0.818 198 149 128 0 0
2.1855 10.9823 -0.6448 -0.370 -0.404 0.837 183 134 117 0 0
2.2149 10.9140 -0.6804 -0.442 -0.583 0.681 201 154 136 0 0
2.2380 10.8789 -0.7019 -0.639 -0.399 0.658 169 118 101 0 0
2.3427 10.6517 -0.8229 -0.317 -0.439 0.841 172 123 101 0 0
2.4019 10.4963 -0.9007 -0.440 -0.486 0.755 181 130 110 0 0
2.4541 10.4506 -0.9377 -0.366 -0.499 0.786 170 122 100 0 0
2.4586 10.4162 -0.9514 -0.395 -0.391 0.831 185 133 112 0 0
2.6120 10.0436 -1.1425 -0.297 -0.588 0.753 154 102 83 0 0
2.9417 9.3769 -1.5069 -0.337 -0.518 0.786 177 120 98 0 0
2.9499 9.3469 -1.5205 -0.386 -0.394 0.834 165 108 88 0 0
2.9529 9.3311 -1.5272 -0.433 -0.314 0.845 165 110 89 0 0
3.0178 9.2003 -1.5988 -0.539 -0.312 0.783 183 130 109 0 0
3.0309 9.1923 -1.6069 -0.433 -0.537 0.724 181 129 108 0 0
5.4991 10.1284 -2.2847 -0.047 -0.981 0.186 218 211 203 0 0
5.5137 10.0285 -2.3252 -0.207 -0.691 0.692 220 213 205 0 0
5.5718 10.0453 -2.3430 -0.014 -0.547 0.837 222 215 206 0 0
3.3604 8.3319 -2.0381 -0.463 -0.386 -0.798 230 227 221 0 0
3.3900 8.3336 -2.0495 -0.825 0.403 -0.396 211 203 189 0 0
3.3270 8.2765 -2.0437 -0.649 0.758 0.066 182 156 128 0 0
3.2460 8.2084 -2.0344 -0.608 0.778 0.159 191 159 124 0 0
2.8491 7.6567 -2.0642 -0.463 -0.410 0.786 234 215 188 0 0
3.1025 7.1950 -2.3266 -0.449 -0.854 0.261 231 214 186 0 0
3.1680 7.1371 -2.3732 -0.559 -0.529 0.639 230 212 184 0 0
3.1641 7.1199 -2.3776 -0.506 -0.696 0.510 232 214 186 0 0
3.5377 6.2901 -2.8161 -0.491 -0.681 0.544 228 208 181 0 0
3.5455 6.2786 -2.8233 -0.668 -0.572 0.476 227 208 181 0 0
3.5513 6.2663 -2.8299 -0.527 -0.729 0.436 226 209 181 0 0
4.2739 5.7130 -3.3144 -0.058 -0.879 -0.473 239 241 242 0 0
2.2325 11.3314 -0.5620 -0.206 -0.405 0.891 172 126 117 0 0
2.2345 11.3130 -0.5692 -0.228 -0.371 0.900 172 124 104 0 0
2.2336 11.2912 -0.5763 -0.232 -0.345 0.910 179 129 107 0 0
2.2427 11.2809 -0.5836 -0.517 -0.221 0.827 194 144 121 0 0
2.1901 11.1605 -0.6037 -0.434 0.012 0.901 195 144 121 0 0
2.1699 11.1177 -0.6102 -0.625 0.177 0.760 182 131 108 0 0
2.1495 11.0748 -0.6167 -0.515 -0.072 0.854 182 130 108 0 0
2.3177 10.6565 -0.8296 -0.363 -0.398 0.843 181 130 109 0 0
2.5776 10.0414 -1.1477 -0.145 -0.891 0.430 186 134 114 0 0
2.5944 10.0378 -1.1558 -0.360 -0.587 0.725 190 138 120 0 0
2.6010 10.0249 -1.1629 -0.360 -0.587 0.725 200 151 133 0 0
2.6341 9.9982 -1.1856 -0.319 -0.473 0.821 186 139 121 0 0
2.8445 9.5459 -1.4274 -0.568 -0.218 0.794 151 99 81 0 0
2.9254 9.3734 -1.5199 -0.301 -0.515 0.802 149 91 69 0 0
2.9973 9.2301 -1.5986 -0.582 -0.305 0.754 175 117 98 0 0
5.4717 10.1210 -2.2993 -0.113 -0.993 -0.036 218 210 202 0 0
5.2235 9.8670 -2.2859 -0.274 -0.737 0.618 220 213 205 0 0
5.5269 10.0265 -2.3545 -0.014 -0.550 0.835 221 214 204 0 0
5.4945 9.9831 -2.3562 -0.036 -0.460 0.887 223 216 207 0 0
3.8332 8.7514 -2.1044 -0.230 -0.963 -0.142 227 222 216 0 0
3.3906 8.3426 -2.0651 -0.530 -0.291 -0.797 213 206 190 0 0
3.3596 8.3058 -2.0652 -0.677 0.736 -0.010 180 154 125 0 0
3.2745 8.2349 -2.0550 -0.608 0.775 0.174 188 156 120 0 0
3.1752 8.1554 -2.0419 -0.612 0.777 0.150 188 154 117 0 0
3.1029 8.0933 -2.0339 -0.597 0.784 0.168 183 149 111 0 0
2.9944 8.0088 -2.0189 -0.626 0.768 0.135 181 146 108 0 0
2.7816 7.7335 -2.0272 -0.776 0.070 0.626 224 201 169 0 0
2.8320 7.6699 -2.0696 -0.246 -0.677 0.694 227 210 182 0 0
2.8323 7.6544 -2.0751 -0.493 -0.348 0.797 231 214 186 0 0
2.9722 7.4088 -2.2168 -0.280 -0.423 0.862 232 212 187 0 0
3.4738 6.3443 -2.7885 -0.611 -0.513 0.603 229 209 181 0 0
3.5217 6.2906 -2.8266 -0.495 -0.741 0.453 229 209 182 0 0
3.5396 6.2685 -2.8415 -0.491 -0.681 0.544 224 207 179 0 0
3.4963 6.2371 -2.8346 -0.335 -0.896 0.292 229 211 184 0 0
3.5730 6.1511 -2.8956 -0.393 -0.671 0.629 226 206 178 0 0
3.5821 6.1256 -2.9081 -0.453 -0.616 0.645 225 207 177 0 0
3.6425 6.0185 -2.9697 -0.261 -0.664 0.701 223 205 175 0 0
2.1956 11.3219 -0.5690 0.000 -0.647 0.762 190 161 151 0 0
2.1984 11.2838 -0.5833 -0.260 -0.201 0.945 154 106 88 0 0
2.1953 11.2597 -0.5903 -0.264 -0.219 0.939 154 104 83 0 0
2.1971 11.2411 -0.5974 -0.442 -0.087 0.893 180 129 106 0 0
2.1291 11.0837 -0.6238 -0.655 -0.043 0.754 200 146 124 0 0
2.1281 11.0623 -0.6308 -0.502 -0.112 0.858 196 142 120 0 0
2.2964 10.6454 -0.8432 -0.448 -0.277 0.850 176 124 103 0 0
2.2975 10.6269 -0.8500 -0.468 -0.256 0.846 173 121 100 0 0
2.6159 9.9919 -1.1988 -0.419 -0.400 0.815 183 137 117 0 0
2.7928 9.5864 -1.4108 -0.230 -0.682 0.695 190 141 122 0 0
2.7918 9.5671 -1.4170 -0.421 -0.526 0.739 183 132 113 0 0
2.8016 9.5569 -1.4246 -0.359 -0.807 0.468 177 126 108 0 0
2.8141 9.5489 -1.4324 -0.458 -0.744 0.487 172 123 104 0 0
2.8216 9.5367 -1.4397 -0.744 -0.394 0.540 185 132 114 0 0
2.9001 9.3628 -1.5317 -0.268 -0.466 0.844 162 102 81 0 0
5.3362 10.0402 -2.2950 -0.254 -0.591 0.766 218 211 203 0 0
5.2207 9.8760 -2.3042 -0.399 -0.538 0.742 221 214 206 0 0
5.2016 9.8419 -2.3082 -0.852 -0.155 0.500 222 215 206 0 0
5.4616 9.9941 -2.3621 -0.485 -0.062 0.872 222 215 206 0 0
5.4514 9.9655 -2.3678 -0.239 -0.687 0.687 223 217 208 0 0
3.3920 8.3522 -2.0808 -0.193 -0.649 -0.736 216 208 195 0 0
3.1987 8.1786 -2.0615 -0.596 0.771 0.225 185 151 114 0 0
3.1370 8.1230 -2.0554 -0.574 0.772 0.273 184 150 112 0 0
3.0178 8.0316 -2.0381 -0.615 0.765 0.191 179 144 106 0 0
2.9244 7.9569 -2.0256 -0.657 0.736 0.160 185 151 113 0 0
2.7770 7.7543 -2.0351 -0.776 0.070 0.626 225 201 165 0 0
2.7610 7.6975 -2.0481 -0.671 -0.125 0.731 217 196 163 0 0
2.7842 7.6959 -2.0581 -0.303 -0.509 0.805 215 194 163 0 0
3.1118 7.0626 -2.4102 -0.202 -0.578 0.791 231 214 186 0 0
3.4557 6.3729 -2.7883 -0.518 -0.753 0.406 228 209 180 0 0
3.4605 6.3603 -2.7946 -0.540 -0.615 0.575 228 208 179 0 0
3.4669 6.3483 -2.8013 -0.607 -0.339 0.718 227 208 178 0 0
3.4799 6.3099 -2.8199 -0.778 -0.400 0.485 225 205 177 0 0
3.6758 5.8798 -3.0481 -0.227 -0.765 0.603 223 205 173 0 0
3.7325 5.7290 -3.1232 -0.433 -0.645 0.630 223 202 171 0 0
2.1814 11.3173 -0.5835 -0.250 -0.277 0.928 185 144 132 0 0
2.1698 11.2630 -0.5974 -0.291 -0.171 0.941 170 122 103 0 0
2.1636 11.2355 -0.6043 -0.291 -0.171 0.941 182 132 111 0 0
2.1650 11.2166 -0.6114 -0.409 -0.056 0.911 186 134 111 0 0
2.1426 11.1303 -0.6319 -0.412 -0.243 0.878 192 136 115 0 0
2.1133 11.0773 -0.6380 -0.655 -0.043 0.754 199 144 123 0 0
2.1156 11.0597 -0.6450 -0.504 0.005 0.863 191 136 115 0 0
2.1072 11.0302 -0.6517 -0.436 -0.210 0.875 190 138 117 0 0
2.1042 10.9668 -0.6722 -0.341 -0.329 0.881 185 136 117 0 0
2.1202 10.9244 -0.6934 -0.455 -0.776 0.436 158 109 93 0 0
2.2319 10.7269 -0.8071 -0.543 -0.502 0.673 169 120 99 0 0
2.2385 10.7141 -0.8142 -0.325 -0.632 0.704 193 145 125 0 0
2.2523 10.6891 -0.8285 -0.359 -0.459 0.813 202 154 134 0 0
2.2490 10.6661 -0.8350 -0.254 -0.464 0.849 190 142 121 0 0
2.2578 10.6360 -0.8490 -0.694 -0.131 0.708 182 131 111 0 0
2.2578 10.6164 -0.8557 -0.676 -0.051 0.736 177 126 105 0 0
2.2624 10.6016 -0.8627 -0.758 -0.307 0.575 164 113 92 0 0
2.2755 10.5955 -0.8701 -0.369 -0.912 0.181 181 131 109 0 0
2.2894 10.5902 -0.8777 -0.268 -0.608 0.748 187 139 117 0 0
2.5702 9.9982 -1.1963 -0.509 -0.268 0.818 198 150 132 0 0
2.6172 9.9654 -1.2269 -0.467 -0.443 0.765 205 157 137 0 0
2.6206 9.9497 -1.2337 -0.449 -0.429 0.783 192 144 125 0 0
2.6183 9.9288 -1.2399 -0.310 -0.547 0.778 186 137 119 0 0
2.7656 9.5918 -1.4162 -0.218 -0.650 0.728 185 133 113 0 0
2.7735 9.5800 -1.4235 -0.230 -0.682 0.695 183 130 110 0 0
2.7967 9.5442 -1.4453 -0.248 -0.705 0.664 195 144 124 0 0
2.8093 9.5362 -1.4532 -0.375 -0.433 0.820 185 132 113 0 0
3.2936 8.8563 -1.8857 -0.355 -0.578 0.735 176 124 102 0 0
5.3186 10.0175 -2.3184 -0.059 -0.806 0.589 218 211 203 0 0
5.2035 9.8966 -2.3127 -0.534 -0.357 0.766 220 213 205 0 0
5.1618 9.8472 -2.3125 -0.836 -0.549 0.013 221 214 206 0 0
5.1940 9.8476 -2.3257 -0.781 -0.534 0.323 223 216 208 0 0
5.4284 9.9829 -2.3754 -0.272 -0.232 0.934 223 216 208 0 0
5.4274 9.9606 -2.3827 -0.213 -0.296 0.931 222 217 210 0 0
3.3035 8.3214 -2.0735 0.223 -0.834 -0.505 230 226 219 0 0
3.3712 8.3476 -2.0923 0.151 -0.802 -0.578 219 211 199 0 0
3.1484 8.1386 -2.0726 -0.565 0.765 0.309 183 149 112 0 0
3.0380 8.0526 -2.0568 -0.615 0.765 0.191 184 150 113 0 0
2.9384 7.9738 -2.0430 -0.651 0.743 0.156 190 156 119 0 0
2.7856 7.7989 -2.0403 -0.762 0.326 0.560 214 187 150 0 0
2.7741 7.7760 -2.0434 -0.786 0.327 0.524 212 186 149 0 0
2.7641 7.7542 -2.0468 -0.875 0.268 0.403 219 194 158 0 0
2.7505 7.6833 -2.0656 -0.749 -0.512 0.420 219 198 167 0 0
2.7582 7.6724 -2.0725 -0.459 -0.861 0.221 226 207 177 0 0
2.9490 7.3342 -2.2670 -0.407 -0.519 0.752 227 207 180 0 0
2.9506 7.3198 -2.2726 -0.326 -0.563 0.760 231 211 184 0 0
3.0266 7.1624 -2.3579 -0.300 -0.450 0.841 230 213 185 0 0
3.4221 6.4390 -2.7688 -0.411 -0.605 0.682 228 209 180 0 0
3.4227 6.3808 -2.7891 -0.294 -0.705 0.646 221 202 172 0 0
3.4345 6.3711 -2.7972 -0.538 -0.685 0.490 221 202 172 0 0
3.4424 6.3597 -2.8044 -0.538 -0.685 0.490 221 202 172 0 0
3.4503 6.3484 -2.8115 -0.538 -0.685 0.490 224 205 176 0 0
3.4629 6.3389 -2.8200 -0.837 -0.193 0.512 225 205 177 0 0
3.4715 6.3133 -2.8323 -0.836 -0.383 0.393 224 204 176 0 0
3.4858 6.3045 -2.8412 -0.595 -0.688 0.415 225 205 177 0 0
3.6205 5.9524 -3.0175 -0.416 -0.431 0.801 223 204 174 0 0
2.1314 11.2106 -0.6183 -0.471 -0.105 0.876 184 135 112 0 0
2.1044 11.1192 -0.6385 -0.452 -0.075 0.889 189 132 112 0 0
2.1205 11.1170 -0.6459 -0.412 -0.243 0.878 193 136 116 0 0
2.0964 11.0698 -0.6521 -0.531 -0.134 0.837 192 136 116 0 0
2.0923 11.0451 -0.6589 -0.501 -0.248 0.829 189 134 113 0 0
2.0916 11.0242 -0.6657 -0.525 -0.361 0.771 205 153 132 0 0
2.0824 10.9739 -0.6792 -0.283 -0.322 0.903 182 129 111 0 0
2.1024 10.9161 -0.7073 -0.535 -0.527 0.660 175 127 112 0 0
2.2199 10.7054 -0.8279 -0.499 -0.571 0.652 191 141 120 0 0
2.2123 10.6778 -0.8342 -0.469 -0.584 0.662 184 137 115 0 0
2.2297 10.6371 -0.8553 -0.328 -0.479 0.814 185 136 115 0 0
2.2413 10.6296 -0.8627 -0.597 -0.447 0.666 177 126 105 0 0
2.2431 10.6120 -0.8695 -0.676 -0.051 0.736 182 132 111 0 0
2.2582 10.6080 -0.8771 -0.743 -0.650 0.160 179 130 110 0 0
2.3037 10.5180 -0.9267 -0.257 -0.627 0.735 174 127 107 0 0
2.4433 10.1934 -1.0955 -0.798 -0.597 0.079 181 132 115 0 0
2.4571 10.1874 -1.1033 -0.708 -0.438 0.555 193 144 127 0 0
2.4615 10.1725 -1.1102 -0.463 -0.428 0.776 193 144 127 0 0
2.4665 10.1582 -1.1171 -0.361 -0.514 0.778 182 133 116 0 0
2.4725 10.1449 -1.1242 -0.302 -0.532 0.791 168 120 103 0 0
2.5377 10.0163 -1.1951 -0.148 -0.775 0.614 172 120 103 0 0
2.5572 9.9965 -1.2100 -0.391 -0.630 0.671 190 143 127 0 0
2.5604 9.9806 -1.2168 -0.404 -0.500 0.766 179 132 115 0 0
2.6060 9.9843 -1.2343 -0.446 -0.572 0.688 181 130 111 0 0
3.2748 8.8522 -1.8981 -0.355 -0.578 0.735 178 126 105 0 0
5.1194 9.8507 -2.3164 -0.538 -0.074 0.839 220 213 205 0 0
5.1793 9.8698 -2.3345 -0.349 -0.522 0.778 220 213 205 0 0
5.1873 9.8539 -2.3433 -0.343 -0.563 0.752 222 215 207 0 0
5.4000 9.9532 -2.3969 0.084 -0.556 0.827 223 217 210 0 0
3.3061 8.3317 -2.0893 0.223 -0.834 -0.505 231 227 221 0 0
3.3803 8.3620 -2.1095 0.178 -0.815 -0.551 224 217 205 0 0
3.2493 8.2275 -2.1016 -0.549 0.753 0.364 181 147 110 0 0
3.1471 8.1461 -2.0874 -0.549 0.753 0.364 181 147 110 0 0
3.0314 8.0567 -2.0704 -0.579 0.748 0.325 184 150 113 0 0
2.7670 7.7795 -2.0563 -0.786 0.327 0.524 214 186 148 0 0
2.7329 7.7116 -2.0655 -0.789 -0.121 0.602 222 199 165 0 0
2.7311 7.6949 -2.0705 -0.846 -0.052 0.530 227 204 172 0 0
2.7426 7.6863 -2.0782 -0.743 -0.579 0.336 222 202 170 0 0
2.7486 7.6743 -2.0848 -0.459 -0.861 0.221 223 204 172 0 0
2.7388 7.6529 -2.0881 -0.462 -0.541 0.702 224 206 175 0 0
2.7724 7.5954 -2.1217 -0.323 -0.631 0.705 230 209 182 0 0
2.7795 7.5841 -2.1285 -0.323 -0.631 0.705 226 207 179 0 0
2.9274 7.3299 -2.2766 -0.429 -0.405 0.807 227 207 180 0 0
2.9516 7.2668 -2.3082 -0.514 -0.568 0.643 233 214 186 0 0
2.9661 7.2441 -2.3219 -0.398 -0.527 0.751 231 212 185 0 0
2.9686 7.2302 -2.3277 -0.426 -0.477 0.769 233 215 187 0 0
3.4014 6.3935 -2.7930 -0.396 -0.491 0.776 223 203 175 0 0
3.4030 6.3796 -2.7984 -0.417 -0.804 0.423 222 203 174 0 0
3.4572 6.2421 -2.8679 -0.573 -0.463 0.677 224 207 179 0 0
3.6101 5.9127 -3.0438 -0.306 -0.627 0.717 224 204 177 0 0
1.9717 11.2230 -0.5665 -0.134 -0.911 -0.389 244 243 241 0 0
2.1183 11.2481 -0.6186 -0.421 -0.202 0.884 166 117 94 0 0
2.1109 11.2193 -0.6254 -0.362 -0.222 0.906 176 126 104 0 0
2.1085 11.1961 -0.6323 -0.471 -0.105 0.876 194 143 121 0 0
2.0913 11.1361 -0.6458 -0.506 0.025 0.862 198 142 121 0 0
2.0767 11.0995 -0.6523 -0.452 -0.083 0.888 177 121 101 0 0
2.0690 11.0505 -0.6658 -0.504 -0.172 0.846 179 124 103 0 0
2.1267 10.7948 -0.7771 -0.498 -0.336 0.799 170 124 108 0 0
