ply
format ascii 1.0
element vertex 823
property float x
property float y
property float z
property float nx
property float ny
property float nz
property uchar diffuse_red
property uchar diffuse_green
property uchar diffuse_blue
property uchar class
property uchar detection
end_header
6.9700 6.9371 -1.5927 -0.074 -0.971 0.230 176 159 130 0 0
6.9838 6.9368 -1.5892 -0.074 -0.971 0.230 174 157 126 0 0
6.9977 6.9366 -1.5857 -0.074 -0.971 0.230 161 144 113 0 0
7.0117 6.9369 -1.5822 -0.000 -0.974 0.225 168 151 121 0 0
7.0249 6.9351 -1.5785 0.013 -1.000 0.013 175 158 129 0 0
7.1264 6.9081 -1.5480 -0.126 -0.982 0.142 173 158 129 0 0
7.3268 6.8517 -1.4870 -0.254 -0.959 0.123 163 146 117 0 0
7.4560 6.8288 -1.4502 -0.168 -0.982 -0.090 173 154 121 0 0
1.3987 9.7168 -3.5254 -0.618 -0.553 0.559 230 226 223 0 0
1.5874 9.6292 -3.4617 -0.749 -0.422 -0.511 227 223 220 0 0
1.6189 9.5574 -3.4405 -0.739 -0.407 -0.536 227 223 220 0 0
1.6613 9.4310 -3.4065 -0.749 -0.422 -0.511 228 224 219 0 0
2.0852 8.7277 -3.1701 0.265 -0.895 -0.360 117 74 57 0 0
2.4492 6.8727 -2.7369 0.131 -0.594 0.794 117 70 55 0 0
2.4730 6.8849 -2.7331 -0.121 -0.618 0.777 138 106 86 0 0
2.4872 6.8775 -2.7282 -0.580 -0.585 0.567 212 190 165 0 0
3.0372 6.8426 -2.5829 -0.280 -0.633 0.722 225 202 170 0 0
3.1538 6.8488 -2.5546 -0.528 -0.835 0.155 223 203 174 0 0
3.1670 6.8475 -2.5510 -0.547 -0.734 0.402 225 205 175 0 0
3.5461 6.8482 -2.4555 -0.006 -0.610 0.792 225 202 171 0 0
3.7302 6.8353 -2.4066 -0.072 -0.739 0.670 226 203 172 0 0
3.9800 6.8479 -2.3459 -0.277 -0.657 0.701 230 209 181 0 0
4.3090 6.8100 -2.2558 -0.437 -0.686 0.582 227 206 176 0 0
4.5847 6.7846 -2.1815 0.085 -0.698 0.711 225 202 171 0 0
4.6366 6.7727 -2.1662 -0.439 -0.695 0.569 223 203 172 0 0
4.7674 6.7584 -2.1306 -0.009 -0.743 0.670 224 205 173 0 0
4.7817 6.7696 -2.1291 -0.111 -0.785 0.610 225 204 174 0 0
4.8073 6.7610 -2.1210 -0.360 -0.792 0.493 229 208 179 0 0
5.1819 6.6943 -2.0142 0.149 -0.806 0.573 227 206 179 0 0
5.1948 6.6920 -2.0105 0.257 -0.817 0.516 227 207 180 0 0
5.2095 6.7028 -2.0088 0.056 -0.844 0.533 228 208 181 0 0
5.2221 6.6986 -2.0048 0.088 -0.886 0.455 228 208 180 0 0
5.2355 6.7002 -2.0017 -0.073 -0.828 0.557 225 205 175 0 0
5.2499 6.7075 -1.9994 0.075 -0.818 0.570 224 202 170 0 0
5.4794 6.8839 -1.9739 0.713 -0.570 0.408 233 229 224 0 0
6.4096 8.5097 -2.0383 -0.875 -0.016 -0.484 229 227 222 0 0
6.6020 7.2768 -1.7628 -0.471 -0.828 -0.304 175 156 124 0 0
6.8070 7.0655 -1.6722 -0.198 -0.958 -0.209 184 167 139 0 0
6.8199 7.0620 -1.6683 -0.198 -0.958 -0.209 183 166 138 0 0
6.8325 7.0575 -1.6643 -0.414 -0.888 -0.202 186 169 142 0 0
6.9194 6.9815 -1.6284 -0.335 -0.923 -0.189 183 167 141 0 0
7.0412 6.9308 -1.5883 -0.157 -0.985 0.066 182 167 138 0 0
7.2200 6.8881 -1.5353 -0.057 -0.989 -0.139 178 163 135 0 0
7.3443 6.8512 -1.4971 -0.261 -0.948 0.181 162 144 116 0 0
8.0027 6.9841 -1.3553 0.327 -0.945 0.025 187 171 142 0 0
1.4043 9.6334 -3.5272 -0.205 -0.448 0.870 232 228 227 0 0
1.5837 9.6682 -3.4884 -0.749 -0.422 -0.511 227 223 220 0 0
1.6579 9.4686 -3.4326 -0.749 -0.422 -0.511 226 223 219 0 0
1.6941 9.3713 -3.4054 -0.749 -0.422 -0.511 209 188 183 0 0
2.4521 6.8746 -2.7506 -0.289 -0.645 0.708 134 86 72 0 0
2.4663 6.8676 -2.7458 0.069 -0.606 0.792 117 74 59 0 0
2.4767 6.8823 -2.7458 -0.216 -0.593 0.775 133 102 82 0 0
2.4929 6.8627 -2.7381 -0.519 -0.612 0.596 218 197 170 0 0
2.9793 6.8080 -2.6052 -0.310 -0.637 0.706 228 207 178 0 0
3.1713 6.8358 -2.5619 -0.617 -0.666 0.420 228 207 176 0 0
3.1854 6.8238 -2.5561 -0.479 -0.624 0.618 226 205 174 0 0
3.2494 6.8377 -2.5426 -0.211 -0.699 0.683 223 205 175 0 0
3.2621 6.8420 -2.5402 -0.373 -0.898 0.235 225 206 176 0 0
3.2755 6.8375 -2.5360 -0.373 -0.898 0.235 221 201 170 0 0
3.2892 6.8283 -2.5308 -0.289 -0.630 0.721 222 200 169 0 0
3.3154 6.8271 -2.5240 -0.272 -0.660 0.700 223 203 173 0 0
3.5500 6.8350 -2.4662 -0.102 -0.602 0.792 225 204 173 0 0
3.6152 6.8428 -2.4512 -0.394 -0.661 0.639 225 204 175 0 0
3.9702 6.8268 -2.3586 -0.116 -0.660 0.742 227 206 177 0 0
4.2853 6.7907 -2.2724 -0.286 -0.693 0.662 227 208 179 0 0
4.5604 6.7655 -2.1983 -0.231 -0.761 0.606 228 207 176 0 0
4.5732 6.7602 -2.1941 -0.014 -0.842 0.539 224 202 170 0 0
4.6526 6.7636 -2.1747 -0.235 -0.790 0.566 227 206 175 0 0
4.6649 6.7534 -2.1697 -0.113 -0.706 0.699 224 203 172 0 0
4.6792 6.7663 -2.1685 0.175 -0.731 0.659 226 205 176 0 0
4.7571 6.7517 -2.1461 0.149 -0.695 0.704 225 205 175 0 0
4.7702 6.7515 -2.1428 -0.143 -0.869 0.474 228 209 177 0 0
4.7834 6.7512 -2.1394 -0.143 -0.869 0.474 224 204 174 0 0
4.9525 6.7288 -2.0925 -0.038 -0.929 0.369 230 209 181 0 0
5.0423 6.7080 -2.0660 -0.132 -0.910 0.392 227 207 180 0 0
5.0681 6.7037 -2.0587 -0.153 -0.656 0.739 230 210 183 0 0
5.0813 6.7039 -2.0554 -0.096 -0.634 0.767 226 206 179 0 0
5.1836 6.6818 -2.0255 0.115 -0.910 0.399 228 207 180 0 0
5.1964 6.6789 -2.0218 0.291 -0.885 0.365 228 208 181 0 0
5.2115 6.6926 -2.0205 -0.003 -0.907 0.420 227 207 180 0 0
5.2236 6.6852 -2.0160 -0.350 -0.817 0.459 222 203 174 0 0
5.2378 6.6919 -2.0137 -0.073 -0.828 0.557 224 203 172 0 0
6.4122 8.4349 -2.0409 -0.873 -0.015 -0.487 228 228 222 0 0
6.6756 7.1753 -1.7406 -0.352 -0.936 0.026 176 155 124 0 0
6.7860 7.0757 -1.6942 -0.312 -0.928 -0.205 189 172 147 0 0
6.7986 7.0712 -1.6902 -0.198 -0.958 -0.209 186 169 143 0 0
7.0177 6.9322 -1.6091 -0.033 -0.992 0.120 168 151 122 0 0
7.0460 6.9335 -1.6022 -0.009 -0.986 0.165 178 163 136 0 0
7.3474 6.8491 -1.5105 -0.195 -0.969 -0.150 169 152 124 0 0
7.4827 6.8415 -1.4749 0.027 -0.995 0.092 172 153 120 0 0
7.4969 6.8422 -1.4715 0.027 -0.995 0.092 174 155 122 0 0
7.5242 6.8412 -1.4644 0.024 -0.988 0.155 172 154 121 0 0
7.9678 6.9609 -1.3747 0.275 -0.906 -0.322 186 169 141 0 0
1.5803 9.7057 -3.5148 -0.747 -0.431 -0.506 227 223 219 0 0
1.6545 9.5065 -3.4588 -0.749 -0.422 -0.511 226 223 218 0 0
2.0136 8.7337 -3.2235 0.038 -0.938 -0.344 129 83 68 0 0
2.0445 8.7363 -3.2162 0.195 -0.963 -0.186 132 86 70 0 0
2.4821 6.8695 -2.7562 -0.170 -0.579 0.797 155 127 105 0 0
2.5857 6.7872 -2.7147 -0.486 -0.717 0.500 223 200 169 0 0
2.5995 6.7811 -2.7100 -0.486 -0.717 0.500 225 202 171 0 0
3.2041 6.7966 -2.5604 -0.349 -0.867 0.355 224 203 174 0 0
3.2173 6.7929 -2.5564 -0.349 -0.867 0.355 224 204 175 0 0
3.2306 6.7892 -2.5524 -0.305 -0.870 0.387 225 205 177 0 0
3.2438 6.7863 -2.5485 -0.305 -0.870 0.387 226 206 179 0 0
3.5285 6.8076 -2.4806 -0.052 -0.862 0.505 226 203 171 0 0
4.2883 6.7788 -2.2836 -0.286 -0.693 0.662 229 208 181 0 0
4.3799 6.7699 -2.2588 -0.017 -0.694 0.720 227 206 177 0 0
4.8773 6.7322 -2.1263 -0.122 -0.571 0.812 228 207 178 0 0
5.1632 6.6988 -2.0479 0.078 -0.702 0.708 224 204 177 0 0
5.1731 6.6756 -2.0411 -0.302 -0.699 0.648 227 207 178 0 0
5.1857 6.6723 -2.0373 0.207 -0.850 0.485 227 208 177 0 0
5.1995 6.6768 -2.0346 0.354 -0.800 0.484 227 208 178 0 0
5.2142 6.6869 -2.0328 -0.079 -0.938 0.337 220 201 171 0 0
5.2260 6.6774 -2.0281 -0.350 -0.817 0.459 221 202 172 0 0
5.2511 6.6695 -2.0203 -0.558 -0.737 0.383 221 200 170 0 0
5.3304 6.6713 -2.0006 -0.013 -0.552 0.834 224 204 172 0 0
5.4691 6.8609 -2.0011 0.847 -0.482 0.224 234 229 225 0 0
5.4902 6.9035 -2.0038 0.841 -0.442 0.311 233 229 226 0 0
6.4050 8.3869 -2.0508 -0.838 -0.155 -0.523 231 226 222 0 0
6.4086 8.3358 -2.0403 -0.835 -0.153 -0.528 230 226 218 0 0
6.4922 7.4222 -1.8481 -0.646 -0.635 -0.424 170 148 114 0 0
6.7664 7.0905 -1.7168 -0.151 -0.961 -0.233 183 166 137 0 0
6.7928 7.0848 -1.7091 -0.223 -0.935 -0.274 183 167 138 0 0
6.9341 7.0021 -1.6580 -0.333 -0.935 -0.118 185 169 144 0 0
6.9631 6.9643 -1.6436 -0.103 -0.934 -0.342 184 169 142 0 0
7.0214 6.9317 -1.6228 -0.157 -0.985 0.066 177 160 130 0 0
7.3959 6.8572 -1.5143 -0.247 -0.946 -0.209 178 161 133 0 0
7.7203 6.8688 -1.4347 0.147 -0.980 -0.135 174 153 122 0 0
7.9778 6.9742 -1.3895 0.373 -0.928 0.009 188 172 146 0 0
1.4049 9.7470 -3.5855 -0.908 -0.406 -0.103 230 226 225 0 0
1.4405 9.6620 -3.5605 -0.915 -0.397 0.067 230 226 224 0 0
1.6139 9.6450 -3.5135 -0.749 -0.422 -0.511 228 224 220 0 0
1.6510 9.5447 -3.4852 -0.749 -0.422 -0.511 227 223 220 0 0
1.6875 9.4461 -3.4574 -0.749 -0.422 -0.511 229 222 217 0 0
2.6044 6.7706 -2.7208 -0.563 -0.717 0.412 223 200 169 0 0
3.0021 6.7780 -2.6219 -0.234 -0.643 0.729 219 198 167 0 0
3.1819 6.7913 -2.5791 0.321 -0.711 0.626 225 208 178 0 0
3.2346 6.7805 -2.5637 -0.493 -0.631 0.600 222 203 174 0 0
3.5063 6.7970 -2.4984 0.273 -0.776 0.569 222 201 169 0 0
3.5192 6.8008 -2.4958 -0.140 -0.716 0.684 227 206 173 0 0
3.6494 6.8102 -2.4648 0.119 -0.765 0.633 224 202 171 0 0
3.8983 6.7961 -2.3993 0.034 -0.814 0.580 226 204 174 0 0
4.0032 6.7960 -2.3729 -0.298 -0.638 0.710 226 203 171 0 0
4.2907 6.7550 -2.2926 -0.097 -0.713 0.694 227 206 177 0 0
4.3173 6.7627 -2.2874 -0.222 -0.637 0.738 228 207 178 0 0
4.3827 6.7567 -2.2698 -0.233 -0.655 0.719 226 205 176 0 0
4.6170 6.7259 -2.2049 -0.256 -0.672 0.695 226 205 175 0 0
4.6976 6.7455 -2.1883 -0.166 -0.764 0.624 228 205 177 0 0
4.9420 6.6915 -2.1164 -0.240 -0.813 0.530 228 207 180 0 0
4.9556 6.6951 -2.1137 -0.196 -0.632 0.750 228 207 178 0 0
5.1621 6.6664 -2.0562 -0.302 -0.699 0.648 224 204 177 0 0
5.1749 6.6642 -2.0525 -0.302 -0.699 0.648 228 209 181 0 0
5.1883 6.6660 -2.0495 0.207 -0.850 0.485 227 208 178 0 0
5.2024 6.6720 -2.0471 0.098 -0.661 0.744 222 203 173 0 0
5.2158 6.6739 -2.0440 -0.118 -0.818 0.563 216 197 167 0 0
5.2280 6.6676 -2.0398 -0.384 -0.602 0.700 223 204 174 0 0
5.2402 6.6615 -2.0355 -0.421 -0.644 0.639 223 204 174 0 0
5.2655 6.6549 -2.0279 -0.395 -0.666 0.634 226 206 177 0 0
5.3050 6.6553 -2.0180 -0.103 -0.575 0.811 228 208 181 0 0
5.3179 6.6535 -2.0144 0.162 -0.605 0.780 224 206 177 0 0
5.4729 6.8617 -2.0147 0.854 -0.474 0.214 234 229 225 0 0
5.4894 6.8787 -2.0137 0.905 -0.419 0.077 233 229 225 0 0
6.4399 8.5814 -2.0957 -0.882 -0.012 -0.471 230 226 222 0 0
6.5074 7.4104 -1.8575 -0.620 -0.669 -0.411 164 145 110 0 0
6.5183 7.3971 -1.8522 -0.620 -0.669 -0.411 171 148 116 0 0
6.7358 7.1154 -1.7442 -0.482 -0.844 -0.236 177 161 132 0 0
6.7715 7.0943 -1.7312 -0.141 -0.970 -0.196 183 166 138 0 0
6.7847 7.0916 -1.7273 -0.141 -0.970 -0.196 180 163 135 0 0
6.7962 7.0833 -1.7229 -0.069 -0.966 -0.248 174 157 129 0 0
6.9373 7.0004 -1.6716 -0.334 -0.940 -0.074 182 166 141 0 0
7.0650 6.9264 -1.6254 -0.202 -0.974 -0.106 166 151 122 0 0
7.0779 6.9235 -1.6216 -0.222 -0.970 -0.102 176 160 134 0 0
7.0906 6.9202 -1.6178 -0.222 -0.970 -0.102 172 156 129 0 0
8.0009 6.9849 -1.4005 0.303 -0.953 -0.022 191 174 148 0 0
1.5837 9.7307 -3.5560 -0.467 -0.425 -0.775 227 223 220 0 0
1.6103 9.6841 -3.5405 -0.749 -0.422 -0.511 227 223 220 0 0
2.0478 8.7622 -3.2545 0.276 -0.827 -0.489 120 75 60 0 0
3.1105 6.7606 -2.6053 -0.267 -0.543 0.796 224 203 174 0 0
3.5102 6.7862 -2.5094 0.327 -0.802 0.500 224 203 172 0 0
3.6274 6.7875 -2.4801 0.158 -0.690 0.706 227 205 174 0 0
3.6926 6.7894 -2.4641 -0.308 -0.667 0.679 226 205 176 0 0
3.8365 6.7753 -2.4251 -0.138 -0.719 0.681 223 201 167 0 0
3.9018 6.7784 -2.4092 -0.105 -0.669 0.736 225 204 175 0 0
4.3070 6.7484 -2.3014 -0.002 -0.701 0.713 227 206 177 0 0
4.3200 6.7464 -2.2977 -0.373 -0.650 0.662 228 207 179 0 0
4.6191 6.7089 -2.2152 -0.118 -0.804 0.582 225 204 175 0 0
4.8406 6.6935 -2.1564 -0.454 -0.659 0.601 223 200 168 0 0
4.9188 6.6883 -2.1357 -0.219 -0.680 0.699 227 208 178 0 0
5.1515 6.6594 -2.0716 0.147 -0.813 0.564 228 208 181 0 0
5.2418 6.6485 -2.0467 -0.441 -0.609 0.659 223 203 175 0 0
5.2915 6.6309 -2.0308 -0.076 -0.610 0.789 227 207 180 0 0
6.6663 7.2000 -1.7927 -0.323 -0.845 -0.426 180 160 130 0 0
6.7893 7.0938 -1.7415 -0.141 -0.970 -0.196 178 161 134 0 0
6.8011 7.0866 -1.7371 -0.069 -0.966 -0.248 174 157 130 0 0
6.8889 7.0112 -1.7007 0.147 -0.983 0.110 178 162 136 0 0
6.9037 7.0136 -1.6974 -0.109 -0.991 0.074 175 160 134 0 0
6.9535 6.9954 -1.6814 -0.334 -0.940 -0.074 180 164 139 0 0
7.0158 6.9335 -1.6539 -0.396 -0.915 -0.079 178 163 134 0 0
7.0972 6.9279 -1.6323 0.068 -0.988 0.136 179 163 137 0 0
7.1243 6.9258 -1.6251 -0.241 -0.969 0.055 173 158 130 0 0
1.4792 9.6003 -3.5760 -0.436 -0.550 0.712 229 225 224 0 0
1.6066 9.7235 -3.5676 -0.749 -0.422 -0.511 226 222 219 0 0
1.6269 9.7072 -3.5593 -0.823 -0.375 -0.426 228 223 220 0 0
2.0499 8.7726 -3.2731 0.007 -0.825 -0.565 120 74 61 0 0
2.0973 8.7717 -3.2610 0.269 -0.879 -0.393 133 86 71 0 0
2.4660 6.8697 -2.8026 -0.857 -0.434 0.279 137 91 77 0 0
2.5759 6.7484 -2.7516 -0.281 -0.813 0.510 217 194 161 0 0
2.6009 6.7521 -2.7460 -0.237 -0.675 0.699 225 202 170 0 0
2.6140 6.7499 -2.7423 -0.392 -0.565 0.726 223 201 170 0 0
2.8963 6.7479 -2.6708 0.075 -0.813 0.577 225 206 176 0 0
2.9086 6.7527 -2.6687 -0.139 -0.819 0.556 222 203 173 0 0
3.3988 6.7507 -2.5448 -0.013 -0.912 0.409 227 208 178 0 0
3.4113 6.7571 -2.5428 0.029 -0.902 0.431 228 209 179 0 0
3.8923 6.7464 -2.4196 -0.347 -0.594 0.726 224 203 174 0 0
3.9053 6.7559 -2.4181 -0.249 -0.720 0.648 227 206 177 0 0
3.9574 6.7438 -2.4027 -0.014 -0.618 0.786 226 205 174 0 0
4.4656 6.7107 -2.2683 -0.524 -0.657 0.542 226 203 172 0 0
5.1526 6.6429 -2.0821 0.106 -0.799 0.592 229 210 181 0 0
5.3045 6.6081 -2.0372 -0.120 -0.723 0.680 228 207 180 0 0
5.4106 6.6926 -2.0267 -0.354 -0.490 0.797 217 204 187 0 0
5.4582 6.8135 -2.0379 0.821 -0.570 -0.038 231 230 225 0 0
6.4299 8.4362 -2.1049 -0.826 -0.174 -0.537 227 224 221 0 0
6.7289 7.1595 -1.7842 -0.489 -0.871 -0.049 170 152 121 0 0
6.7803 7.0975 -1.7594 -0.237 -0.948 -0.210 189 172 145 0 0
6.8311 7.0803 -1.7433 -0.160 -0.983 -0.088 180 164 138 0 0
6.8807 7.0597 -1.7268 -0.267 -0.959 0.090 179 163 137 0 0
6.9336 7.0078 -1.7035 -0.265 -0.956 -0.122 185 171 144 0 0
6.9587 6.9993 -1.6956 -0.312 -0.943 -0.115 183 167 141 0 0
7.0869 6.9273 -1.6494 0.131 -0.975 0.178 166 151 122 0 0
7.4103 6.8641 -1.5558 -0.199 -0.975 0.098 165 149 119 0 0
7.4215 6.8575 -1.5517 -0.042 -0.996 0.081 171 156 127 0 0
7.4345 6.8552 -1.5480 -0.202 -0.977 -0.061 171 156 127 0 0
1.5917 9.8189 -3.6085 -0.733 -0.397 -0.553 227 223 222 0 0
1.6321 9.7027 -3.5758 -0.838 -0.379 -0.393 230 222 220 0 0
1.9564 8.7882 -3.3169 -0.038 -0.928 -0.371 160 113 97 0 0
2.0518 8.7840 -3.2921 0.124 -0.832 -0.540 125 79 66 0 0
2.7873 6.7239 -2.7076 -0.462 -0.590 0.663 222 201 171 0 0
2.8515 6.7220 -2.6910 0.183 -0.668 0.721 222 202 174 0 0
2.8637 6.7271 -2.6890 0.036 -0.762 0.647 221 202 172 0 0
2.8760 6.7311 -2.6866 0.266 -0.751 0.605 223 204 174 0 0
2.8881 6.7370 -2.6847 0.266 -0.751 0.605 222 203 173 0 0
2.9011 6.7357 -2.6812 0.224 -0.907 0.356 223 204 174 0 0
2.9141 6.7341 -2.6776 0.015 -0.999 0.038 223 204 174 0 0
2.9278 6.7264 -2.6727 0.150 -0.976 0.160 224 203 174 0 0
2.9404 6.7287 -2.6700 0.115 -0.976 0.187 223 202 173 0 0
2.9529 6.7312 -2.6673 0.150 -0.976 0.160 223 202 173 0 0
2.9655 6.7330 -2.6645 0.545 -0.833 0.096 221 200 171 0 0
3.1202 6.7281 -2.6246 -0.216 -0.661 0.718 224 204 171 0 0
3.4153 6.7475 -2.5540 -0.128 -0.851 0.509 224 205 175 0 0
3.7264 6.7520 -2.4765 -0.106 -0.651 0.751 225 205 176 0 0
3.7916 6.7448 -2.4587 -0.176 -0.646 0.742 225 206 175 0 0
3.8696 6.7477 -2.4396 -0.152 -0.663 0.733 222 201 171 0 0
3.8827 6.7360 -2.4340 -0.488 -0.633 0.601 224 203 172 0 0
3.8957 6.7339 -2.4304 -0.372 -0.639 0.673 229 208 179 0 0
3.9348 6.7427 -2.4222 -0.460 -0.627 0.629 224 204 174 0 0
3.9608 6.7349 -2.4142 0.061 -0.655 0.754 224 201 170 0 0
4.2472 6.7142 -2.3380 -0.051 -0.678 0.733 224 203 172 0 0
4.2601 6.7122 -2.3344 0.148 -0.742 0.654 223 203 172 0 0
4.3644 6.7096 -2.3076 0.289 -0.817 0.498 223 202 170 0 0
4.3775 6.7105 -2.3045 0.138 -0.848 0.511 223 202 171 0 0
4.4297 6.7084 -2.2909 -0.382 -0.629 0.677 225 204 173 0 0
4.5205 6.6980 -2.2660 -0.205 -0.636 0.743 226 203 171 0 0
4.6111 6.6860 -2.2409 -0.055 -0.605 0.794 224 203 174 0 0
4.7022 6.6801 -2.2168 -0.399 -0.695 0.598 228 207 179 0 0
4.9730 6.6445 -2.1417 -0.269 -0.656 0.705 228 208 181 0 0
5.4118 6.6789 -2.0379 -0.396 -0.486 0.779 220 207 190 0 0
5.4245 6.6757 -2.0340 -0.367 -0.479 0.798 233 229 221 0 0
6.5002 8.9168 -2.1974 -0.829 -0.040 -0.558 229 225 222 0 0
6.4399 8.4593 -2.1240 -0.830 -0.157 -0.535 225 224 220 0 0
6.4448 8.4136 -2.1139 -0.926 -0.110 -0.361 225 224 220 0 0
6.6573 7.2391 -1.8327 -0.293 -0.901 -0.319 173 156 126 0 0
6.6700 7.2335 -1.8285 -0.293 -0.901 -0.319 174 156 126 0 0
6.6840 7.2328 -1.8248 -0.381 -0.905 -0.190 176 159 127 0 0
6.8232 7.0874 -1.7615 -0.289 -0.907 -0.305 183 167 142 0 0
6.8352 7.0808 -1.7573 -0.133 -0.991 -0.003 186 170 144 0 0
6.9503 7.0045 -1.7135 -0.265 -0.956 -0.122 182 166 138 0 0
7.0935 6.9348 -1.6639 0.044 -0.996 -0.072 167 150 120 0 0
7.1459 6.9258 -1.6490 -0.260 -0.962 -0.088 171 156 127 0 0
7.5435 6.8411 -1.5324 -0.048 -0.985 -0.165 174 157 126 0 0
1.6307 9.7315 -3.6005 -0.838 -0.379 -0.393 229 223 220 0 0
1.9597 8.7921 -3.3340 0.087 -0.974 -0.210 157 111 96 0 0
2.0852 8.7962 -3.3032 0.127 -0.857 -0.499 111 67 51 0 0
2.7926 6.7089 -2.7172 -0.462 -0.590 0.663 219 197 167 0 0
2.8793 6.7305 -2.6996 -0.199 -0.857 0.475 221 202 172 0 0
2.9045 6.7339 -2.6939 0.132 -0.952 0.276 226 206 178 0 0
2.9317 6.7214 -2.6847 -0.340 -0.937 0.081 225 205 176 0 0
3.1375 6.7150 -2.6316 -0.143 -0.632 0.761 221 200 169 0 0
3.1501 6.7182 -2.6290 -0.211 -0.612 0.762 225 204 173 0 0
3.1756 6.7198 -2.6229 -0.217 -0.650 0.728 224 201 170 0 0
3.2013 6.7197 -2.6164 -0.233 -0.669 0.705 224 202 171 0 0
3.3298 6.7225 -2.5846 -0.566 -0.641 0.518 227 204 172 0 0
3.7691 6.7337 -2.4762 0.016 -0.636 0.772 226 204 174 0 0
4.0422 6.7156 -2.4039 -0.026 -0.710 0.704 229 206 175 0 0
4.0553 6.7251 -2.4025 -0.202 -0.727 0.656 227 205 174 0 0
4.1720 6.7016 -2.3685 -0.168 -0.686 0.708 220 200 170 0 0
4.1851 6.7034 -2.3656 -0.261 -0.730 0.632 221 200 169 0 0
4.1979 6.6989 -2.3615 -0.192 -0.792 0.579 223 201 169 0 0
4.2109 6.6973 -2.3579 -0.151 -0.713 0.685 223 200 169 0 0
4.2764 6.7077 -2.3434 0.189 -0.815 0.547 224 203 174 0 0
4.4321 6.6898 -2.3007 -0.315 -0.527 0.790 227 206 175 0 0
4.5619 6.6800 -2.2661 -0.457 -0.711 0.535 226 205 174 0 0
4.6000 6.6668 -2.2539 -0.386 -0.657 0.647 226 203 173 0 0
4.7821 6.6596 -2.2067 -0.195 -0.622 0.759 229 210 180 0 0
5.3989 6.6598 -2.0515 0.296 -0.582 0.757 208 189 163 0 0
5.4128 6.6641 -2.0488 -0.098 -0.565 0.819 222 210 194 0 0
6.5546 9.2721 -2.2711 -0.146 -0.989 -0.004 228 224 221 0 0
6.5687 9.2586 -2.2648 0.510 -0.839 0.192 228 224 221 0 0
6.5697 7.3689 -1.8953 -0.358 -0.918 -0.169 168 148 118 0 0
6.5798 7.3536 -1.8898 -0.083 -0.997 0.009 172 153 121 0 0
6.6593 7.2806 -1.8555 -0.371 -0.907 0.198 173 156 126 0 0
6.6881 7.2332 -1.8390 -0.394 -0.915 -0.089 174 157 126 0 0
6.8853 7.0500 -1.7535 -0.106 -0.994 -0.017 178 162 136 0 0
7.0497 6.9575 -1.6941 -0.411 -0.903 0.125 172 158 129 0 0
7.7429 6.9080 -1.5099 -0.163 -0.980 -0.118 181 162 131 0 0
1.6292 9.7604 -3.6252 -0.838 -0.379 -0.393 228 223 220 0 0
1.9636 8.7924 -3.3503 0.289 -0.946 -0.149 157 112 97 0 0
1.9781 8.7994 -3.3481 0.044 -0.947 -0.318 146 101 86 0 0
1.9925 8.8070 -3.3459 0.308 -0.934 -0.180 136 90 75 0 0
2.0548 8.8120 -3.3312 -0.018 -0.919 -0.393 134 90 77 0 0
2.0710 8.8097 -3.3267 -0.018 -0.919 -0.393 120 77 64 0 0
2.0880 8.8031 -3.3211 -0.276 -0.885 -0.376 120 77 62 0 0
2.1037 8.8035 -3.3173 -0.082 -0.996 0.047 137 92 76 0 0
2.1187 8.8083 -3.3144 0.384 -0.920 0.077 142 96 81 0 0
2.4814 6.7603 -2.8196 -0.341 -0.628 0.699 129 82 67 0 0
2.4947 6.7569 -2.8155 -0.020 -0.567 0.824 132 85 70 0 0
2.5214 6.7502 -2.8075 -0.671 -0.505 0.543 196 172 147 0 0
2.6438 6.7018 -2.7672 -0.276 -0.611 0.742 222 200 171 0 0
3.1420 6.7018 -2.6418 -0.143 -0.632 0.761 223 202 171 0 0
3.1545 6.7058 -2.6394 0.024 -0.728 0.685 221 200 169 0 0
3.2057 6.7072 -2.6268 -0.233 -0.669 0.705 223 201 170 0 0
3.2186 6.7061 -2.6233 -0.319 -0.686 0.654 222 201 172 0 0
3.3342 6.7073 -2.5945 -0.140 -0.800 0.584 224 201 169 0 0
3.4623 6.7193 -2.5646 -0.219 -0.836 0.503 222 199 168 0 0
3.7341 6.7129 -2.4950 -0.078 -0.718 0.691 228 207 178 0 0
3.7470 6.7123 -2.4916 -0.130 -0.651 0.748 226 206 177 0 0
3.8508 6.7034 -2.4637 -0.455 -0.670 0.586 218 197 168 0 0
4.1104 6.7012 -2.3980 -0.408 -0.642 0.649 225 206 174 0 0
4.1879 6.6833 -2.3749 -0.139 -0.841 0.522 224 203 171 0 0
4.2009 6.6856 -2.3721 -0.249 -0.708 0.661 222 199 167 0 0
4.2530 6.6870 -2.3593 0.126 -0.667 0.734 225 202 171 0 0
4.7962 6.6349 -2.2123 -0.305 -0.681 0.666 228 208 181 0 0
5.1691 6.5936 -2.1103 -0.327 -0.694 0.641 225 204 175 0 0
5.2443 6.5741 -2.0876 -0.077 -0.676 0.733 228 205 177 0 0
5.2971 6.5782 -2.0751 -0.281 -0.719 0.636 225 202 171 0 0
5.3100 6.5774 -2.0717 -0.253 -0.741 0.623 226 203 172 0 0
5.3224 6.5736 -2.0678 -0.026 -0.731 0.682 225 201 170 0 0
5.4005 6.6488 -2.0630 0.300 -0.641 0.706 208 189 164 0 0
6.4805 9.1561 -2.2853 0.688 -0.408 0.600 229 225 222 0 0
6.4993 9.1635 -2.2820 0.755 -0.516 0.404 229 225 222 0 0
6.5515 9.2391 -2.2838 0.315 -0.889 0.333 228 224 221 0 0
6.5707 9.2472 -2.2805 0.315 -0.889 0.333 227 223 220 0 0
6.5150 7.5247 -1.9551 -0.575 -0.667 -0.474 173 152 121 0 0
6.5716 7.3620 -1.9088 -0.177 -0.796 -0.578 172 152 120 0 0
6.5843 7.3558 -1.9044 -0.175 -0.774 -0.609 171 151 119 0 0
6.6027 7.3192 -1.8926 0.071 -0.975 -0.211 170 152 119 0 0
6.6220 7.2867 -1.8813 0.040 -0.939 0.342 170 154 121 0 0
6.6646 7.2853 -1.8703 -0.193 -0.939 0.286 173 155 125 0 0
6.6786 7.2841 -1.8665 -0.144 -0.965 0.220 177 160 129 0 0
6.8643 7.0598 -1.7756 0.013 -0.993 -0.114 180 164 138 0 0
7.0407 6.9606 -1.7117 -0.061 -0.994 -0.090 175 161 133 0 0
7.1537 6.9261 -1.6764 -0.270 -0.962 -0.036 179 163 135 0 0
7.1663 6.9225 -1.6725 -0.270 -0.962 -0.036 176 161 132 0 0
7.3196 6.8865 -1.6269 -0.035 -0.985 -0.167 177 159 129 0 0
1.6277 9.7895 -3.6501 -0.838 -0.379 -0.393 227 223 220 0 0
1.9667 8.7968 -3.3676 0.209 -0.960 -0.186 166 123 107 0 0
2.0420 8.8172 -3.3527 0.218 -0.972 -0.090 136 91 78 0 0
2.0739 8.8159 -3.3445 0.183 -0.914 -0.361 120 81 66 0 0
2.1057 8.8151 -3.3363 0.176 -0.865 -0.471 126 82 68 0 0
2.1221 8.8115 -3.3314 0.234 -0.971 0.053 125 78 64 0 0
2.5017 6.7347 -2.8233 0.090 -0.520 0.849 132 84 70 0 0
2.5275 6.7324 -2.8163 -0.787 -0.527 0.321 203 179 155 0 0
2.6492 6.6877 -2.7769 -0.276 -0.611 0.742 224 203 174 0 0
3.2082 6.7161 -2.6419 0.282 -0.782 0.556 225 203 172 0 0
3.2230 6.6938 -2.6337 -0.300 -0.663 0.686 224 203 174 0 0
3.2364 6.6858 -2.6288 -0.213 -0.591 0.778 222 201 173 0 0
3.7505 6.7077 -2.5038 -0.455 -0.724 0.518 224 204 175 0 0
3.9838 6.6936 -2.4423 -0.085 -0.663 0.743 224 203 172 0 0
4.7855 6.6243 -2.2268 -0.348 -0.630 0.694 228 208 181 0 0
5.1557 6.5671 -2.1224 -0.146 -0.655 0.742 227 206 176 0 0
5.1687 6.5673 -2.1191 -0.341 -0.694 0.635 227 206 177 0 0
5.2987 6.5665 -2.0863 -0.545 -0.646 0.535 228 205 174 0 0
5.3114 6.5645 -2.0827 -0.276 -0.627 0.729 226 203 172 0 0
5.4012 6.6324 -2.0736 0.503 -0.652 0.568 208 192 167 0 0
5.4918 6.9221 -2.1084 0.885 -0.439 -0.158 232 231 226 0 0
6.3906 8.9658 -2.2884 0.841 -0.342 0.419 228 225 220 0 0
6.4209 9.0247 -2.2925 0.808 -0.358 0.467 229 226 221 0 0
6.5515 9.2192 -2.2982 -0.100 -0.983 0.156 228 224 221 0 0
6.5750 9.2455 -2.2975 0.578 -0.789 0.208 227 223 220 0 0
6.4966 8.5056 -2.1702 -0.811 -0.031 -0.585 223 222 218 0 0
6.5796 7.4269 -1.9350 -0.422 -0.588 -0.690 169 148 117 0 0
6.6116 7.3365 -1.9090 -0.169 -0.809 -0.563 171 155 122 0 0
6.6245 7.2819 -1.8949 0.040 -0.939 0.342 175 158 126 0 0
6.6528 7.2806 -1.8876 -0.052 -0.902 0.429 165 146 116 0 0
6.7180 7.2119 -1.8575 -0.199 -0.965 -0.170 175 156 126 0 0
6.7960 7.1428 -1.8241 -0.363 -0.828 -0.426 178 161 133 0 0
6.8735 7.0762 -1.7914 -0.135 -0.953 -0.270 180 164 138 0 0
7.1200 6.9377 -1.7019 -0.260 -0.962 -0.088 172 158 131 0 0
7.1326 6.9339 -1.6980 -0.260 -0.962 -0.088 174 158 132 0 0
7.2437 6.8958 -1.6625 -0.195 -0.966 -0.171 171 155 129 0 0
7.3243 6.8887 -1.6408 -0.035 -0.985 -0.167 173 156 126 0 0
7.9428 6.9604 -1.4994 0.337 -0.932 -0.131 191 174 146 0 0
1.6790 9.6384 -3.6258 -0.816 -0.406 -0.411 227 223 220 0 0
2.0001 8.8088 -3.3788 -0.053 -0.928 -0.369 144 96 84 0 0
2.0609 8.8228 -3.3664 0.228 -0.902 -0.367 109 67 53 0 0
2.0765 8.8236 -3.3626 0.183 -0.914 -0.361 116 77 62 0 0
2.5065 6.7251 -2.8341 -0.033 -0.606 0.794 133 86 72 0 0
2.5331 6.7182 -2.8260 -0.787 -0.527 0.321 204 181 158 0 0
3.1271 6.6589 -2.6648 0.202 -0.718 0.666 220 201 171 0 0
3.7414 6.6866 -2.5159 -0.034 -0.775 0.631 224 206 176 0 0
3.7543 6.6880 -2.5129 -0.330 -0.670 0.665 227 206 177 0 0
3.7931 6.6835 -2.5022 -0.189 -0.628 0.755 228 207 178 0 0
4.0257 6.6536 -2.4377 -0.061 -0.669 0.741 225 204 173 0 0
4.1808 6.6502 -2.3981 -0.242 -0.654 0.717 230 207 178 0 0
4.3359 6.6436 -2.3577 -0.415 -0.655 0.631 226 204 173 0 0
4.3487 6.6409 -2.3540 -0.155 -0.656 0.739 228 204 173 0 0
4.9795 6.5840 -2.1840 0.102 -0.624 0.775 228 207 179 0 0
4.9915 6.5761 -2.1794 -0.380 -0.575 0.725 229 209 182 0 0
5.1583 6.5615 -2.1345 -0.228 -0.615 0.755 225 206 175 0 0
5.1708 6.5579 -2.1306 -0.296 -0.528 0.796 227 208 178 0 0
5.2061 6.5332 -2.1168 -0.227 -0.696 0.681 226 203 172 0 0
5.2191 6.5337 -2.1136 -0.126 -0.630 0.766 227 204 172 0 0
5.2593 6.5419 -2.1052 0.146 -0.729 0.669 226 203 172 0 0
5.2733 6.5487 -2.1030 0.028 -0.773 0.634 227 204 173 0 0
5.3004 6.5556 -2.0976 -0.545 -0.646 0.535 226 205 175 0 0
5.3121 6.5474 -2.0930 -0.549 -0.608 0.574 226 205 174 0 0
5.4361 6.8141 -2.1153 0.875 -0.451 -0.173 208 192 168 0 0
6.5784 9.2401 -2.3140 0.368 -0.853 0.369 227 223 220 0 0
6.4908 8.3352 -2.1548 -0.772 -0.037 -0.635 224 221 213 0 0
6.5869 7.3877 -1.9408 0.040 -0.721 -0.692 170 149 118 0 0
6.6809 7.2654 -1.8926 -0.365 -0.927 0.089 173 156 124 0 0
6.8000 7.1431 -1.8382 -0.341 -0.935 -0.103 179 162 134 0 0
7.1239 6.9379 -1.7156 -0.260 -0.962 -0.088 173 159 133 0 0
7.1365 6.9341 -1.7117 -0.260 -0.962 -0.088 175 161 134 0 0
7.1481 6.9278 -1.7075 -0.280 -0.960 -0.010 172 156 128 0 0
7.1607 6.9241 -1.7036 -0.280 -0.960 -0.010 159 142 114 0 0
7.1736 6.9214 -1.6998 -0.270 -0.962 -0.036 170 154 124 0 0
7.2008 6.9197 -1.6927 0.002 -1.000 -0.015 172 157 128 0 0
7.2150 6.9203 -1.6892 0.128 -0.985 -0.113 166 151 123 0 0
7.3290 6.8909 -1.6546 -0.035 -0.985 -0.167 167 150 120 0 0
7.5031 6.8742 -1.6075 0.084 -0.985 -0.151 173 156 124 0 0
1.4600 9.4184 -3.6550 -0.673 -0.739 -0.014 231 229 227 0 0
1.4999 9.3878 -3.6387 0.248 -0.592 0.767 231 228 227 0 0
2.0793 8.8306 -3.3806 0.135 -0.895 -0.425 136 96 83 0 0
2.5382 6.7067 -2.8363 -0.816 -0.543 0.201 201 179 156 0 0
2.6851 6.6603 -2.7900 -0.281 -0.628 0.726 223 202 171 0 0
3.2072 6.6548 -2.6576 -0.385 -0.788 0.481 221 200 169 0 0
3.7451 6.6714 -2.5258 -0.055 -0.650 0.758 225 205 176 0 0
3.7839 6.6648 -2.5147 -0.552 -0.616 0.562 227 206 177 0 0
4.0290 6.6450 -2.4491 -0.343 -0.710 0.615 229 207 176 0 0
4.0418 6.6417 -2.4452 -0.236 -0.712 0.662 229 207 176 0 0
4.3646 6.6319 -2.3621 -0.073 -0.646 0.760 226 205 174 0 0
4.5190 6.6150 -2.3199 -0.563 -0.700 0.439 227 205 177 0 0
4.9546 6.5640 -2.2001 -0.270 -0.621 0.736 224 203 175 0 0
4.9938 6.5665 -2.1908 -0.035 -0.631 0.775 228 207 180 0 0
5.0063 6.5626 -2.1868 -0.068 -0.639 0.766 228 208 181 0 0
5.0454 6.5642 -2.1773 0.039 -0.777 0.628 227 204 176 0 0
5.0589 6.5686 -2.1748 -0.019 -0.724 0.689 226 206 176 0 0
5.0952 6.5494 -2.1618 -0.431 -0.616 0.659 225 204 175 0 0
5.2072 6.5178 -2.1273 -0.136 -0.856 0.498 228 206 175 0 0
5.2210 6.5233 -2.1249 -0.306 -0.907 0.288 227 204 173 0 0
5.2880 6.5374 -2.1109 -0.107 -0.625 0.774 229 206 176 0 0
5.3894 6.5988 -2.0978 0.557 -0.607 0.567 215 192 160 0 0
6.8472 7.1015 -1.8329 -0.221 -0.913 -0.342 177 160 132 0 0
7.1642 6.9231 -1.7172 -0.060 -0.940 0.336 165 149 120 0 0
7.1785 6.9240 -1.7138 -0.184 -0.983 -0.010 164 149 118 0 0
7.1910 6.9202 -1.7099 0.037 -0.997 0.066 173 158 127 0 0
7.3212 6.8967 -1.6724 -0.213 -0.943 0.255 175 159 129 0 0
7.7602 6.9117 -1.5651 -0.089 -0.992 -0.090 175 159 126 0 0
8.7366 7.8650 -1.5122 0.831 -0.539 -0.137 242 242 241 0 0
1.6844 9.6541 -3.6648 -0.710 -0.440 -0.549 227 223 221 0 0
2.0819 8.8386 -3.3989 0.119 -0.968 -0.219 149 107 95 0 0
2.0982 8.8362 -3.3943 0.026 -0.967 -0.253 144 103 91 0 0
2.1140 8.8363 -3.3903 0.148 -0.974 -0.169 133 92 79 0 0
2.8955 6.6273 -2.7442 -0.367 -0.830 0.420 222 201 171 0 0
3.3386 6.6501 -2.6375 0.045 -0.693 0.720 224 201 170 0 0
3.3639 6.6547 -2.6321 -0.059 -0.613 0.788 224 200 169 0 0
3.3760 6.6644 -2.6310 -0.211 -0.698 0.684 224 201 170 0 0
3.9678 6.6317 -2.4757 -0.538 -0.603 0.589 227 208 180 0 0
4.3289 6.6258 -2.3838 -0.315 -0.680 0.662 224 203 174 0 0
4.3417 6.6235 -2.3801 -0.315 -0.680 0.662 226 206 176 0 0
4.6355 6.5713 -2.2956 -0.177 -0.779 0.601 230 208 177 0 0
4.9171 6.5457 -2.2197 -0.297 -0.696 0.654 229 208 182 0 0
5.1092 6.5315 -2.1685 -0.317 -0.768 0.557 226 204 173 0 0
5.1993 6.5281 -2.1452 -0.291 -0.545 0.786 227 206 176 0 0
5.2096 6.5106 -2.1390 -0.136 -0.856 0.498 228 206 176 0 0
5.2227 6.5122 -2.1361 -0.349 -0.808 0.475 227 204 173 0 0
6.2630 8.5587 -2.2914 -0.438 -0.724 -0.533 230 226 221 0 0
6.5170 7.6354 -2.0396 -0.732 -0.394 -0.556 173 156 130 0 0
7.0391 6.9917 -1.7773 -0.248 -0.880 -0.405 175 157 131 0 0
7.1663 6.9182 -1.7304 -0.060 -0.940 0.336 172 157 128 0 0
7.1813 6.9212 -1.7272 -0.086 -0.996 -0.026 162 147 116 0 0
7.1946 6.9195 -1.7236 0.037 -0.997 0.066 164 148 118 0 0
7.2088 6.9203 -1.7201 0.093 -0.995 0.038 173 158 128 0 0
7.2231 6.9214 -1.7168 -0.161 -0.976 -0.145 173 158 131 0 0
7.6107 6.8796 -1.6109 -0.028 -0.993 -0.113 165 146 115 0 0
7.6243 6.8789 -1.6073 -0.028 -0.993 -0.113 157 138 108 0 0
7.6373 6.8766 -1.6036 -0.010 -0.996 -0.087 172 151 122 0 0
2.0841 8.8491 -3.4178 0.096 -0.947 -0.306 138 96 84 0 0
2.1001 8.8484 -3.4136 0.039 -0.915 -0.402 137 95 83 0 0
2.1168 8.8435 -3.4084 0.421 -0.850 -0.317 128 87 75 0 0
2.5481 6.6851 -2.8571 -0.806 -0.566 0.174 199 176 153 0 0
2.9003 6.6147 -2.7542 -0.176 -0.854 0.490 221 200 171 0 0
3.1279 6.6188 -2.6979 -0.186 -0.633 0.751 225 206 176 0 0
3.2793 6.6339 -2.6630 -0.062 -0.879 0.472 221 202 172 0 0
3.2930 6.6209 -2.6568 -0.352 -0.769 0.534 222 202 171 0 0
3.3060 6.6177 -2.6529 -0.352 -0.769 0.534 224 202 170 0 0
4.6382 6.5627 -2.3070 -0.143 -0.769 0.623 227 207 175 0 0
4.6761 6.5542 -2.2958 -0.457 -0.617 0.641 225 204 173 0 0
4.7396 6.5438 -2.2777 0.052 -0.756 0.653 228 208 181 0 0
5.0586 6.5144 -2.1916 -0.315 -0.562 0.765 226 205 178 0 0
5.2249 6.5037 -2.1476 -0.227 -0.711 0.665 227 205 174 0 0
5.2506 6.5029 -2.1410 -0.166 -0.567 0.807 225 203 172 0 0
6.6196 7.4094 -1.9832 -0.469 -0.625 -0.624 168 149 118 0 0
6.7505 7.2203 -1.9115 -0.162 -0.894 -0.417 173 156 126 0 0
6.8573 7.1088 -1.8618 -0.306 -0.855 -0.418 177 158 126 0 0
6.9985 7.0251 -1.8092 -0.499 -0.850 -0.168 180 165 136 0 0
7.1703 6.9187 -1.7442 0.054 -0.979 0.194 172 158 128 0 0
7.3363 6.9157 -1.7019 -0.123 -0.989 0.079 174 159 130 0 0
1.7114 9.4739 -3.6579 -0.600 -0.795 0.096 227 223 220 0 0
1.7044 9.5954 -3.6848 -0.619 -0.541 -0.570 227 221 218 0 0
2.1026 8.8573 -3.4322 0.116 -0.909 -0.399 145 104 92 0 0
2.8928 6.5987 -2.7665 -0.008 -0.743 0.669 225 205 176 0 0
3.3473 6.6206 -2.6570 -0.142 -0.653 0.744 224 200 170 0 0
3.5516 6.6167 -2.6049 -0.412 -0.679 0.608 227 205 174 0 0
3.5641 6.6235 -2.6031 -0.191 -0.762 0.619 225 204 173 0 0
3.5770 6.6203 -2.5992 -0.164 -0.693 0.702 227 203 175 0 0
3.8333 6.6087 -2.5325 -0.139 -0.568 0.811 226 205 174 0 0
4.2696 6.5880 -2.4187 -0.234 -0.590 0.773 222 199 167 0 0
4.4997 6.5598 -2.3551 0.106 -0.748 0.655 227 204 173 0 0
4.5134 6.5729 -2.3543 -0.262 -0.705 0.660 226 203 172 0 0
4.6908 6.5355 -2.3021 -0.433 -0.616 0.659 226 205 176 0 0
4.8186 6.5267 -2.2682 -0.199 -0.736 0.648 226 205 176 0 0
5.0490 6.5130 -2.2075 -0.630 -0.735 0.251 227 207 179 0 0
5.2275 6.4983 -2.1596 -0.394 -0.751 0.530 226 206 177 0 0
6.3166 8.6132 -2.3237 -0.610 -0.786 -0.106 228 224 221 0 0
6.6283 7.4255 -1.9998 -0.444 -0.614 -0.653 172 153 123 0 0
6.6389 7.4120 -1.9943 -0.444 -0.614 -0.653 171 154 124 0 0
6.7527 7.2146 -1.9249 -0.233 -0.872 -0.431 173 156 126 0 0
6.8243 7.1703 -1.8978 -0.192 -0.851 -0.489 175 158 129 0 0
6.8618 7.1106 -1.8760 -0.151 -0.927 -0.344 175 157 125 0 0
7.2730 6.9224 -1.7338 -0.034 -0.999 -0.011 171 156 127 0 0
7.4683 6.8873 -1.6775 -0.059 -0.972 -0.229 170 153 125 0 0
2.0226 8.8824 -3.4748 0.033 -0.904 -0.426 156 114 98 0 0
2.9097 6.5902 -2.7743 0.079 -0.836 0.544 226 204 173 0 0
3.3393 6.5997 -2.6684 -0.131 -0.667 0.733 224 201 170 0 0
3.3769 6.6079 -2.6607 -0.100 -0.658 0.746 224 203 173 0 0
3.4037 6.5856 -2.6493 0.184 -0.823 0.538 223 201 170 0 0
3.4287 6.5939 -2.6448 0.138 -0.781 0.610 225 204 175 0 0
4.1444 6.5892 -2.4642 -0.198 -0.676 0.709 222 201 172 0 0
4.5020 6.5442 -2.3651 0.035 -0.722 0.691 224 201 170 0 0
4.5152 6.5490 -2.3628 -0.052 -0.606 0.794 225 202 171 0 0
4.6045 6.5400 -2.3385 -0.332 -0.637 0.696 226 206 177 0 0
5.2398 6.4718 -2.1648 -0.288 -0.631 0.720 225 206 176 0 0
6.7584 7.2202 -1.9398 -0.244 -0.864 -0.441 167 150 122 0 0
6.8194 7.1874 -1.9176 -0.372 -0.858 -0.353 171 154 128 0 0
6.8305 7.1775 -1.9128 -0.192 -0.851 -0.489 172 155 127 0 0
6.8704 7.1250 -1.8918 -0.130 -0.838 -0.529 174 158 127 0 0
6.9171 7.0949 -1.8738 -0.378 -0.883 -0.279 179 163 137 0 0
7.0077 7.0294 -1.8374 -0.307 -0.952 0.009 176 161 132 0 0
7.2371 6.9278 -1.7587 -0.236 -0.961 -0.146 159 144 115 0 0
7.2769 6.9224 -1.7476 -0.060 -0.996 -0.065 169 154 124 0 0
7.2910 6.9226 -1.7441 -0.002 -1.000 -0.010 171 156 125 0 0
7.4757 6.8959 -1.6922 -0.187 -0.981 -0.044 173 156 126 0 0
7.4892 6.8949 -1.6886 0.109 -0.989 0.097 172 155 125 0 0
8.6480 7.7439 -1.5748 0.832 -0.538 -0.134 241 240 238 0 0
1.7636 9.5079 -3.6886 -0.731 -0.537 -0.422 224 222 220 0 0
2.9142 6.5792 -2.7845 0.053 -0.689 0.723 224 201 170 0 0
3.2186 6.5640 -2.7050 0.021 -0.626 0.780 223 202 173 0 0
3.3709 6.5563 -2.6651 0.087 -0.694 0.714 220 197 166 0 0
3.3833 6.5602 -2.6629 0.087 -0.694 0.714 222 200 169 0 0
3.4302 6.6217 -2.6640 0.143 -0.701 0.698 224 201 172 0 0
3.8403 6.5779 -2.5519 -0.109 -0.715 0.690 226 206 178 0 0
4.0577 6.5717 -2.4961 -0.131 -0.654 0.745 229 207 177 0 0
4.0960 6.5649 -2.4851 -0.287 -0.581 0.762 225 206 176 0 0
4.3771 6.5454 -2.4104 -0.445 -0.677 0.586 227 208 178 0 0
4.4520 6.5100 -2.3843 -0.498 -0.637 0.588 224 203 172 0 0
4.4790 6.5330 -2.3823 0.291 -0.635 0.715 224 203 172 0 0
4.7076 6.5044 -2.3189 -0.304 -0.623 0.721 225 204 175 0 0
5.3741 6.5598 -2.1634 0.251 -0.919 0.305 218 197 162 0 0
6.3299 8.5614 -2.3443 -0.056 -0.946 -0.320 226 222 219 0 0
6.7469 7.2633 -1.9669 -0.211 -0.815 -0.539 177 162 133 0 0
6.7765 7.2200 -1.9503 -0.134 -0.875 -0.466 175 158 130 0 0
6.9097 7.1035 -1.8924 -0.422 -0.870 -0.254 171 154 129 0 0
6.9213 7.0957 -1.8879 -0.295 -0.868 -0.400 175 159 133 0 0
7.0495 7.0171 -1.8392 0.093 -0.967 -0.236 177 161 137 0 0
7.1354 6.9827 -1.8104 -0.156 -0.979 -0.135 174 157 129 0 0
7.2810 6.9228 -1.7614 -0.002 -1.000 -0.010 169 153 123 0 0
7.2949 6.9228 -1.7578 -0.002 -1.000 -0.010 170 155 124 0 0
7.4687 6.9036 -1.7102 0.277 -0.959 -0.056 173 156 127 0 0
7.5329 6.8900 -1.6912 -0.036 -0.997 -0.072 175 160 131 0 0
7.5606 6.8894 -1.6842 0.148 -0.988 0.042 172 156 126 0 0
7.5760 6.8928 -1.6810 0.150 -0.973 -0.174 169 153 122 0 0
7.7067 6.9045 -1.6507 0.012 -1.000 -0.012 169 153 127 0 0
7.7208 6.9047 -1.6472 0.012 -1.000 -0.012 173 157 131 0 0
7.7348 6.9048 -1.6437 0.012 -1.000 -0.012 172 157 129 0 0
8.5483 7.5936 -1.5844 0.821 -0.553 -0.138 230 225 218 0 0
8.6054 7.6793 -1.5881 0.821 -0.553 -0.138 241 241 238 0 0
1.7700 9.4966 -3.7030 -0.780 -0.501 -0.374 225 223 221 0 0
2.0266 8.9051 -3.5134 -0.338 -0.941 -0.006 141 99 85 0 0
2.0429 8.9031 -3.5089 0.177 -0.940 -0.293 144 102 88 0 0
2.1192 8.9241 -3.4942 0.310 -0.919 -0.244 128 85 73 0 0
2.6693 6.5564 -2.8548 -0.224 -0.607 0.762 217 195 164 0 0
2.7575 6.5528 -2.8319 -0.392 -0.606 0.693 220 201 171 0 0
2.9330 6.5543 -2.7882 -0.312 -0.614 0.725 222 199 168 0 0
3.8310 6.5694 -2.5663 0.177 -0.717 0.674 225 204 173 0 0
3.8438 6.5676 -2.5627 -0.039 -0.705 0.708 225 205 175 0 0
4.2136 6.5325 -2.4625 -0.229 -0.724 0.651 221 200 171 0 0
4.3286 6.5305 -2.4333 -0.244 -0.657 0.713 228 209 179 0 0
4.3411 6.5259 -2.4292 -0.143 -0.722 0.677 229 208 179 0 0
4.3539 6.5258 -2.4259 -0.178 -0.820 0.543 225 204 175 0 0
4.3919 6.5182 -2.4148 -0.263 -0.663 0.701 225 206 176 0 0
4.4047 6.5186 -2.4117 -0.073 -0.758 0.648 226 204 173 0 0
4.4552 6.5080 -2.3967 -0.553 -0.693 0.463 223 202 172 0 0
4.5443 6.5019 -2.3731 -0.268 -0.583 0.767 223 202 171 0 0
4.6093 6.5146 -2.3595 -0.332 -0.637 0.696 227 206 177 0 0
4.6224 6.5177 -2.3569 -0.217 -0.657 0.722 227 205 176 0 0
4.6858 6.5099 -2.3393 -0.267 -0.629 0.731 225 205 174 0 0
4.7098 6.4913 -2.3294 -0.304 -0.623 0.721 225 204 175 0 0
5.0004 6.4561 -2.2491 -0.264 -0.939 0.220 227 208 178 0 0
5.0130 6.4544 -2.2455 -0.176 -0.974 0.140 226 207 177 0 0
5.1153 6.4525 -2.2195 0.337 -0.703 0.626 223 202 173 0 0
5.2778 6.4257 -2.1731 -0.207 -0.618 0.758 225 204 175 0 0
5.3760 6.5502 -2.1748 0.282 -0.953 0.110 216 195 160 0 0
5.4343 6.5121 -2.1521 -0.900 -0.435 0.008 234 231 224 0 0
6.3461 9.2939 -2.5126 -0.964 -0.265 -0.001 231 228 223 0 0
6.4074 9.4154 -2.5230 0.214 -0.570 0.793 228 226 221 0 0
6.3517 8.6373 -2.3722 0.725 -0.547 -0.417 225 221 218 0 0
6.5185 9.0669 -2.4213 0.375 -0.369 0.850 223 220 215 0 0
6.7828 7.2275 -1.9655 -0.063 -0.887 -0.457 176 160 132 0 0
6.9637 7.0842 -1.8898 -0.087 -0.994 -0.063 176 160 132 0 0
7.0409 7.0217 -1.8572 -0.420 -0.883 -0.210 185 169 144 0 0
7.1398 6.9839 -1.8244 -0.156 -0.979 -0.135 177 160 132 0 0
7.5703 6.9035 -1.6994 0.015 -0.999 -0.050 171 156 127 0 0
8.5184 7.5546 -1.5996 0.798 -0.573 -0.185 219 209 198 0 0
8.5667 7.6225 -1.6019 0.798 -0.573 -0.185 240 238 233 0 0
8.6149 7.6899 -1.6040 0.798 -0.573 -0.186 239 241 238 0 0
1.5481 9.4543 -3.7680 -0.160 -0.963 -0.217 229 228 226 0 0
1.7727 9.5045 -3.7224 -0.868 -0.456 -0.197 226 222 221 0 0
2.1229 8.9264 -3.5112 0.296 -0.883 -0.364 143 103 89 0 0
2.1363 8.9416 -3.5111 0.224 -0.844 -0.488 140 97 87 0 0
2.7381 6.5357 -2.8468 -0.412 -0.739 0.533 220 201 171 0 0
2.7506 6.5358 -2.8437 -0.359 -0.736 0.574 224 203 173 0 0
2.8386 6.5324 -2.8209 -0.421 -0.578 0.699 223 203 176 0 0
2.8619 6.5464 -2.8181 -0.705 -0.692 -0.158 222 201 172 0 0
3.1256 6.5479 -2.7523 -0.315 -0.744 0.589 223 203 172 0 0
3.3409 6.5355 -2.6957 -0.370 -0.680 0.633 223 199 165 0 0
3.4016 6.5741 -2.6887 -0.211 -0.641 0.738 226 205 174 0 0
3.4646 6.5816 -2.6745 -0.103 -0.699 0.708 225 201 170 0 0
3.4905 6.5736 -2.6663 -0.393 -0.647 0.653 223 200 169 0 0
3.8346 6.5438 -2.5737 -0.357 -0.520 0.776 225 202 171 0 0
4.0256 6.5322 -2.5233 0.124 -0.642 0.756 226 205 176 0 0
4.1912 6.5263 -2.4806 -0.356 -0.604 0.713 226 202 173 0 0
4.2422 6.5234 -2.4672 -0.072 -0.573 0.816 225 204 175 0 0
4.3566 6.5119 -2.4361 -0.171 -0.669 0.723 227 206 177 0 0
4.3946 6.5060 -2.4253 -0.263 -0.663 0.701 228 204 176 0 0
4.4581 6.4997 -2.4080 -0.550 -0.765 0.336 224 205 175 0 0
4.4700 6.4872 -2.4024 -0.249 -0.778 0.577 227 208 178 0 0
4.5468 6.4898 -2.3837 -0.123 -0.656 0.745 225 202 170 0 0
4.5598 6.4935 -2.3812 0.190 -0.670 0.718 220 197 165 0 0
4.5731 6.4994 -2.3791 0.190 -0.670 0.718 222 199 167 0 0
4.6116 6.5017 -2.3699 -0.233 -0.669 0.706 227 204 173 0 0
4.9632 6.4377 -2.2682 0.099 -0.711 0.696 221 200 171 0 0
4.9769 6.4451 -2.2663 0.008 -0.719 0.695 224 203 174 0 0
4.9894 6.4431 -2.2628 0.077 -0.716 0.694 227 206 176 0 0
5.0021 6.4424 -2.2594 -0.145 -0.838 0.526 226 207 177 0 0
5.2162 6.4190 -2.2008 0.184 -0.837 0.515 226 205 176 0 0
5.3665 6.5506 -2.1912 0.239 -0.965 -0.110 216 192 157 0 0
5.3801 6.5536 -2.1884 0.239 -0.965 -0.110 215 190 155 0 0
5.4280 6.5298 -2.1713 -0.591 -0.738 -0.327 231 231 221 0 0
5.4429 6.5404 -2.1699 -0.464 -0.873 -0.148 232 231 224 0 0
6.4970 8.9562 -2.4212 -0.387 -0.474 0.791 223 219 216 0 0
6.5501 9.0372 -2.4252 0.628 -0.325 0.707 222 218 215 0 0
6.5944 9.0794 -2.4231 0.684 -0.499 0.532 222 218 214 0 0
6.6155 9.0958 -2.4213 0.736 -0.562 0.378 222 219 214 0 0
6.6659 7.4496 -2.0574 -0.261 -0.785 -0.562 166 145 117 0 0
6.7601 7.2802 -1.9976 -0.211 -0.815 -0.539 168 151 123 0 0
6.7763 7.2398 -1.9849 -0.126 -0.948 -0.292 172 156 130 0 0
6.7890 7.2348 -1.9807 -0.031 -0.942 -0.334 179 163 137 0 0
6.9802 7.0797 -1.8996 -0.447 -0.895 0.013 179 165 138 0 0
7.1310 6.9878 -1.8422 -0.156 -0.979 -0.135 171 156 129 0 0
7.1441 6.9852 -1.8384 -0.156 -0.979 -0.135 180 165 138 0 0
7.1918 6.9625 -1.8216 -0.319 -0.915 -0.248 175 159 133 0 0
7.2270 6.9442 -1.8089 -0.243 -0.931 -0.273 169 153 127 0 0
7.2393 6.9398 -1.8048 -0.243 -0.931 -0.273 173 157 131 0 0
7.4548 6.9190 -1.7464 -0.203 -0.976 -0.082 176 160 133 0 0
8.5865 7.6543 -1.6197 0.781 -0.571 -0.253 240 240 237 0 0
1.5360 9.3742 -3.7720 -0.406 -0.647 0.646 230 229 227 0 0
1.7692 9.2011 -3.6764 -0.616 -0.658 -0.432 228 224 222 0 0
1.7565 9.3502 -3.7116 -0.606 -0.796 0.007 227 223 221 0 0
1.8003 9.2094 -3.6704 0.097 -0.876 -0.473 227 223 220 0 0
2.1101 8.9308 -3.5328 0.192 -0.908 -0.373 136 98 86 0 0
2.1258 8.9327 -3.5293 0.192 -0.908 -0.373 131 91 80 0 0
2.6815 6.5178 -2.8708 -0.376 -0.666 0.644 222 199 168 0 0
2.7301 6.5261 -2.8603 0.320 -0.767 0.556 221 202 171 0 0
2.7426 6.5265 -2.8573 -0.389 -0.770 0.506 219 200 170 0 0
2.7563 6.5180 -2.8521 -0.239 -0.721 0.650 218 197 167 0 0
2.8679 6.5245 -2.8255 -0.060 -0.734 0.676 223 202 173 0 0
3.3443 6.5342 -2.7082 -0.228 -0.845 0.483 221 197 165 0 0
3.3571 6.5312 -2.7044 0.005 -0.890 0.456 222 199 166 0 0
3.6097 6.5350 -2.6419 -0.227 -0.641 0.733 225 204 173 0 0
3.6351 6.5333 -2.6352 -0.285 -0.613 0.737 227 204 173 0 0
3.6859 6.5291 -2.6215 -0.238 -0.641 0.730 223 200 169 0 0
4.0288 6.5205 -2.5338 0.124 -0.642 0.756 230 209 180 0 0
4.0796 6.5172 -2.5203 -0.134 -0.618 0.775 229 208 179 0 0
4.1942 6.5139 -2.4909 -0.336 -0.709 0.620 226 203 173 0 0
4.2069 6.5139 -2.4877 -0.217 -0.716 0.664 225 204 175 0 0
4.2450 6.5085 -2.4770 -0.096 -0.674 0.733 224 203 175 0 0
4.2833 6.5112 -2.4680 -0.247 -0.623 0.742 226 206 179 0 0
4.3468 6.5045 -2.4507 -0.005 -0.758 0.652 226 207 177 0 0
4.3598 6.5089 -2.4484 -0.210 -0.756 0.619 225 205 176 0 0
4.4229 6.4959 -2.4297 -0.442 -0.529 0.725 225 202 170 0 0
4.4477 6.4845 -2.4211 -0.405 -0.848 0.341 226 203 173 0 0
4.4731 6.4820 -2.4142 -0.553 -0.693 0.463 226 207 177 0 0
4.5358 6.4676 -2.3954 -0.244 -0.804 0.542 227 204 173 0 0
4.6255 6.4740 -2.3743 0.116 -0.833 0.540 221 200 169 0 0
4.6384 6.4750 -2.3713 -0.109 -0.789 0.605 221 199 168 0 0
5.0049 6.4375 -2.2714 -0.005 -0.772 0.636 226 207 177 0 0
5.0172 6.4338 -2.2675 -0.296 -0.823 0.484 225 204 175 0 0
5.3913 6.5988 -2.2092 -0.936 -0.262 -0.235 214 188 153 0 0
5.4319 6.5325 -2.1848 -0.591 -0.738 -0.327 231 231 223 0 0
5.4467 6.5421 -2.1832 -0.399 -0.881 -0.253 231 231 224 0 0
5.4664 6.5791 -2.1862 -0.201 -0.873 0.444 232 231 227 0 0
6.3056 9.1429 -2.5273 0.905 -0.414 0.092 229 225 222 0 0
6.3429 8.3530 -2.3481 -0.464 -0.849 -0.253 222 218 215 0 0
6.6000 9.0834 -2.4407 0.706 -0.576 0.411 221 218 213 0 0
6.6188 9.0903 -2.4375 0.709 -0.496 0.502 221 218 214 0 0
6.7604 7.2686 -2.0103 -0.338 -0.832 -0.439 170 153 125 0 0
6.7778 7.2784 -2.0080 -0.322 -0.798 -0.509 173 156 128 0 0
6.7813 7.2432 -1.9996 -0.289 -0.945 -0.152 171 155 127 0 0
6.8184 7.2245 -1.9863 -0.432 -0.859 -0.274 179 162 136 0 0
6.9040 7.1365 -1.9459 0.130 -0.828 -0.545 176 160 134 0 0
7.0783 7.0258 -1.8784 -0.064 -0.916 -0.395 179 165 139 0 0
7.2074 6.9563 -1.8311 0.167 -0.973 -0.158 173 157 129 0 0
7.6671 6.9155 -1.7072 0.095 -0.925 -0.368 177 161 135 0 0
7.7040 6.9360 -1.7024 -0.115 -0.918 -0.379 180 164 139 0 0
1.5801 9.3421 -3.7722 -0.573 -0.409 0.711 229 228 226 0 0
1.7624 9.3412 -3.7263 -0.358 -0.928 0.103 228 225 222 0 0
1.8038 9.2126 -3.6881 0.030 -0.944 -0.329 228 224 222 0 0
2.1114 8.9468 -3.5535 0.177 -0.888 -0.425 138 100 86 0 0
2.1285 8.9409 -3.5479 0.192 -0.908 -0.373 149 111 97 0 0
2.1445 8.9409 -3.5439 -0.066 -0.955 -0.288 136 96 85 0 0
2.5570 6.6125 -2.9360 -0.746 -0.664 0.037 136 93 80 0 0
2.6317 6.5371 -2.9010 -0.744 -0.627 0.232 216 194 164 0 0
2.7479 6.5114 -2.8663 -0.337 -0.629 0.701 218 199 168 0 0
2.8733 6.5065 -2.8338 -0.218 -0.758 0.615 223 202 171 0 0
3.2859 6.5164 -2.7327 -0.040 -0.579 0.814 226 203 175 0 0
3.3485 6.5195 -2.7177 -0.357 -0.899 0.254 220 197 165 0 0
3.6643 6.5159 -2.6378 -0.520 -0.621 0.587 225 204 175 0 0
3.6774 6.5016 -2.6314 0.166 -0.955 0.247 225 203 172 0 0
3.6899 6.5044 -2.6289 0.166 -0.955 0.247 223 201 170 0 0
4.0446 6.4997 -2.5390 -0.383 -0.599 0.703 224 203 173 0 0
4.0827 6.5039 -2.5304 -0.134 -0.618 0.775 224 203 173 0 0
4.0954 6.5041 -2.5273 -0.075 -0.598 0.798 224 204 174 0 0
4.2606 6.4975 -2.4845 -0.160 -0.726 0.669 226 207 178 0 0
4.2735 6.5008 -2.4820 -0.291 -0.809 0.512 227 207 180 0 0
4.3623 6.4926 -2.4579 -0.108 -0.741 0.663 225 204 175 0 0
4.4508 6.4795 -2.4329 -0.144 -0.764 0.629 227 204 173 0 0
4.4632 6.4740 -2.4286 -0.405 -0.848 0.341 227 206 175 0 0
4.4758 6.4723 -2.4251 -0.290 -0.869 0.401 225 205 175 0 0
4.5386 6.4592 -2.4066 0.021 -0.820 0.571 224 202 171 0 0
4.6269 6.4495 -2.3823 -0.004 -0.820 0.572 223 202 171 0 0
4.6402 6.4563 -2.3805 0.204 -0.775 0.599 221 200 169 0 0
4.7162 6.4516 -2.3604 -0.385 -0.737 0.556 228 207 178 0 0
4.9169 6.4211 -2.3035 -0.528 -0.639 0.559 225 204 175 0 0
4.9293 6.4182 -2.2998 -0.533 -0.618 0.578 224 204 175 0 0
4.9673 6.4165 -2.2899 0.061 -0.687 0.724 228 211 183 0 0
4.9806 6.4203 -2.2874 0.061 -0.687 0.724 228 209 182 0 0
5.0812 6.4097 -2.2599 -0.303 -0.717 0.627 226 205 176 0 0
5.0938 6.4087 -2.2566 -0.159 -0.659 0.735 225 204 176 0 0
5.1076 6.4163 -2.2547 -0.121 -0.744 0.657 223 202 173 0 0
5.1199 6.4131 -2.2510 -0.320 -0.856 0.406 223 202 172 0 0
5.1323 6.4103 -2.2473 -0.320 -0.856 0.406 225 204 173 0 0
5.3864 6.6265 -2.2305 -0.913 -0.296 -0.282 214 190 154 0 0
5.4742 6.6028 -2.2034 0.437 -0.581 0.686 232 231 226 0 0
6.6225 9.0864 -2.4540 0.711 -0.689 -0.140 220 217 213 0 0
6.6670 7.4762 -2.0939 -0.226 -0.811 -0.540 174 154 127 0 0
6.6798 7.4696 -2.0893 -0.226 -0.811 -0.540 171 153 124 0 0
6.7661 7.2742 -2.0253 -0.338 -0.832 -0.439 167 152 123 0 0
6.7812 7.2764 -2.0220 -0.387 -0.903 -0.187 169 154 123 0 0
6.7894 7.2566 -2.0157 0.036 -0.975 -0.218 174 159 129 0 0
6.8366 7.2243 -1.9968 0.069 -0.907 -0.415 172 154 130 0 0
6.9350 7.1324 -1.9523 -0.236 -0.824 -0.515 175 160 133 0 0
2.1317 8.9461 -3.5657 0.103 -0.869 -0.484 146 109 92 0 0
2.1471 8.9500 -3.5627 0.030 -0.885 -0.465 134 94 82 0 0
2.7916 6.4884 -2.8639 -0.335 -0.557 0.760 220 201 169 0 0
2.8560 6.4719 -2.8442 -0.114 -0.706 0.699 222 203 173 0 0
3.2901 6.5029 -2.7423 -0.134 -0.572 0.809 224 203 174 0 0
3.6300 6.5038 -2.6574 -0.342 -0.631 0.696 225 204 173 0 0
3.6806 6.5011 -2.6442 0.090 -0.866 0.493 226 205 175 0 0
3.6932 6.5028 -2.6414 0.001 -0.907 0.422 227 206 176 0 0
3.7060 6.4973 -2.6370 -0.118 -0.888 0.444 227 206 175 0 0
3.7311 6.5030 -2.6319 0.231 -0.899 0.373 221 200 170 0 0
3.8577 6.5027 -2.6002 -0.111 -0.674 0.730 224 201 169 0 0
4.4536 6.4706 -2.4440 -0.135 -0.742 0.657 227 205 175 0 0
4.4787 6.4650 -2.4365 -0.602 -0.782 0.158 226 205 174 0 0
4.4909 6.4570 -2.4317 -0.309 -0.768 0.561 225 204 175 0 0
4.9313 6.4065 -2.3104 -0.533 -0.618 0.578 224 204 175 0 0
5.3902 6.6277 -2.2438 -0.913 -0.296 -0.282 212 188 153 0 0
5.8998 6.7226 -2.1370 -0.373 -0.884 0.280 225 221 218 0 0
6.3558 8.3711 -2.3827 -0.568 -0.446 0.691 222 218 215 0 0
6.4931 8.8822 -2.4599 -0.301 -0.376 0.876 221 217 214 0 0
6.6453 9.1606 -2.4826 0.770 -0.637 0.035 217 216 212 0 0
6.6728 7.4823 -2.1093 -0.149 -0.826 -0.543 177 157 130 0 0
6.6864 7.4786 -2.1051 -0.094 -0.873 -0.479 175 157 129 0 0
6.7808 7.2627 -2.0343 0.036 -0.945 -0.325 169 154 123 0 0
6.8300 7.2364 -2.0163 -0.294 -0.846 -0.445 172 156 131 0 0
6.8419 7.2289 -2.0116 -0.045 -0.955 -0.294 176 159 134 0 0
6.8524 7.2167 -2.0064 -0.314 -0.933 -0.175 173 156 132 0 0
6.9191 7.1585 -1.9770 0.074 -0.900 -0.430 174 158 131 0 0
7.0213 7.0828 -1.9349 -0.173 -0.945 -0.278 179 165 138 0 0
7.0345 7.0800 -1.9309 -0.169 -0.938 -0.301 183 169 143 0 0
7.6114 6.9311 -1.7540 0.217 -0.948 -0.234 178 161 133 0 0
8.0179 7.0511 -1.6784 0.145 -0.988 0.057 198 181 155 0 0
8.6753 7.8093 -1.6794 0.777 -0.555 -0.297 239 239 237 0 0
1.6006 9.2057 -3.7733 -0.441 -0.897 0.038 230 229 226 0 0
2.1494 8.9601 -3.5819 0.030 -0.885 -0.465 137 97 87 0 0
2.7971 6.4717 -2.8725 -0.201 -0.639 0.742 218 199 169 0 0
2.8095 6.4715 -2.8693 -0.201 -0.639 0.742 224 204 174 0 0
3.1685 6.4964 -2.7850 -0.118 -0.927 0.356 223 200 169 0 0
3.1814 6.4920 -2.7807 -0.529 -0.773 0.351 221 198 167 0 0
3.6970 6.4870 -2.6506 -0.094 -0.739 0.667 225 206 176 0 0
3.7095 6.4903 -2.6482 -0.109 -0.883 0.456 227 208 178 0 0
3.8865 6.4778 -2.6012 -0.215 -0.528 0.822 224 203 173 0 0
