ply
format ascii 1.0
element vertex 825
property float x
property float y
property float z
property float nx
property float ny
property float nz
property uchar diffuse_red
property uchar diffuse_green
property uchar diffuse_blue
property uchar class
property uchar detection
end_header
3.3722 6.3022 -2.8540 0.083 -0.657 0.749 225 205 175 0 0
3.8231 6.3696 -2.6870 -0.184 -0.670 0.720 226 205 176 0 0
3.8470 6.3754 -2.6787 -0.102 -0.662 0.742 226 203 172 0 0
3.9572 6.3911 -2.6377 -0.171 -0.985 -0.030 226 207 177 0 0
3.9835 6.3862 -2.6261 -0.171 -0.985 -0.030 226 205 176 0 0
3.9994 6.3707 -2.6163 -0.242 -0.967 0.081 225 204 175 0 0
4.1657 6.4203 -2.5601 -0.261 -0.634 0.728 225 206 178 0 0
4.2033 6.4214 -2.5452 -0.343 -0.711 0.614 227 206 177 0 0
4.3664 6.4236 -2.4801 -0.296 -0.696 0.655 227 206 177 0 0
4.3781 6.4286 -2.4764 -0.277 -0.599 0.751 225 203 173 0 0
4.5751 6.4523 -2.4023 -0.350 -0.645 0.679 227 204 174 0 0
4.6473 6.4733 -2.3777 0.154 -0.615 0.773 223 201 170 0 0
4.6590 6.4801 -2.3745 0.142 -0.709 0.691 223 200 169 0 0
4.9823 6.4941 -2.2474 -0.030 -0.793 0.608 222 203 173 0 0
5.0058 6.5105 -2.2415 -0.393 -0.820 0.417 226 206 179 0 0
5.4460 7.0544 -2.1805 0.961 -0.095 0.260 196 174 142 0 0
5.4554 7.1681 -2.2010 0.946 -0.278 0.166 195 175 146 0 0
5.4658 7.2593 -2.2163 -0.462 -0.711 -0.531 195 178 156 0 0
5.5093 7.1375 -2.1728 -0.805 -0.390 -0.448 231 227 221 0 0
5.5179 7.3215 -2.2086 0.825 -0.560 0.072 228 228 224 0 0
6.3537 7.8512 -1.9855 0.851 -0.252 0.461 231 228 219 0 0
6.3777 8.0066 -2.0091 -0.844 -0.212 -0.492 204 197 183 0 0
6.4560 7.5378 -1.8775 -0.396 -0.884 -0.247 181 159 127 0 0
6.6294 7.2385 -1.7439 -0.592 -0.742 -0.316 183 161 129 0 0
7.2839 6.8486 -1.3975 0.025 -0.998 -0.061 172 157 130 0 0
7.3072 6.8421 -1.3868 0.059 -0.985 0.165 176 160 134 0 0
7.3212 6.8517 -1.3832 0.208 -0.975 0.076 173 157 131 0 0
7.3435 6.8399 -1.3717 -0.055 -0.998 -0.031 167 150 124 0 0
7.3554 6.8380 -1.3665 -0.093 -0.993 -0.067 172 157 128 0 0
7.4265 6.8270 -1.3356 0.065 -0.998 -0.020 180 163 132 0 0
7.4932 6.8561 -1.3149 0.249 -0.965 0.080 172 154 121 0 0
7.5875 6.8406 -1.2737 0.098 -0.993 -0.069 165 146 113 0 0
7.7514 6.8679 -1.2136 0.402 -0.915 0.012 170 146 110 0 0
7.7635 6.8674 -1.2087 0.277 -0.960 0.033 171 147 111 0 0
7.7765 6.8713 -1.2043 0.277 -0.960 0.033 180 157 123 0 0
7.7901 6.8773 -1.2001 0.122 -0.993 -0.007 180 157 123 0 0
8.0461 7.0235 -1.1283 0.583 -0.779 0.232 201 180 150 0 0
8.0904 7.0519 -1.1166 0.394 -0.910 0.127 199 178 145 0 0
8.1325 7.0712 -1.1038 -0.018 -0.990 0.142 204 185 153 0 0
8.1767 7.0979 -1.0917 0.582 -0.800 0.145 208 188 161 0 0
8.2314 7.1617 -1.0833 0.710 -0.666 0.226 209 191 164 0 0
8.6374 7.8565 -1.0683 0.843 -0.378 0.383 230 219 207 0 0
8.6728 7.9299 -1.0697 0.841 -0.385 0.380 246 242 236 0 0
2.7466 6.3110 -3.1220 -0.735 -0.676 0.056 237 235 232 0 0
3.5387 6.3118 -2.8034 -0.163 -0.644 0.747 221 200 170 0 0
3.6231 6.3274 -2.7728 -0.272 -0.648 0.711 221 202 172 0 0
3.6356 6.3279 -2.7679 -0.156 -0.667 0.729 224 205 175 0 0
3.6847 6.3336 -2.7494 0.033 -0.746 0.665 227 206 179 0 0
3.9521 6.3775 -2.6512 -0.332 -0.869 0.366 225 206 176 0 0
3.9880 6.3865 -2.6388 -0.278 -0.853 0.441 224 203 174 0 0
4.0020 6.3802 -2.6318 -0.290 -0.929 0.230 224 203 174 0 0
4.0140 6.3832 -2.6276 -0.430 -0.686 0.586 224 203 174 0 0
4.1729 6.4073 -2.5689 -0.261 -0.634 0.728 223 205 178 0 0
4.5815 6.4395 -2.4114 -0.342 -0.648 0.680 229 208 179 0 0
4.6783 6.4635 -2.3776 -0.143 -0.567 0.811 227 205 175 0 0
4.8791 6.4531 -2.2946 -0.218 -0.669 0.710 224 203 174 0 0
4.9151 6.4656 -2.2828 0.066 -0.771 0.633 225 204 175 0 0
4.9273 6.4676 -2.2783 0.075 -0.743 0.665 225 204 175 0 0
4.9384 6.4813 -2.2768 -0.125 -0.667 0.735 226 205 176 0 0
5.0508 6.4760 -2.2304 -0.605 -0.787 0.117 226 205 175 0 0
5.0635 6.4723 -2.2245 -0.490 -0.807 0.331 221 200 171 0 0
5.0767 6.4630 -2.2172 -0.138 -0.849 0.509 225 204 175 0 0
5.0893 6.4602 -2.2115 0.085 -0.972 0.219 228 208 179 0 0
5.1023 6.4513 -2.2044 -0.289 -0.955 0.067 227 207 179 0 0
5.4489 7.1168 -2.2081 0.964 -0.202 0.171 193 171 139 0 0
5.4707 7.2677 -2.2318 -0.462 -0.711 -0.531 196 178 157 0 0
5.4848 7.2440 -2.2210 -0.855 -0.323 -0.405 225 218 206 0 0
5.5231 7.3207 -2.2221 0.659 -0.665 0.351 228 227 225 0 0
6.3754 7.8850 -2.0006 0.642 -0.568 0.514 209 204 190 0 0
6.6340 7.2330 -1.7563 -0.479 -0.794 -0.375 185 164 132 0 0
6.6459 7.2217 -1.7491 -0.013 -0.975 -0.224 186 166 133 0 0
6.7274 7.1352 -1.6977 -0.321 -0.906 -0.276 187 171 143 0 0
6.7504 7.1112 -1.6833 -0.080 -0.942 -0.327 178 163 134 0 0
7.1003 6.9007 -1.4972 -0.079 -0.997 -0.015 184 169 145 0 0
7.1129 6.9021 -1.4924 0.071 -0.941 0.330 186 170 144 0 0
7.2885 6.8463 -1.4098 -0.119 -0.992 -0.039 173 158 130 0 0
7.3246 6.8428 -1.3945 0.158 -0.987 0.040 175 159 133 0 0
7.3490 6.8425 -1.3846 -0.179 -0.983 0.042 172 156 130 0 0
7.3604 6.8382 -1.3791 -0.005 -0.975 0.220 171 155 129 0 0
7.5927 6.8420 -1.2865 0.098 -0.993 -0.069 153 134 101 0 0
7.6051 6.8429 -1.2817 0.098 -0.993 -0.069 171 152 119 0 0
7.6175 6.8443 -1.2770 0.081 -0.997 -0.005 186 168 134 0 0
7.6295 6.8432 -1.2720 0.168 -0.975 0.145 197 177 143 0 0
7.7815 6.8714 -1.2168 0.223 -0.973 0.052 178 155 121 0 0
7.7952 6.8781 -1.2127 0.122 -0.993 -0.007 178 155 121 0 0
7.8993 6.9559 -1.1876 0.113 -0.989 0.096 188 167 137 0 0
8.0039 6.9827 -1.1513 0.253 -0.932 0.259 192 172 141 0 0
8.0173 6.9876 -1.1470 0.253 -0.932 0.259 194 175 143 0 0
8.0511 7.0231 -1.1410 0.467 -0.842 0.270 199 179 148 0 0
8.0664 7.0348 -1.1374 0.493 -0.794 0.356 201 180 149 0 0
8.5594 7.6646 -1.0745 0.851 -0.359 0.383 222 205 185 0 0
8.6037 7.7694 -1.0792 0.841 -0.385 0.380 225 208 191 0 0
8.6402 7.8473 -1.0813 0.841 -0.385 0.380 229 219 206 0 0
8.6773 7.9264 -1.0834 0.841 -0.385 0.380 245 242 235 0 0
3.0995 6.2291 -2.9767 0.067 -0.768 0.637 221 202 172 0 0
3.2339 6.2446 -2.9260 -0.041 -0.908 0.417 221 202 172 0 0
3.2461 6.2462 -2.9214 -0.041 -0.908 0.417 221 201 171 0 0
3.2582 6.2477 -2.9168 -0.041 -0.908 0.417 222 201 171 0 0
3.2702 6.2499 -2.9125 0.046 -0.943 0.331 223 200 169 0 0
3.2829 6.2498 -2.9074 -0.415 -0.815 0.404 223 200 169 0 0
3.4720 6.2951 -2.8411 -0.241 -0.550 0.799 222 202 171 0 0
3.5095 6.2967 -2.8263 -0.196 -0.633 0.749 223 203 174 0 0
3.5464 6.3002 -2.8122 -0.111 -0.633 0.766 225 204 176 0 0
3.5712 6.3020 -2.8026 -0.203 -0.669 0.715 224 204 174 0 0
3.6796 6.3222 -2.7634 -0.108 -0.655 0.748 227 207 180 0 0
3.9602 6.3616 -2.6590 -0.187 -0.767 0.614 226 205 176 0 0
4.0850 6.3663 -2.6098 -0.190 -0.537 0.822 226 205 176 0 0
4.3802 6.3965 -2.4975 -0.219 -0.762 0.609 223 204 174 0 0
4.3926 6.3969 -2.4926 -0.219 -0.762 0.609 225 202 173 0 0
4.6013 6.4206 -2.4137 -0.266 -0.623 0.736 226 206 176 0 0
4.6137 6.4210 -2.4088 -0.266 -0.623 0.736 227 206 176 0 0
4.8216 6.4524 -2.3319 -0.434 -0.706 0.560 226 205 176 0 0
4.8610 6.4334 -2.3120 -0.288 -0.641 0.712 224 203 174 0 0
5.0562 6.4680 -2.2409 -0.348 -0.918 0.189 226 204 173 0 0
5.0689 6.4644 -2.2350 -0.348 -0.918 0.189 224 203 172 0 0
5.0815 6.4611 -2.2292 -0.040 -0.914 0.404 221 200 169 0 0
5.0941 6.4580 -2.2235 0.085 -0.972 0.219 225 205 175 0 0
5.1071 6.4497 -2.2164 -0.280 -0.950 0.137 225 206 176 0 0
5.2662 6.4702 -2.1568 -0.391 -0.616 0.684 226 207 177 0 0
5.4527 7.1545 -2.2302 0.952 -0.296 0.074 193 171 139 0 0
5.4753 7.2862 -2.2496 -0.664 -0.566 -0.489 195 177 155 0 0
5.4897 7.2530 -2.2366 -0.867 -0.297 -0.400 226 219 209 0 0
5.5185 7.1771 -2.2086 -0.154 -0.793 -0.590 231 227 222 0 0
5.5285 7.3137 -2.2342 0.522 -0.844 0.126 227 227 225 0 0
6.3500 7.8402 -2.0177 0.562 -0.608 0.561 231 228 223 0 0
6.3806 7.8789 -2.0138 0.642 -0.568 0.514 220 216 206 0 0
6.6496 7.2064 -1.7597 -0.180 -0.899 -0.398 185 165 133 0 0
6.7554 7.1099 -1.6962 -0.414 -0.908 -0.072 183 168 139 0 0
6.9318 6.9960 -1.6005 -0.194 -0.979 -0.062 193 177 151 0 0
7.0593 6.9247 -1.5337 -0.140 -0.979 -0.148 186 172 147 0 0
7.0715 6.9232 -1.5284 -0.104 -0.985 -0.140 188 174 148 0 0
7.1055 6.9017 -1.5101 -0.313 -0.906 0.284 183 167 143 0 0
7.3291 6.8406 -1.4068 0.097 -0.972 0.212 177 162 135 0 0
7.3784 6.8423 -1.3874 -0.087 -0.976 0.199 172 156 130 0 0
7.5131 6.8449 -1.3337 0.018 -0.957 0.290 171 154 121 0 0
7.5492 6.8426 -1.3187 0.326 -0.945 -0.008 172 150 118 0 0
7.5978 6.8422 -1.2990 0.040 -0.999 0.015 159 140 107 0 0
7.6106 6.8452 -1.2945 -0.089 -0.994 -0.063 151 134 101 0 0
7.6222 6.8428 -1.2893 0.021 -0.999 0.034 176 158 125 0 0
7.6344 6.8432 -1.2845 0.021 -0.999 0.034 187 167 133 0 0
7.7213 6.8518 -1.2514 0.237 -0.971 0.008 175 155 122 0 0
7.7353 6.8597 -1.2475 0.272 -0.959 0.084 174 151 117 0 0
7.9059 6.9623 -1.2011 0.113 -0.987 0.115 194 172 141 0 0
7.9824 6.9746 -1.1729 0.402 -0.914 -0.057 201 180 149 0 0
7.9963 6.9812 -1.1688 0.298 -0.952 -0.069 203 181 150 0 0
8.0230 6.9898 -1.1599 0.011 -0.998 0.062 201 180 149 0 0
8.0364 6.9943 -1.1555 0.262 -0.959 0.105 202 183 153 0 0
8.0708 7.0319 -1.1498 0.493 -0.794 0.356 195 174 143 0 0
8.0861 7.0435 -1.1461 0.246 -0.942 0.228 197 176 145 0 0
8.0990 7.0459 -1.1414 0.437 -0.897 0.069 200 179 148 0 0
8.2769 7.1983 -1.1029 0.615 -0.775 0.144 208 188 161 0 0
8.3095 7.2254 -1.0956 0.641 -0.745 0.183 211 194 166 0 0
8.5710 7.6852 -1.0901 0.864 -0.381 0.329 222 205 186 0 0
8.6093 7.7696 -1.0930 0.864 -0.381 0.329 226 210 195 0 0
8.6483 7.8555 -1.0959 0.864 -0.381 0.329 231 221 210 0 0
8.6804 7.9180 -1.0965 0.830 -0.425 0.361 245 242 237 0 0
8.6309 7.6670 -1.0620 -0.787 -0.559 0.260 244 244 242 0 0
2.9364 6.1641 -3.0425 -0.246 -0.846 0.473 216 191 160 0 0
3.4556 6.2795 -2.8586 -0.128 -0.640 0.757 222 201 172 0 0
3.4808 6.2797 -2.8485 -0.263 -0.544 0.797 223 203 173 0 0
3.5125 6.3021 -2.8407 0.020 -0.882 0.470 225 206 177 0 0
3.5266 6.2967 -2.8338 -0.043 -0.849 0.527 225 205 177 0 0
3.5389 6.2982 -2.8292 -0.513 -0.809 0.289 226 206 179 0 0
3.5522 6.2955 -2.8232 -0.131 -0.742 0.657 225 204 177 0 0
3.5637 6.2999 -2.8196 -0.198 -0.803 0.563 223 202 174 0 0
3.6261 6.3025 -2.7950 -0.203 -0.675 0.709 219 200 170 0 0
3.6642 6.3013 -2.7794 -0.133 -0.674 0.726 227 207 180 0 0
3.6767 6.3018 -2.7745 -0.180 -0.700 0.691 225 207 181 0 0
4.0001 6.3731 -2.6598 -0.383 -0.792 0.475 227 204 173 0 0
4.2868 6.3841 -2.5468 -0.168 -0.681 0.713 227 205 175 0 0
4.3991 6.3857 -2.5019 -0.251 -0.666 0.702 224 203 174 0 0
4.5216 6.4002 -2.4558 -0.320 -0.618 0.718 225 207 179 0 0
4.6202 6.4079 -2.4177 -0.259 -0.714 0.650 227 206 175 0 0
5.0487 6.4656 -2.2578 -0.146 -0.872 0.467 222 199 168 0 0
5.0612 6.4631 -2.2522 -0.453 -0.791 0.411 224 201 170 0 0
5.0739 6.4601 -2.2464 -0.348 -0.918 0.189 225 203 172 0 0
5.0866 6.4562 -2.2405 -0.144 -0.901 0.409 223 202 171 0 0
5.1121 6.4466 -2.2281 -0.280 -0.950 0.137 221 201 170 0 0
5.4581 7.1461 -2.2417 0.948 -0.317 0.038 193 170 137 0 0
5.4701 7.1874 -2.2459 0.927 -0.374 0.008 193 171 141 0 0
5.4824 7.2191 -2.2478 0.919 -0.394 -0.010 196 177 155 0 0
5.4959 7.2160 -2.2417 -0.176 -0.774 -0.608 229 221 211 0 0
5.5233 7.1880 -2.2245 -0.154 -0.793 -0.590 231 227 223 0 0
6.3990 8.0748 -2.0658 -0.749 -0.199 -0.631 228 226 217 0 0
6.4058 7.9632 -2.0386 -0.749 -0.199 -0.631 189 180 164 0 0
6.6556 7.2154 -1.7746 -0.233 -0.819 -0.524 182 163 131 0 0
6.6657 7.1869 -1.7643 -0.253 -0.882 -0.397 186 165 134 0 0
6.7372 7.1310 -1.7233 -0.525 -0.851 -0.029 187 171 142 0 0
6.7612 7.1162 -1.7104 -0.264 -0.909 -0.323 187 172 144 0 0
7.0515 6.9224 -1.5511 -0.087 -0.970 -0.227 180 164 138 0 0
7.2069 6.8859 -1.4806 -0.090 -0.995 0.042 180 164 138 0 0
7.2191 6.8850 -1.4755 -0.090 -0.995 0.042 179 163 137 0 0
7.3478 6.8484 -1.4156 -0.003 -0.975 0.223 175 160 133 0 0
7.3592 6.8440 -1.4101 -0.159 -0.983 0.096 179 164 135 0 0
7.3698 6.8355 -1.4039 0.032 -0.969 0.244 176 160 134 0 0
7.3821 6.8357 -1.3990 -0.102 -0.974 0.203 175 159 133 0 0
7.4422 6.8309 -1.3738 0.382 -0.915 0.129 175 160 131 0 0
7.5174 6.8413 -1.3458 0.018 -0.957 0.290 163 146 113 0 0
7.5298 6.8425 -1.3410 -0.132 -0.989 0.063 169 150 117 0 0
7.7266 6.8530 -1.2641 0.237 -0.971 0.008 184 165 132 0 0
7.8768 6.9228 -1.2188 0.143 -0.980 0.135 187 167 134 0 0
7.9445 6.9497 -1.1975 0.329 -0.938 0.114 191 171 138 0 0
7.9865 6.9707 -1.1852 0.398 -0.911 0.103 192 171 140 0 0
8.0907 7.0415 -1.1587 0.177 -0.977 0.118 205 184 153 0 0
8.1046 7.0476 -1.1544 0.437 -0.897 0.069 205 184 154 0 0
8.4408 7.4004 -1.0961 0.684 -0.727 -0.054 220 204 179 0 0
8.6552 7.8601 -1.1102 0.919 -0.363 0.153 237 228 219 0 0
8.6380 7.6723 -1.0761 -0.375 -0.741 0.557 243 243 241 0 0
2.7551 6.3247 -3.1652 -0.715 -0.664 -0.219 237 236 234 0 0
3.0265 6.1717 -3.0221 -0.203 -0.618 0.760 223 202 174 0 0
3.1301 6.2019 -2.9870 -0.092 -0.797 0.597 221 201 174 0 0
3.4772 6.2638 -2.8608 -0.202 -0.720 0.664 222 202 173 0 0
3.5618 6.2768 -2.8296 -0.275 -0.649 0.709 226 202 174 0 0
3.5864 6.2793 -2.8203 -0.089 -0.741 0.665 226 205 176 0 0
3.6463 6.2906 -2.7986 -0.113 -0.627 0.770 213 193 166 0 0
3.7191 6.3015 -2.7717 -0.114 -0.626 0.771 225 207 180 0 0
4.2445 6.3666 -2.5743 -0.025 -0.856 0.516 225 204 175 0 0
4.2577 6.3631 -2.5683 -0.057 -0.828 0.558 223 202 173 0 0
4.4551 6.3766 -2.4917 -0.496 -0.763 0.414 226 202 172 0 0
4.6266 6.3950 -2.4267 -0.100 -0.593 0.799 226 205 174 0 0
5.0924 6.4425 -2.2495 0.056 -0.754 0.655 226 205 175 0 0
5.1171 6.4416 -2.2393 -0.356 -0.850 0.389 218 196 165 0 0
5.4497 7.1523 -2.2619 0.855 -0.431 -0.288 199 172 142 0 0
5.4628 7.1558 -2.2574 0.949 -0.298 0.101 194 169 138 0 0
5.4748 7.1988 -2.2620 0.927 -0.374 0.008 193 169 141 0 0
5.4870 7.2386 -2.2659 -0.351 -0.660 -0.664 195 176 156 0 0
6.3881 7.8261 -2.0322 0.749 -0.147 0.646 229 228 221 0 0
6.4142 8.0042 -2.0610 -0.759 -0.205 -0.618 204 197 185 0 0
6.6509 7.2470 -1.7988 -0.304 -0.847 -0.436 183 166 136 0 0
7.0932 6.9181 -1.5482 0.056 -0.996 0.064 184 168 142 0 0
7.1059 6.9200 -1.5435 0.058 -0.986 0.155 181 166 140 0 0
7.1857 6.8772 -1.5019 -0.076 -0.994 0.073 178 163 134 0 0
7.1980 6.8766 -1.4968 -0.085 -0.996 -0.013 181 166 138 0 0
7.2121 6.8875 -1.4935 0.079 -0.995 0.065 182 167 139 0 0
7.3524 6.8463 -1.4279 -0.052 -0.972 0.230 173 158 129 0 0
7.3865 6.8327 -1.4112 -0.146 -0.980 0.136 176 160 133 0 0
7.4007 6.8433 -1.4078 -0.205 -0.977 -0.063 171 156 130 0 0
7.4997 6.8498 -1.3694 0.139 -0.968 0.208 177 160 128 0 0
7.5125 6.8526 -1.3648 0.139 -0.968 0.208 168 151 121 0 0
7.5216 6.8378 -1.3579 0.018 -0.957 0.290 161 145 112 0 0
7.5345 6.8411 -1.3534 -0.132 -0.989 0.063 165 149 116 0 0
7.8315 6.9163 -1.2503 0.208 -0.926 0.316 183 163 128 0 0
8.2435 7.1754 -1.1414 0.588 -0.750 0.303 208 188 161 0 0
8.4486 7.4087 -1.1102 0.684 -0.727 -0.054 220 204 181 0 0
8.4687 7.4340 -1.1076 0.787 -0.611 -0.086 219 203 181 0 0
8.6181 7.7619 -1.1197 0.918 -0.371 0.142 225 212 198 0 0
8.6690 7.8872 -1.1268 0.923 -0.363 0.126 240 235 227 0 0
8.6839 7.8922 -1.1219 0.770 -0.636 0.058 244 244 241 0 0
3.5530 6.2332 -2.8378 -0.257 -0.785 0.564 225 205 177 0 0
3.5948 6.2647 -2.8280 -0.155 -0.758 0.633 224 203 174 0 0
3.7544 6.2788 -2.7668 -0.189 -0.522 0.832 222 201 172 0 0
4.0949 6.3236 -2.6395 -0.360 -0.615 0.702 224 202 173 0 0
4.2507 6.3578 -2.5843 -0.160 -0.800 0.578 225 204 175 0 0
4.2634 6.3568 -2.5789 0.025 -0.779 0.627 226 205 176 0 0
4.4125 6.3601 -2.5195 0.014 -0.586 0.810 222 201 170 0 0
4.4606 6.3707 -2.5025 -0.392 -0.763 0.514 228 206 177 0 0
4.8537 6.4014 -2.3509 -0.006 -0.844 0.536 224 201 172 0 0
5.2697 6.4410 -2.1920 -0.333 -0.797 0.504 225 204 175 0 0
5.4518 7.2419 -2.2964 0.279 -0.693 -0.665 195 170 139 0 0
5.4673 7.1765 -2.2757 0.944 -0.324 0.053 194 169 138 0 0
5.4794 7.2178 -2.2800 0.890 -0.454 -0.044 195 171 143 0 0
6.3922 7.8044 -2.0423 0.798 -0.204 0.567 228 227 220 0 0
6.4099 7.8596 -2.0474 0.798 -0.204 0.567 214 208 197 0 0
6.6783 7.2090 -1.7948 -0.535 -0.842 -0.060 186 167 134 0 0
7.0864 6.9221 -1.5666 -0.096 -0.987 -0.128 179 163 137 0 0
7.0981 6.9175 -1.5608 0.056 -0.996 0.064 181 165 139 0 0
7.1105 6.9172 -1.5558 -0.061 -0.998 0.013 181 167 141 0 0
7.3570 6.8443 -1.4403 0.014 -0.993 0.118 178 163 133 0 0
7.3669 6.8317 -1.4335 0.303 -0.903 0.305 176 161 130 0 0
7.5259 6.8342 -1.3699 0.018 -0.957 0.290 166 150 117 0 0
7.5391 6.8395 -1.3658 -0.004 -1.000 -0.019 170 153 120 0 0
7.5513 6.8394 -1.3608 -0.004 -1.000 -0.019 173 154 121 0 0
7.5633 6.8387 -1.3559 0.226 -0.971 0.075 168 147 116 0 0
7.7836 6.8987 -1.2804 0.322 -0.927 0.193 181 159 120 0 0
7.9014 6.9322 -1.2403 0.364 -0.913 0.186 185 163 131 0 0
7.9682 6.9554 -1.2185 0.192 -0.970 0.151 192 172 141 0 0
7.9973 6.9736 -1.2109 0.463 -0.886 0.010 192 173 143 0 0
8.0693 7.0150 -1.1910 0.393 -0.857 -0.334 192 171 141 0 0
8.2338 7.1217 -1.1484 -0.156 -0.974 -0.166 207 187 160 0 0
8.3870 7.3094 -1.1284 0.708 -0.695 0.126 215 198 172 0 0
8.4779 7.4469 -1.1222 0.771 -0.614 -0.167 221 204 183 0 0
8.6318 7.7893 -1.1362 0.923 -0.363 0.126 227 215 204 0 0
8.6853 7.9226 -1.1443 0.923 -0.363 0.126 244 239 232 0 0
8.7134 7.9269 -1.1339 0.770 -0.636 0.058 243 243 241 0 0
2.9366 6.1296 -3.0775 -0.291 -0.863 0.413 217 198 166 0 0
3.3878 6.2122 -2.9140 0.059 -0.578 0.814 225 204 175 0 0
3.4089 6.2259 -2.9086 -0.241 -0.782 0.575 224 203 174 0 0
3.7630 6.2621 -2.7739 -0.236 -0.629 0.741 221 202 173 0 0
4.1156 6.3056 -2.6414 -0.405 -0.902 0.150 225 204 175 0 0
4.1290 6.3006 -2.6349 -0.405 -0.902 0.150 226 207 178 0 0
4.2689 6.3518 -2.5899 -0.333 -0.756 0.564 225 204 175 0 0
4.3231 6.3275 -2.5626 -0.599 -0.708 0.374 224 203 174 0 0
4.4680 6.3531 -2.5099 -0.378 -0.643 0.666 226 205 176 0 0
4.4922 6.3574 -2.5012 -0.359 -0.712 0.604 225 204 175 0 0
5.2518 6.4066 -2.2058 -0.153 -0.512 0.846 226 205 176 0 0
5.2754 6.4231 -2.2000 0.168 -0.937 0.307 225 204 175 0 0
5.3819 6.5087 -2.1763 0.790 -0.571 0.224 201 175 140 0 0
5.4563 7.2611 -2.3146 0.279 -0.693 -0.665 194 169 138 0 0
5.4720 7.1877 -2.2918 0.944 -0.324 0.053 194 169 138 0 0
5.5493 7.3092 -2.2878 -0.424 -0.778 -0.464 231 228 224 0 0
7.0318 6.9402 -1.6075 -0.215 -0.974 0.068 171 155 129 0 0
7.0564 6.9375 -1.5969 -0.124 -0.992 0.015 185 169 143 0 0
7.0688 6.9369 -1.5918 0.090 -0.995 0.032 183 167 141 0 0
7.0932 6.9338 -1.5813 0.303 -0.951 -0.056 180 165 138 0 0
7.1030 6.9170 -1.5735 0.056 -0.996 0.064 178 163 137 0 0
7.1154 6.9167 -1.5685 -0.061 -0.998 0.013 181 166 139 0 0
7.1277 6.9160 -1.5634 -0.061 -0.998 0.013 182 167 141 0 0
7.3839 6.8312 -1.4411 0.067 -0.996 0.064 175 159 126 0 0
7.3964 6.8323 -1.4363 0.067 -0.996 0.064 170 154 122 0 0
7.4095 6.8370 -1.4321 0.095 -0.979 0.182 171 155 125 0 0
7.4582 6.8364 -1.4123 0.349 -0.908 0.233 173 158 129 0 0
7.4726 6.8473 -1.4090 0.216 -0.975 0.044 168 153 124 0 0
7.4854 6.8503 -1.4045 0.165 -0.976 0.142 165 150 121 0 0
7.4954 6.8396 -1.3980 0.149 -0.983 0.105 167 152 121 0 0
7.5563 6.8396 -1.3734 -0.004 -1.000 -0.019 172 153 121 0 0
7.5683 6.8389 -1.3684 0.226 -0.971 0.075 172 153 121 0 0
7.5976 6.8622 -1.3619 -0.012 -0.999 -0.031 171 153 121 0 0
7.6216 6.8603 -1.3518 0.182 -0.978 -0.106 170 151 119 0 0
7.6342 6.8621 -1.3471 0.182 -0.978 -0.106 167 149 116 0 0
7.7732 6.8848 -1.2961 0.086 -0.969 0.230 178 156 120 0 0
7.7985 6.8889 -1.2868 0.128 -0.897 0.423 180 159 121 0 0
7.9730 6.9544 -1.2311 0.192 -0.970 0.151 193 172 141 0 0
7.9907 6.9755 -1.2287 -0.007 -0.986 -0.169 192 172 141 0 0
8.2300 7.1342 -1.1677 0.220 -0.910 0.353 212 193 163 0 0
8.2403 7.1265 -1.1618 0.017 -0.959 -0.283 208 188 161 0 0
8.4654 7.4295 -1.1389 0.625 -0.642 -0.444 220 204 181 0 0
8.6464 7.8193 -1.1531 0.918 -0.371 0.142 231 221 211 0 0
8.7003 7.9095 -1.1515 0.770 -0.636 0.058 242 242 240 0 0
8.7217 7.9356 -1.1487 0.770 -0.636 0.058 243 243 241 0 0
2.9435 6.1226 -3.0873 -0.303 -0.923 0.238 214 196 165 0 0
3.5714 6.1989 -2.8512 -0.194 -0.736 0.648 221 198 169 0 0
3.9130 6.2818 -2.7321 -0.317 -0.573 0.756 225 204 175 0 0
4.3530 6.3249 -2.5643 -0.307 -0.619 0.723 228 207 178 0 0
4.3655 6.3244 -2.5591 -0.441 -0.622 0.647 227 208 178 0 0
4.4746 6.3402 -2.5187 -0.251 -0.605 0.756 226 205 176 0 0
4.4997 6.3384 -2.5082 -0.321 -0.667 0.673 224 203 174 0 0
4.5122 6.3375 -2.5029 -0.188 -0.959 0.210 226 205 176 0 0
4.5507 6.3286 -2.4854 -0.473 -0.701 0.534 225 202 174 0 0
4.5765 6.3208 -2.4732 -0.407 -0.758 0.509 227 203 175 0 0
4.7447 6.3554 -2.4132 -0.422 -0.806 0.414 227 206 177 0 0
4.8095 6.3282 -2.3809 -0.159 -0.906 0.393 225 204 173 0 0
4.9904 6.3590 -2.3148 0.148 -0.801 0.581 225 204 175 0 0
5.0032 6.3531 -2.3083 0.125 -0.851 0.511 223 202 173 0 0
5.0718 6.4121 -2.2940 -0.559 -0.679 0.476 225 205 175 0 0
5.4760 7.2245 -2.3141 0.851 -0.522 -0.055 194 170 139 0 0
5.5011 7.2855 -2.3177 -0.544 -0.579 -0.607 194 177 156 0 0
5.5502 7.5095 -2.3484 0.454 -0.849 -0.270 230 228 224 0 0
7.0369 6.9404 -1.6203 -0.143 -0.985 -0.092 169 153 127 0 0
7.0490 6.9381 -1.6149 -0.143 -0.985 -0.092 173 157 131 0 0
7.0613 6.9372 -1.6097 -0.018 -0.999 0.030 178 162 136 0 0
7.0738 6.9369 -1.6046 0.090 -0.995 0.032 181 167 141 0 0
7.1079 6.9159 -1.5861 -0.146 -0.969 0.199 183 169 142 0 0
7.1201 6.9143 -1.5809 -0.100 -0.983 0.153 182 166 140 0 0
7.1888 6.8799 -1.5454 -0.076 -0.984 0.164 177 161 135 0 0
7.2269 6.8862 -1.5314 -0.216 -0.972 0.091 183 167 142 0 0
7.2390 6.8849 -1.5262 -0.096 -0.979 0.181 174 158 133 0 0
7.2508 6.8815 -1.5207 -0.137 -0.990 0.020 178 162 137 0 0
7.4776 6.8479 -1.4216 0.216 -0.975 0.044 174 159 130 0 0
7.5005 6.8401 -1.4107 -0.030 -0.998 0.048 171 156 125 0 0
7.5751 6.8473 -1.3822 0.035 -0.999 0.040 169 152 119 0 0
7.5874 6.8479 -1.3774 0.035 -0.999 0.040 164 148 115 0 0
7.6130 6.8536 -1.3683 0.217 -0.960 0.175 172 153 121 0 0
7.8978 6.9260 -1.2698 0.370 -0.905 0.210 200 178 145 0 0
7.9764 6.9477 -1.2429 0.096 -0.934 0.346 194 174 142 0 0
8.1310 7.0697 -1.2081 0.306 -0.894 0.326 201 182 152 0 0
8.1458 7.0790 -1.2042 0.580 -0.794 0.182 202 182 153 0 0
8.2332 7.1271 -1.1798 0.006 -0.992 0.126 208 189 159 0 0
8.2458 7.1278 -1.1749 -0.037 -0.960 -0.277 206 186 159 0 0
8.2857 7.1816 -1.1709 0.527 -0.775 0.348 206 189 163 0 0
8.4404 7.3698 -1.1509 0.817 -0.577 0.002 217 201 178 0 0
8.6650 7.8625 -1.1714 0.914 -0.353 0.198 235 228 220 0 0
8.7397 7.9321 -1.1569 0.626 -0.778 -0.049 242 242 240 0 0
2.9500 6.1167 -3.0975 -0.026 -1.000 0.010 210 191 159 0 0
2.9641 6.1124 -3.0909 -0.303 -0.867 0.395 209 186 153 0 0
3.0730 6.1242 -3.0496 -0.314 -0.701 0.640 223 200 170 0 0
3.0852 6.1252 -3.0449 -0.195 -0.731 0.654 219 199 168 0 0
3.3309 6.1804 -2.9583 -0.239 -0.693 0.681 221 200 171 0 0
3.3439 6.1789 -2.9527 -0.182 -0.700 0.691 223 202 173 0 0
3.3589 6.1705 -2.9447 -0.287 -0.818 0.498 226 205 178 0 0
3.3850 6.1669 -2.9334 -0.121 -0.686 0.717 221 202 173 0 0
3.3960 6.1721 -2.9301 0.359 -0.838 0.411 222 202 172 0 0
4.4225 6.3075 -2.5466 -0.224 -0.618 0.753 225 205 178 0 0
4.5178 6.3310 -2.5135 -0.124 -0.732 0.670 226 205 175 0 0
4.8150 6.3201 -2.3910 0.001 -0.998 -0.061 225 204 173 0 0
4.9963 6.3453 -2.3236 -0.185 -0.885 0.428 225 204 175 0 0
5.0076 6.3554 -2.3213 0.349 -0.875 0.335 223 202 173 0 0
5.2162 6.3439 -2.2345 -0.240 -0.654 0.717 229 209 182 0 0
5.2287 6.3392 -2.2284 0.542 -0.676 0.499 231 211 182 0 0
5.3703 6.4287 -2.1916 0.661 -0.562 0.497 200 177 140 0 0
5.4810 7.2319 -2.3294 0.815 -0.579 -0.013 194 170 139 0 0
5.5061 7.2922 -2.3329 -0.356 -0.770 -0.529 194 178 157 0 0
5.5553 7.5172 -2.3642 0.454 -0.849 -0.270 229 228 224 0 0
7.1247 6.9119 -1.5933 -0.100 -0.983 0.153 181 165 139 0 0
7.1371 6.9116 -1.5882 -0.160 -0.967 0.199 180 164 138 0 0
7.3133 6.8588 -1.5051 -0.149 -0.983 -0.108 173 158 129 0 0
7.3489 6.8525 -1.4893 -0.007 -0.997 0.080 168 151 121 0 0
7.5176 6.8398 -1.4183 0.099 -0.990 0.096 174 159 126 0 0
7.5296 6.8389 -1.4132 0.304 -0.945 -0.121 172 154 121 0 0
7.5420 6.8398 -1.4085 0.159 -0.987 0.031 168 149 117 0 0
7.5546 6.8419 -1.4038 0.159 -0.987 0.031 168 149 117 0 0
7.5672 6.8441 -1.3992 0.159 -0.987 0.031 168 150 118 0 0
7.5811 6.8522 -1.3955 0.144 -0.986 0.079 163 147 114 0 0
7.6177 6.8525 -1.3808 0.217 -0.960 0.175 171 152 120 0 0
7.7242 6.8397 -1.3349 0.265 -0.943 0.200 184 165 133 0 0
7.7380 6.8469 -1.3309 0.355 -0.874 0.332 184 163 132 0 0
7.8121 6.9038 -1.3140 0.441 -0.880 -0.178 177 156 121 0 0
7.9732 6.9633 -1.2625 0.365 -0.915 0.175 193 172 139 0 0
8.0042 6.9890 -1.2558 0.123 -0.988 0.098 193 172 141 0 0
8.0626 7.0246 -1.2403 0.307 -0.897 0.319 207 187 160 0 0
8.1012 7.0314 -1.2263 -0.028 -0.954 0.299 199 182 151 0 0
8.2117 7.1202 -1.2019 0.447 -0.866 0.226 207 186 157 0 0
8.2396 7.1315 -1.1931 0.208 -0.977 -0.049 211 192 162 0 0
8.2902 7.1790 -1.1835 0.527 -0.775 0.348 205 188 162 0 0
8.4299 7.3589 -1.1680 0.778 -0.627 0.028 217 201 176 0 0
8.4960 7.4972 -1.1727 0.846 -0.529 -0.059 217 202 180 0 0
8.6779 7.8868 -1.1878 0.914 -0.353 0.198 239 235 227 0 0
8.7381 7.9523 -1.1784 0.679 -0.724 0.120 242 243 239 0 0
3.0805 6.1150 -3.0587 -0.259 -0.755 0.603 218 197 167 0 0
3.3658 6.1623 -2.9543 -0.287 -0.818 0.498 225 205 178 0 0
3.4015 6.1685 -2.9413 0.183 -0.877 0.445 221 200 170 0 0
4.6007 6.3017 -2.4875 -0.242 -0.598 0.764 225 205 175 0 0
4.8198 6.3182 -2.4028 -0.202 -0.863 0.463 225 202 171 0 0
4.8324 6.3156 -2.3972 0.212 -0.691 0.691 225 203 172 0 0
5.0138 6.3379 -2.3290 -0.222 -0.697 0.682 226 203 173 0 0
5.0261 6.3378 -2.3240 -0.075 -0.594 0.801 225 203 173 0 0
5.2215 6.3333 -2.2441 0.206 -0.792 0.574 228 208 181 0 0
5.2332 6.3406 -2.2411 0.303 -0.796 0.524 228 209 181 0 0
5.2447 6.3513 -2.2389 0.234 -0.954 0.189 226 206 178 0 0
5.2565 6.3572 -2.2354 -0.013 -0.934 0.356 224 203 174 0 0
5.2688 6.3555 -2.2301 -0.048 -0.879 0.474 223 202 170 0 0
5.4859 7.2392 -2.3447 0.815 -0.579 -0.013 193 169 138 0 0
5.4971 7.3172 -2.3580 -0.507 -0.706 -0.494 192 170 142 0 0
5.5103 7.3319 -2.3561 -0.810 -0.396 -0.432 191 174 154 0 0
5.5603 7.5347 -2.3823 0.429 -0.848 -0.311 231 229 224 0 0
7.0711 6.9350 -1.6350 -0.176 -0.984 0.038 168 152 124 0 0
7.1168 6.9090 -1.6106 0.083 -0.978 -0.192 179 165 138 0 0
7.2000 6.8871 -1.5720 0.046 -0.978 -0.202 182 169 143 0 0
7.2368 6.8854 -1.5567 -0.100 -0.988 -0.120 177 162 136 0 0
7.2488 6.8835 -1.5515 -0.100 -0.988 -0.120 180 166 139 0 0
7.2728 6.8801 -1.5410 -0.014 -1.000 -0.009 181 166 140 0 0
7.2845 6.8761 -1.5353 -0.062 -0.986 0.153 174 159 133 0 0
7.2965 6.8748 -1.5302 -0.182 -0.967 0.180 169 155 128 0 0
7.4850 6.8349 -1.4449 0.025 -0.990 -0.139 171 155 123 0 0
7.5224 6.8390 -1.4308 0.099 -0.990 0.096 166 150 117 0 0
7.5336 6.8342 -1.4252 0.040 -0.999 0.018 171 152 120 0 0
7.5465 6.8376 -1.4207 0.108 -0.985 0.135 165 146 114 0 0
7.9813 6.9753 -1.2767 0.054 -0.983 -0.174 188 166 135 0 0
8.0219 6.9904 -1.2637 0.123 -0.988 0.098 191 170 139 0 0
8.1056 7.0288 -1.2387 0.166 -0.964 0.210 205 188 158 0 0
8.2015 7.1096 -1.2185 0.575 -0.812 0.102 208 189 160 0 0
8.2450 7.1322 -1.2061 0.297 -0.951 -0.087 210 189 163 0 0
8.2584 7.1360 -1.2015 0.297 -0.951 -0.087 207 187 160 0 0
8.2959 7.1807 -1.1967 0.594 -0.800 0.084 205 186 161 0 0
8.4019 7.3317 -1.1884 0.603 -0.699 0.383 209 191 165 0 0
8.4434 7.3872 -1.1843 0.830 -0.548 0.101 215 197 174 0 0
8.4933 7.4697 -1.1831 0.875 -0.450 0.180 218 203 181 0 0
8.5698 7.6404 -1.1913 0.779 -0.598 0.186 219 203 183 0 0
8.6121 7.6941 -1.1865 0.701 -0.694 0.164 225 215 203 0 0
8.6280 7.7033 -1.1822 0.401 -0.896 0.189 241 239 232 0 0
8.6449 7.7157 -1.1782 0.092 -0.993 0.073 243 242 238 0 0
3.1448 6.0851 -3.0400 -0.104 -0.672 0.733 219 198 167 0 0
3.1564 6.0878 -3.0359 -0.104 -0.672 0.733 222 199 170 0 0
3.1666 6.0948 -3.0334 -0.235 -0.888 0.395 223 200 171 0 0
3.2279 6.0979 -3.0094 -0.093 -0.847 0.523 223 203 176 0 0
3.3601 6.1545 -2.9690 -0.162 -0.663 0.731 226 205 177 0 0
3.3727 6.1541 -2.9638 -0.287 -0.818 0.498 223 203 176 0 0
3.3857 6.1526 -2.9582 -0.350 -0.838 0.418 222 202 175 0 0
3.4001 6.1459 -2.9508 -0.380 -0.881 0.284 222 202 173 0 0
3.4110 6.1513 -2.9477 -0.267 -0.820 0.506 222 201 171 0 0
3.9624 6.2332 -2.7438 -0.301 -0.656 0.692 222 201 172 0 0
3.9749 6.2329 -2.7387 -0.301 -0.656 0.692 222 202 172 0 0
3.9859 6.2392 -2.7357 -0.247 -0.896 0.369 224 204 175 0 0
3.9988 6.2373 -2.7301 -0.328 -0.832 0.448 225 206 176 0 0
4.0124 6.2317 -2.7233 0.129 -0.762 0.635 225 205 176 0 0
4.1093 6.2421 -2.6865 -0.229 -0.604 0.764 225 205 178 0 0
4.2816 6.2457 -2.6177 0.391 -0.824 0.409 224 204 175 0 0
4.2928 6.2525 -2.6148 0.391 -0.824 0.409 226 205 176 0 0
4.6922 6.2957 -2.4634 -0.163 -0.608 0.777 226 205 176 0 0
4.7164 6.2982 -2.4542 -0.116 -0.586 0.802 225 203 174 0 0
4.7285 6.3000 -2.4498 -0.283 -0.588 0.758 227 204 174 0 0
4.7410 6.2977 -2.4442 -0.421 -0.614 0.668 227 204 173 0 0
4.8373 6.3126 -2.4087 0.571 -0.775 0.270 225 202 171 0 0
5.2264 6.3293 -2.2554 -0.304 -0.781 0.546 226 207 177 0 0
5.2383 6.3336 -2.2516 -0.403 -0.690 0.600 227 207 179 0 0
5.2508 6.3279 -2.2452 -0.108 -0.667 0.737 227 206 178 0 0
5.4908 7.2465 -2.3601 0.815 -0.579 -0.013 191 168 136 0 0
5.5153 7.3390 -2.3715 -0.806 -0.402 -0.435 192 175 154 0 0
5.5315 7.2272 -2.3392 -0.833 -0.362 -0.417 229 224 212 0 0
5.5654 7.5432 -2.3984 0.429 -0.848 -0.311 232 229 223 0 0
6.3066 9.1572 -2.4712 -0.112 -0.759 -0.641 230 228 223 0 0
6.3221 9.1469 -2.4626 -0.105 -0.981 -0.161 230 228 223 0 0
6.3516 9.1045 -2.4408 -0.696 -0.718 0.016 230 227 222 0 0
6.3668 9.0923 -2.4319 -0.650 -0.742 0.167 230 227 222 0 0
6.7298 7.2065 -1.8503 -0.269 -0.871 -0.412 181 162 132 0 0
6.9018 7.0359 -1.7415 -0.028 -0.986 -0.162 185 169 143 0 0
7.2055 6.8901 -1.5852 0.046 -0.978 -0.202 177 163 137 0 0
7.2783 6.8828 -1.5541 -0.065 -0.988 -0.141 179 165 138 0 0
7.2892 6.8747 -1.5478 -0.033 -0.976 0.217 180 166 139 0 0
7.3020 6.8775 -1.5433 -0.014 -0.997 0.076 175 161 134 0 0
7.3267 6.8777 -1.5334 -0.065 -0.998 0.013 182 166 140 0 0
7.4792 6.8419 -1.4635 -0.108 -0.989 0.098 172 156 123 0 0
7.5272 6.8383 -1.4432 0.099 -0.990 0.096 163 145 112 0 0
7.5392 6.8374 -1.4382 0.034 -0.982 -0.186 171 152 119 0 0
7.5519 6.8396 -1.4336 0.151 -0.984 0.096 164 145 113 0 0
7.6546 6.8643 -1.3978 0.333 -0.942 0.042 171 152 120 0 0
7.7340 6.8387 -1.3598 0.265 -0.964 -0.017 172 155 125 0 0
7.7475 6.8446 -1.3557 0.455 -0.890 0.036 184 165 133 0 0
7.8995 6.9211 -1.3120 0.251 -0.965 0.077 184 163 133 0 0
7.9885 6.9837 -1.2904 -0.160 -0.983 0.086 188 168 138 0 0
8.2510 7.1353 -1.2194 0.297 -0.951 -0.087 206 185 161 0 0
8.4073 7.3320 -1.2016 0.478 -0.749 0.459 209 192 165 0 0
8.5778 7.6486 -1.2057 0.810 -0.580 0.088 220 204 185 0 0
8.6004 7.6804 -1.2039 0.810 -0.580 0.088 221 207 192 0 0
8.6209 7.7049 -1.2013 0.545 -0.833 0.101 228 219 208 0 0
8.6366 7.7136 -1.1969 0.092 -0.993 0.073 242 240 233 0 0
8.6503 7.7152 -1.1918 0.092 -0.993 0.073 243 242 238 0 0
3.0801 6.0317 -3.0678 -0.409 -0.763 0.501 220 199 170 0 0
3.1324 6.0607 -3.0534 0.051 -0.824 0.564 223 202 173 0 0
3.1415 6.0709 -3.0521 0.251 -0.720 0.647 223 202 172 0 0
3.1522 6.0761 -3.0490 0.011 -0.749 0.662 223 202 171 0 0
3.1633 6.0802 -3.0454 0.060 -0.735 0.675 221 200 169 0 0
3.2101 6.0894 -3.0287 0.210 -0.840 0.501 222 203 173 0 0
3.2222 6.0907 -3.0241 -0.150 -0.891 0.428 225 205 177 0 0
3.2345 6.0910 -3.0192 -0.150 -0.891 0.428 223 203 175 0 0
3.2471 6.0905 -3.0140 -0.186 -0.839 0.511 223 202 174 0 0
3.6817 6.1793 -2.8590 -0.330 -0.728 0.601 224 203 172 0 0
3.8672 6.1816 -2.7846 -0.244 -0.594 0.767 223 204 174 0 0
3.9596 6.2105 -2.7539 -0.122 -0.618 0.776 227 204 176 0 0
4.2751 6.2387 -2.6329 0.011 -0.657 0.754 228 208 181 0 0
4.2872 6.2401 -2.6284 0.067 -0.637 0.768 227 206 178 0 0
4.3100 6.2506 -2.6216 -0.369 -0.653 0.661 223 203 173 0 0
4.3236 6.2433 -2.6144 0.235 -0.854 0.464 224 203 174 0 0
4.6138 6.2736 -2.5041 -0.414 -0.681 0.604 225 205 176 0 0
4.6387 6.2712 -2.4935 -0.126 -0.686 0.717 223 204 174 0 0
4.6507 6.2735 -2.4892 -0.126 -0.686 0.717 224 205 175 0 0
4.8428 6.3044 -2.4187 -0.424 -0.870 0.251 226 202 173 0 0
5.1831 6.3184 -2.2845 -0.331 -0.529 0.782 227 206 178 0 0
5.2316 6.3202 -2.2653 -0.129 -0.642 0.755 225 205 176 0 0
5.2437 6.3200 -2.2603 -0.282 -0.795 0.536 228 208 178 0 0
5.4545 6.8841 -2.3062 0.987 -0.121 0.109 191 167 133 0 0
5.4958 7.2538 -2.3755 0.815 -0.579 -0.013 189 165 134 0 0
5.5202 7.3501 -2.3879 -0.820 -0.376 -0.432 193 175 155 0 0
5.5365 7.2331 -2.3542 -0.849 -0.335 -0.409 229 224 212 0 0
6.2971 9.1606 -2.4947 0.137 -0.702 -0.699 229 228 223 0 0
6.3137 9.1727 -2.4908 -0.112 -0.759 -0.641 229 228 223 0 0
6.3284 9.1490 -2.4793 -0.105 -0.981 -0.161 229 228 223 0 0
6.3570 9.0881 -2.4536 -0.850 -0.407 0.335 230 226 222 0 0
6.3770 9.1609 -2.4624 -0.874 -0.485 0.039 230 226 222 0 0
6.4025 8.3196 -2.2566 -0.817 -0.566 -0.109 228 225 218 0 0
6.9179 7.0235 -1.7472 0.098 -0.986 -0.137 184 168 142 0 0
6.9682 7.0214 -1.7264 0.088 -0.996 -0.002 187 172 146 0 0
6.9806 7.0198 -1.7210 -0.099 -0.932 -0.348 184 170 143 0 0
6.9927 7.0165 -1.7153 -0.146 -0.984 -0.104 190 174 148 0 0
7.2113 6.8946 -1.5987 -0.000 -0.999 -0.036 180 166 140 0 0
7.2939 6.8729 -1.5602 -0.084 -0.995 -0.061 177 163 136 0 0
7.3200 6.8810 -1.5516 -0.136 -0.987 0.083 176 160 134 0 0
7.3316 6.8772 -1.5460 -0.065 -0.998 0.013 177 161 135 0 0
7.5324 6.8392 -1.4560 0.243 -0.965 0.096 166 147 115 0 0
7.7097 6.8702 -1.3915 -0.119 -0.993 -0.005 166 148 115 0 0
7.7219 6.8704 -1.3866 -0.012 -0.999 -0.032 162 146 114 0 0
7.7446 6.8630 -1.3758 0.087 -0.962 -0.260 175 156 127 0 0
7.7531 6.8475 -1.3687 0.385 -0.923 0.006 174 153 123 0 0
7.8283 6.9086 -1.3525 0.258 -0.966 0.011 179 160 124 0 0
7.8913 6.9171 -1.3290 0.294 -0.956 0.021 175 155 121 0 0
7.9050 6.9229 -1.3249 0.380 -0.925 0.006 181 160 129 0 0
7.9799 6.9778 -1.3073 0.029 -0.999 0.027 188 168 138 0 0
7.9931 6.9819 -1.3029 -0.160 -0.983 0.086 189 170 140 0 0
8.0028 6.9719 -1.2967 0.387 -0.922 -0.016 189 170 140 0 0
8.2319 7.1372 -1.2425 0.652 -0.750 0.113 195 176 149 0 0
8.6099 7.6938 -1.2191 0.798 -0.602 0.019 222 210 196 0 0
8.6291 7.7141 -1.2160 -0.251 -0.907 0.337 236 230 220 0 0
8.6401 7.7067 -1.2099 -0.145 -0.931 0.335 243 242 236 0 0
8.6544 7.7108 -1.2050 -0.112 -0.949 0.295 243 243 238 0 0
2.8332 6.2445 -3.2315 -0.490 -0.755 -0.435 236 235 233 0 0
2.8505 6.2677 -3.2299 -0.542 -0.622 -0.565 235 234 232 0 0
3.1399 6.0515 -3.0623 -0.128 -0.745 0.654 220 199 169 0 0
3.2196 6.0737 -3.0353 -0.258 -0.879 0.401 222 203 173 0 0
3.2408 6.0850 -3.0293 -0.150 -0.891 0.428 223 203 173 0 0
3.4126 6.1336 -2.9713 -0.273 -0.691 0.669 224 205 175 0 0
3.4899 6.1245 -2.9379 -0.214 -0.750 0.626 222 201 171 0 0
3.5014 6.1275 -2.9339 -0.115 -0.771 0.626 222 201 170 0 0
3.5285 6.1194 -2.9211 -0.057 -0.643 0.764 222 201 172 0 0
3.5501 6.1310 -2.9151 -0.229 -0.565 0.793 225 202 171 0 0
3.6424 6.1567 -2.8837 -0.159 -0.766 0.623 222 201 172 0 0
3.7021 6.1658 -2.8617 -0.428 -0.815 0.390 219 197 166 0 0
3.7133 6.1705 -2.8583 -0.408 -0.705 0.580 219 196 165 0 0
4.2459 6.2214 -2.6549 0.375 -0.923 0.083 226 206 180 0 0
4.2587 6.2190 -2.6491 0.123 -0.989 0.084 226 206 181 0 0
4.4667 6.2225 -2.5658 -0.246 -0.812 0.530 224 203 173 0 0
4.4919 6.2180 -2.5546 -0.010 -0.903 0.431 225 202 171 0 0
4.5146 6.2297 -2.5482 -0.286 -0.591 0.754 226 204 172 0 0
4.6210 6.2549 -2.5110 -0.480 -0.660 0.577 226 205 176 0 0
4.6447 6.2607 -2.5028 -0.309 -0.759 0.573 224 205 175 0 0
4.9367 6.2678 -2.3864 -0.318 -0.778 0.541 225 204 173 0 0
5.2850 6.3167 -2.2570 -0.162 -0.692 0.704 211 188 154 0 0
5.5415 7.2406 -2.3696 -0.840 -0.338 -0.425 230 224 214 0 0
6.3367 9.1872 -2.5037 0.626 -0.774 -0.101 230 227 222 0 0
6.3513 9.1608 -2.4916 0.118 -0.897 -0.425 231 226 222 0 0
6.3626 9.0787 -2.4678 0.084 -0.990 -0.115 230 226 221 0 0
6.3967 9.1191 -2.4635 -0.902 -0.426 -0.072 229 225 222 0 0
6.4289 8.8749 -2.3933 0.460 -0.882 -0.100 227 224 219 0 0
6.4467 8.9094 -2.3942 0.470 -0.782 -0.409 227 224 217 0 0
6.4771 8.8984 -2.3793 0.427 -0.862 -0.273 227 223 220 0 0
6.4806 8.1031 -2.1918 -0.725 -0.225 -0.651 226 223 217 0 0
6.9233 7.0259 -1.7606 0.098 -0.986 -0.137 186 170 144 0 0
6.9357 7.0241 -1.7552 0.062 -0.978 -0.198 189 173 147 0 0
6.9733 7.0219 -1.7394 0.088 -0.996 -0.002 187 171 145 0 0
6.9862 7.0238 -1.7347 -0.078 -0.961 -0.267 184 169 143 0 0
7.2878 6.8796 -1.5790 -0.054 -0.998 -0.009 180 165 139 0 0
7.2993 6.8751 -1.5733 0.240 -0.969 -0.057 179 165 138 0 0
7.3125 6.8800 -1.5691 -0.029 -0.999 0.032 176 162 135 0 0
7.3248 6.8799 -1.5641 -0.029 -0.999 0.032 175 159 132 0 0
7.3368 6.8785 -1.5589 -0.015 -0.979 -0.205 174 159 130 0 0
7.3587 6.8636 -1.5466 -0.059 -0.990 0.132 176 160 134 0 0
7.7153 6.8731 -1.4045 -0.177 -0.976 -0.127 180 161 128 0 0
7.7270 6.8707 -1.3993 -0.012 -0.999 -0.032 162 143 111 0 0
7.9103 6.9242 -1.3377 0.396 -0.916 0.062 172 151 118 0 0
7.9837 6.9730 -1.3194 -0.008 -0.999 -0.043 187 169 139 0 0
8.2669 7.1552 -1.2476 0.450 -0.865 -0.223 209 192 166 0 0
8.5916 7.7018 -1.2442 0.542 -0.735 0.408 216 201 182 0 0
8.5969 7.6760 -1.2360 0.785 -0.619 0.037 220 207 192 0 0
8.6218 7.7149 -1.2351 -0.293 -0.843 0.451 233 223 212 0 0
8.6345 7.7134 -1.2296 -0.293 -0.843 0.451 244 241 233 0 0
8.6473 7.7125 -1.2242 -0.269 -0.869 0.415 243 242 238 0 0
8.6602 7.7117 -1.2188 -0.073 -0.836 0.544 242 242 240 0 0
8.6900 7.7661 -1.2195 0.743 -0.668 0.033 242 242 240 0 0
2.8471 6.2897 -3.2510 -0.444 -0.625 -0.642 236 235 231 0 0
2.8783 6.2383 -3.2262 -0.345 -0.622 -0.703 236 235 231 0 0
3.0358 6.0414 -3.1161 -0.571 -0.760 0.310 213 190 158 0 0
3.2261 6.0670 -3.0452 -0.258 -0.865 0.429 218 197 167 0 0
3.5237 6.1082 -2.9345 -0.464 -0.765 0.446 221 201 170 0 0
3.5467 6.1146 -2.9267 -0.255 -0.607 0.752 223 202 171 0 0
3.7212 6.1571 -2.8661 -0.531 -0.763 0.369 222 199 168 0 0
3.7351 6.1508 -2.8590 -0.531 -0.763 0.369 223 200 169 0 0
4.0311 6.2078 -2.7527 -0.371 -0.691 0.621 223 204 174 0 0
4.2508 6.2193 -2.6665 -0.203 -0.914 0.353 228 208 181 0 0
4.2648 6.2103 -2.6588 -0.114 -0.844 0.524 227 207 180 0 0
4.2991 6.2246 -2.6483 -0.153 -0.773 0.616 224 203 174 0 0
4.3111 6.2260 -2.6437 -0.251 -0.666 0.703 224 203 172 0 0
4.3223 6.2321 -2.6406 -0.358 -0.684 0.635 221 200 169 0 0
4.6495 6.2587 -2.5145 -0.164 -0.841 0.516 224 205 175 0 0
4.9533 6.2692 -2.3941 -0.203 -0.564 0.801 225 204 174 0 0
5.2784 6.3006 -2.2700 -0.094 -0.640 0.762 211 186 151 0 0
5.2904 6.3018 -2.2654 0.213 -0.846 0.489 209 184 150 0 0
5.5466 7.2430 -2.3838 -0.833 -0.334 -0.441 229 224 214 0 0
6.3435 9.1960 -2.5219 0.579 -0.807 -0.118 229 226 221 0 0
6.3606 9.2155 -2.5196 0.344 -0.936 -0.069 231 226 222 0 0
6.3774 9.2293 -2.5160 0.407 -0.890 -0.205 230 226 222 0 0
6.3959 9.2698 -2.5181 0.354 -0.771 0.529 228 224 221 0 0
6.4279 9.2669 -2.5045 0.011 -0.892 -0.452 228 224 221 0 0
6.4035 8.6209 -2.3620 -0.536 -0.718 0.444 228 223 222 0 0
6.4197 8.6364 -2.3591 -0.282 -0.900 0.332 228 223 219 0 0
6.4509 8.8810 -2.4042 0.671 -0.730 -0.127 227 224 218 0 0
6.4344 8.4034 -2.2982 -0.202 -0.745 -0.636 227 223 219 0 0
6.4470 8.3698 -2.2852 -0.767 -0.551 -0.328 227 223 219 0 0
6.4896 8.1486 -2.2158 -0.650 -0.233 -0.723 226 223 218 0 0
6.9286 7.0283 -1.7740 0.098 -0.986 -0.137 188 173 147 0 0
6.9405 7.0220 -1.7678 0.035 -0.923 -0.383 188 171 146 0 0
6.9795 7.0299 -1.7538 -0.270 -0.952 -0.146 183 168 141 0 0
6.9920 7.0289 -1.7486 -0.099 -0.932 -0.348 185 169 143 0 0
7.0579 6.9630 -1.7063 -0.103 -0.993 0.050 182 166 141 0 0
7.2221 6.8995 -1.6250 0.087 -0.994 -0.064 181 167 140 0 0
7.2810 6.8831 -1.5972 -0.295 -0.955 0.039 181 167 140 0 0
7.2927 6.8795 -1.5917 -0.054 -0.998 -0.009 175 161 134 0 0
7.3524 6.8692 -1.5651 -0.054 -0.993 -0.102 173 158 129 0 0
7.5288 6.8324 -1.4851 -0.151 -0.988 0.034 172 155 125 0 0
7.5414 6.8346 -1.4805 0.051 -0.995 0.090 176 159 130 0 0
7.5544 6.8385 -1.4761 0.097 -0.994 -0.045 175 158 130 0 0
7.6120 6.8801 -1.4626 0.250 -0.942 -0.223 175 158 129 0 0
7.6965 6.8752 -1.4273 0.100 -0.968 -0.229 180 161 129 0 0
8.0847 7.0118 -1.3025 0.431 -0.902 0.015 201 183 155 0 0
8.1158 7.0363 -1.2957 0.635 -0.772 0.042 198 182 153 0 0
8.1826 7.1007 -1.2839 0.255 -0.966 0.037 199 181 153 0 0
8.2302 7.1385 -1.2735 0.614 -0.789 0.007 203 184 155 0 0
8.2418 7.1357 -1.2681 0.682 -0.731 0.016 205 186 159 0 0
8.5841 7.6585 -1.2530 0.798 -0.602 0.019 217 203 186 0 0
8.6059 7.6874 -1.2510 0.798 -0.602 0.019 221 209 196 0 0
8.6249 7.7071 -1.2479 0.669 -0.740 -0.063 240 232 223 0 0
8.6435 7.7249 -1.2446 -0.331 -0.938 0.106 243 243 237 0 0
8.6503 7.7040 -1.2369 -0.361 -0.765 0.533 242 242 240 0 0
8.6631 7.7031 -1.2315 -0.073 -0.836 0.544 242 242 240 0 0
8.6715 7.6877 -1.2245 0.038 -0.710 0.703 242 242 240 0 0
2.8132 6.3607 -3.2961 -0.465 -0.577 -0.671 238 234 232 0 0
2.8575 6.2732 -3.2574 -0.247 -0.635 -0.732 237 234 231 0 0
3.2068 6.0637 -3.0663 -0.144 -0.785 0.603 221 199 167 0 0
3.2198 6.0616 -3.0605 -0.298 -0.794 0.530 218 196 166 0 0
3.2326 6.0605 -3.0550 -0.298 -0.794 0.530 216 196 165 0 0
3.2576 6.0598 -3.0447 -0.400 -0.781 0.481 220 198 167 0 0
3.5435 6.0975 -2.9380 -0.122 -0.652 0.748 220 200 170 0 0
3.8754 6.1513 -2.8165 0.167 -0.899 0.405 225 202 173 0 0
4.1149 6.1824 -2.7269 -0.225 -0.714 0.663 228 207 180 0 0
4.2714 6.1991 -2.6676 -0.097 -0.659 0.746 223 204 174 0 0
4.3052 6.2158 -2.6578 -0.153 -0.773 0.616 225 204 174 0 0
4.3172 6.2170 -2.6533 -0.153 -0.773 0.616 222 201 171 0 0
4.3294 6.2176 -2.6485 -0.264 -0.886 0.380 225 204 174 0 0
4.4782 6.2074 -2.5858 0.108 -0.842 0.528 223 204 173 0 0
4.5037 6.2003 -2.5738 -0.188 -0.626 0.757 226 204 173 0 0
4.5156 6.2021 -2.5694 -0.188 -0.626 0.757 226 203 173 0 0
4.6324 6.2383 -2.5307 -0.287 -0.789 0.544 227 205 176 0 0
4.6560 6.2447 -2.5227 -0.097 -0.769 0.632 226 206 177 0 0
5.1411 6.2520 -2.3281 0.348 -0.814 0.466 229 209 179 0 0
5.1522 6.2656 -2.3269 0.104 -0.960 0.261 224 205 175 0 0
5.2953 6.2960 -2.2762 0.071 -0.848 0.526 211 185 149 0 0
5.3191 6.3041 -2.2685 0.262 -0.719 0.643 206 181 144 0 0
5.3542 6.3269 -2.2597 0.179 -0.812 0.555 194 170 134 0 0
5.5516 7.2512 -2.3994 -0.833 -0.334 -0.441 230 224 214 0 0
6.3356 9.2316 -2.5525 0.416 -0.529 0.739 230 226 222 0 0
6.3507 9.2125 -2.5418 0.273 -0.961 -0.037 229 225 221 0 0
6.3673 9.2229 -2.5376 0.445 -0.886 0.129 230 225 221 0 0
6.3837 9.2277 -2.5321 0.094 -0.815 0.572 230 225 222 0 0
6.4001 9.2333 -2.5268 0.094 -0.815 0.572 229 225 221 0 0
6.4571 8.8823 -2.4203 0.438 -0.663 -0.608 226 222 218 0 0
6.4412 8.4165 -2.3161 -0.249 -0.873 -0.420 226 223 218 0 0
6.5057 8.0947 -2.2136 -0.632 -0.241 -0.736 226 222 214 0 0
6.5194 7.9055 -2.1631 -0.644 -0.245 -0.725 174 159 143 0 0
6.9340 7.0307 -1.7875 0.098 -0.986 -0.137 182 168 142 0 0
6.9463 7.0279 -1.7818 -0.039 -0.988 -0.151 185 168 143 0 0
6.9839 7.0254 -1.7660 -0.173 -0.981 0.086 183 168 142 0 0
6.9963 7.0236 -1.7606 -0.170 -0.976 0.134 183 167 141 0 0
7.0071 7.0111 -1.7532 0.146 -0.927 -0.347 184 168 142 0 0
7.0198 7.0112 -1.7481 0.146 -0.927 -0.347 188 172 146 0 0
7.0628 6.9619 -1.7190 -0.103 -0.993 0.050 182 167 142 0 0
7.0749 6.9592 -1.7135 0.281 -0.952 -0.125 184 169 145 0 0
7.1796 6.9122 -1.6599 -0.111 -0.990 -0.087 181 167 141 0 0
7.2042 6.9106 -1.6496 0.273 -0.962 -0.008 184 170 144 0 0
7.3689 6.8652 -1.5721 0.129 -0.991 0.035 179 164 134 0 0
7.5597 6.8401 -1.4890 0.172 -0.985 -0.036 174 156 128 0 0
7.6164 6.8771 -1.4748 0.272 -0.940 0.208 169 152 122 0 0
7.6392 6.8694 -1.4638 0.210 -0.966 0.154 176 158 129 0 0
7.8619 6.9349 -1.3892 0.324 -0.927 0.187 176 157 125 0 0
8.0639 7.0066 -1.3245 0.430 -0.903 0.012 184 163 134 0 0
8.0786 7.0160 -1.3207 0.287 -0.946 -0.148 201 181 154 0 0
8.0907 7.0152 -1.3157 0.410 -0.907 -0.090 198 180 152 0 0
8.2243 7.1434 -1.2921 0.628 -0.772 -0.098 202 183 153 0 0
8.6173 7.7510 -1.2773 0.915 -0.402 0.021 216 202 186 0 0
8.6158 7.7023 -1.2663 0.656 -0.720 -0.228 226 216 205 0 0
8.6318 7.7117 -1.2621 0.519 -0.810 -0.272 243 239 232 0 0
8.6459 7.7146 -1.2571 -0.427 -0.811 -0.400 242 242 238 0 0
8.6523 7.6927 -1.2493 -0.407 -0.831 0.379 242 242 241 0 0
8.6950 7.7463 -1.2448 0.515 -0.784 0.346 242 242 240 0 0
3.1049 6.0100 -3.1087 0.050 -0.826 0.561 213 190 156 0 0
3.1187 6.0057 -3.1021 0.286 -0.831 0.477 213 190 156 0 0
3.2123 6.0600 -3.0772 -0.381 -0.849 0.367 222 200 169 0 0
3.8822 6.1412 -2.8254 0.469 -0.857 0.215 222 201 172 0 0
4.2761 6.1980 -2.6795 -0.060 -0.694 0.718 223 204 174 0 0
4.4311 6.2235 -2.6228 -0.324 -0.830 0.454 225 206 175 0 0
4.4987 6.1832 -2.5858 -0.472 -0.712 0.519 225 205 174 0 0
4.6498 6.2336 -2.5367 -0.259 -0.779 0.572 227 206 177 0 0
4.8123 6.1983 -2.4624 0.121 -0.685 0.718 227 207 180 0 0
4.8237 6.2048 -2.4594 0.078 -0.556 0.827 228 208 181 0 0
5.1448 6.2643 -2.3436 -0.145 -0.880 0.453 226 205 175 0 0
5.1569 6.2643 -2.3387 -0.057 -0.903 0.426 224 203 174 0 0
5.1817 6.2546 -2.3264 -0.391 -0.603 0.696 229 208 178 0 0
5.2889 6.2768 -2.2883 0.064 -0.644 0.762 204 180 143 0 0
5.3244 6.2897 -2.2770 0.477 -0.721 0.502 200 174 139 0 0
5.5565 7.2620 -2.4156 -0.824 -0.336 -0.456 230 224 214 0 0
6.3417 9.2280 -2.5681 0.496 -0.708 0.503 230 225 222 0 0
6.3571 9.2147 -2.5587 0.445 -0.886 0.129 230 225 222 0 0
6.3737 9.2237 -2.5542 0.445 -0.886 0.129 230 225 220 0 0
6.4438 8.3689 -2.3212 -0.546 -0.809 -0.217 226 223 218 0 0
6.5282 7.9463 -2.1859 -0.619 -0.243 -0.747 179 168 155 0 0
6.9394 7.0331 -1.8009 0.098 -0.986 -0.137 182 166 140 0 0
6.9522 7.0337 -1.7959 0.098 -0.986 -0.137 183 166 140 0 0
6.9646 7.0318 -1.7904 0.138 -0.987 -0.080 188 171 145 0 0
6.9772 7.0317 -1.7853 -0.033 -0.987 -0.160 187 172 146 0 0
7.0143 7.0257 -1.7688 -0.034 -0.986 -0.163 184 168 142 0 0
7.0247 7.0104 -1.7610 -0.239 -0.969 -0.068 185 169 143 0 0
7.0804 6.9626 -1.7270 0.281 -0.952 -0.125 184 170 144 0 0
7.0935 6.9658 -1.7225 0.281 -0.952 -0.125 185 171 145 0 0
7.1730 6.9166 -1.6785 -0.059 -0.989 -0.139 186 172 144 0 0
7.1848 6.9128 -1.6728 -0.111 -0.990 -0.087 185 171 144 0 0
7.1970 6.9119 -1.6676 -0.047 -0.996 -0.081 182 168 142 0 0
7.2908 6.8818 -1.6225 0.025 -0.965 -0.261 180 166 139 0 0
7.3027 6.8794 -1.6171 -0.074 -0.987 -0.140 173 159 132 0 0
7.3633 6.8739 -1.5912 0.219 -0.969 0.115 178 163 134 0 0
7.3769 6.8809 -1.5874 0.082 -0.993 -0.084 178 164 135 0 0
7.4010 6.8782 -1.5770 0.079 -0.988 0.136 175 161 132 0 0
8.2291 7.1421 -1.3048 0.574 -0.793 -0.205 205 186 156 0 0
8.2556 7.1481 -1.2955 0.661 -0.749 -0.042 204 185 156 0 0
8.2718 7.1615 -1.2922 0.629 -0.776 0.043 209 189 162 0 0
8.6339 7.7878 -1.2954 0.915 -0.402 0.021 218 206 192 0 0
8.6785 7.8915 -1.3022 0.921 -0.387 0.040 232 226 217 0 0
8.7257 8.0030 -1.3097 0.921 -0.387 0.040 243 242 237 0 0
8.6903 7.7559 -1.2649 0.708 -0.699 0.096 241 241 239 0 0
3.1024 5.9937 -3.1198 -0.348 -0.858 0.378 213 191 159 0 0
3.3398 6.0226 -3.0306 -0.008 -0.972 0.235 221 200 173 0 0
3.3524 6.0218 -3.0253 -0.316 -0.907 0.279 220 201 171 0 0
3.5378 6.0613 -2.9598 -0.284 -0.730 0.622 227 207 180 0 0
3.5502 6.0610 -2.9547 -0.266 -0.717 0.645 224 204 175 0 0
3.6749 6.1008 -2.9138 -0.167 -0.566 0.807 221 201 170 0 0
3.8101 6.1014 -2.8591 -0.500 -0.707 0.500 226 205 176 0 0
3.8367 6.0932 -2.8464 -0.069 -0.702 0.709 223 202 171 0 0
4.0762 6.1167 -2.7550 0.046 -0.954 0.297 224 205 175 0 0
4.2951 6.1858 -2.6830 -0.189 -0.847 0.496 225 205 177 0 0
4.3196 6.1855 -2.6730 -0.179 -0.585 0.791 224 204 177 0 0
4.4050 6.1869 -2.6387 0.421 -0.737 0.529 224 203 175 0 0
4.4173 6.1865 -2.6336 0.611 -0.691 0.385 225 204 176 0 0
4.4389 6.2038 -2.6291 -0.089 -0.787 0.610 223 203 171 0 0
4.5651 6.1760 -2.5712 -0.400 -0.659 0.637 223 203 173 0 0
4.5776 6.1739 -2.5657 -0.400 -0.659 0.637 224 204 175 0 0
4.5880 6.1856 -2.5643 -0.133 -0.614 0.778 224 202 174 0 0
4.6940 6.2109 -2.5275 -0.255 -0.737 0.626 226 207 177 0 0
4.7937 6.1895 -2.4819 -0.154 -0.674 0.722 225 204 176 0 0
4.8176 6.1925 -2.4730 -0.091 -0.605 0.791 223 204 177 0 0
4.8291 6.1976 -2.4695 -0.179 -0.626 0.759 227 207 180 0 0
4.9970 6.2090 -2.4042 -0.341 -0.617 0.709 227 206 179 0 0
5.2358 6.2353 -2.3138 0.257 -0.839 0.479 224 199 165 0 0
5.2821 6.2656 -2.3024 -0.052 -0.717 0.695 205 181 145 0 0
5.3349 6.4133 -2.3166 0.907 -0.418 0.048 199 175 141 0 0
5.5452 7.3985 -2.4689 -0.832 -0.289 -0.473 192 175 158 0 0
5.5615 7.2721 -2.4318 -0.828 -0.336 -0.450 230 224 214 0 0
6.3624 9.1972 -2.5713 0.750 -0.286 0.596 229 224 221 0 0
6.3808 9.2381 -2.5737 0.656 -0.273 0.703 229 224 220 0 0
6.4236 8.4237 -2.3601 -0.710 -0.618 0.338 225 222 216 0 0
6.4692 8.4374 -2.3449 -0.281 -0.788 0.547 222 221 217 0 0
6.5320 8.1022 -2.2387 -0.652 -0.231 -0.723 224 220 213 0 0
6.5382 8.0015 -2.2119 -0.659 -0.232 -0.716 194 185 173 0 0
6.9568 7.0305 -1.8083 0.011 -0.999 -0.051 182 165 136 0 0
6.9700 7.0341 -1.8039 0.109 -0.983 -0.149 183 166 139 0 0
7.0197 7.0277 -1.7822 -0.034 -0.986 -0.163 186 170 144 0 0
7.0860 6.9660 -1.7405 0.281 -0.952 -0.125 178 164 138 0 0
7.2621 6.9009 -1.6534 -0.133 -0.957 -0.258 181 167 142 0 0
7.4064 6.8803 -1.5900 0.283 -0.955 -0.089 171 157 128 0 0
7.6752 6.8766 -1.4803 0.155 -0.978 0.141 177 160 130 0 0
7.7009 6.8823 -1.4712 0.226 -0.974 -0.010 172 156 123 0 0
