ply
format ascii 1.0
element vertex 824
property float x
property float y
property float z
property float nx
property float ny
property float nz
property uchar diffuse_red
property uchar diffuse_green
property uchar diffuse_blue
property uchar class
property uchar detection
end_header
3.1553 9.0372 -1.6920 -0.420 -0.850 -0.317 183 131 110 0 0
3.2049 8.9524 -1.7214 -0.301 -0.908 0.292 187 135 113 0 0
3.3970 8.9255 -1.7794 -0.183 -0.684 0.706 190 135 114 0 0
3.4282 8.9120 -1.7906 -0.354 -0.610 0.709 181 130 108 0 0
4.0523 9.2158 -1.9069 0.307 -0.681 -0.664 125 84 66 0 0
4.4160 9.4767 -1.9592 0.488 -0.784 -0.384 141 95 77 0 0
3.0211 7.9496 -1.8560 -0.589 0.018 0.808 227 204 173 0 0
3.0620 7.8880 -1.8787 -0.412 -0.696 0.588 228 211 183 0 0
3.0724 7.8778 -1.8835 -0.412 -0.696 0.588 231 214 186 0 0
3.3680 7.5551 -2.0249 -0.294 -0.662 0.690 226 209 181 0 0
3.5203 7.3967 -2.0962 -0.067 -0.910 0.410 230 213 185 0 0
3.5351 7.3899 -2.1016 -0.236 -0.899 0.369 230 213 185 0 0
3.6234 7.3107 -2.1407 -0.159 -0.671 0.724 232 212 183 0 0
3.7156 7.1785 -2.1906 -0.136 -0.846 0.516 233 213 186 0 0
3.7318 7.1724 -2.1962 -0.241 -0.803 0.545 234 214 187 0 0
3.7320 7.1358 -2.2030 -0.352 -0.673 0.650 230 212 185 0 0
3.7434 7.1261 -2.2080 -0.390 -0.767 0.509 232 215 188 0 0
3.7553 7.1168 -2.2130 -0.390 -0.767 0.509 237 220 194 0 0
3.7691 7.1090 -2.2182 -0.164 -0.918 0.362 234 217 191 0 0
3.7856 7.1031 -2.2239 -0.240 -0.939 0.248 232 215 188 0 0
3.8022 7.0973 -2.2296 -0.240 -0.939 0.248 231 214 188 0 0
3.8042 7.0805 -2.2332 -0.356 -0.683 0.637 232 215 188 0 0
3.9997 6.8973 -2.3211 -0.686 -0.124 0.717 231 212 182 0 0
4.1100 6.7604 -2.3769 -0.599 -0.524 0.606 231 211 184 0 0
4.1143 6.7457 -2.3809 -0.497 -0.485 0.719 229 212 184 0 0
4.1787 6.6836 -2.4101 -0.398 -0.477 0.784 227 210 180 0 0
4.3408 6.4423 -2.4996 -0.668 -0.502 0.550 232 211 184 0 0
4.3447 6.4276 -2.5034 -0.580 -0.529 0.620 224 204 177 0 0
4.3517 6.4150 -2.5076 -0.580 -0.529 0.620 232 214 186 0 0
4.5543 6.0840 -2.6248 -0.262 -0.611 0.747 229 212 185 0 0
4.7401 5.8613 -2.7174 -0.380 -0.908 0.177 226 206 179 0 0
4.7465 5.8327 -2.7245 -0.064 -0.807 0.587 226 206 179 0 0
1.6853 10.6412 -1.0063 -0.809 -0.331 0.486 188 142 126 0 0
1.8557 10.4625 -1.0865 -0.217 -0.722 0.656 181 130 109 0 0
2.2203 10.0299 -1.2673 -0.588 -0.591 0.552 186 136 114 0 0
2.2352 10.0247 -1.2724 -0.441 -0.577 0.687 186 136 115 0 0
2.3101 9.9459 -1.3077 -0.520 -0.764 0.382 181 133 118 0 0
2.3250 9.9405 -1.3128 -0.577 -0.669 0.468 165 116 101 0 0
2.3368 9.9306 -1.3179 -0.077 -0.902 0.425 172 123 108 0 0
2.3799 9.8602 -1.3428 -0.528 -0.385 0.757 194 144 123 0 0
2.3875 9.8447 -1.3478 -0.456 -0.438 0.775 195 143 122 0 0
2.4067 9.8192 -1.3578 -0.308 -0.551 0.776 178 126 105 0 0
2.6615 9.5455 -1.4789 -0.763 -0.244 0.598 194 142 124 0 0
2.9110 9.2875 -1.5956 -0.449 -0.380 0.809 171 115 92 0 0
2.9169 9.2704 -1.6004 -0.449 -0.380 0.809 185 128 106 0 0
3.0123 9.1665 -1.6460 -0.604 -0.503 0.619 197 142 121 0 0
3.1323 9.0429 -1.7020 -0.231 -0.909 0.348 190 138 117 0 0
3.4210 8.9121 -1.8062 -0.580 -0.687 0.438 177 124 102 0 0
4.1412 9.2875 -1.9372 0.357 -0.706 -0.612 124 81 64 0 0
4.2070 9.3283 -1.9480 0.432 -0.718 -0.546 134 91 74 0 0
4.2895 9.3851 -1.9604 0.431 -0.711 -0.556 143 97 81 0 0
4.4096 9.4784 -1.9767 0.480 -0.794 -0.373 137 91 75 0 0
4.4851 9.5275 -1.9886 0.475 -0.767 -0.432 138 91 75 0 0
4.5650 9.5805 -2.0010 0.484 -0.807 -0.338 145 100 83 0 0
3.0218 7.9770 -1.8673 -0.261 -0.489 0.832 222 200 168 0 0
3.1235 7.7729 -1.9331 -0.177 -0.635 0.752 233 215 187 0 0
3.1388 7.7279 -1.9456 -0.559 -0.564 0.607 232 215 187 0 0
3.1751 7.6825 -1.9640 -0.280 -0.603 0.746 232 215 187 0 0
3.1851 7.6720 -1.9687 -0.280 -0.603 0.746 229 212 184 0 0
3.2067 7.6524 -1.9783 -0.219 -0.623 0.751 232 215 187 0 0
3.5247 7.3875 -2.1154 -0.302 -0.887 0.350 230 213 186 0 0
3.7008 7.1728 -2.2037 -0.136 -0.846 0.516 232 215 187 0 0
3.7153 7.1656 -2.2091 -0.165 -0.817 0.553 228 211 183 0 0
3.7137 7.1459 -2.2123 -0.666 -0.390 0.636 233 214 187 0 0
3.7893 7.0569 -2.2496 -0.663 -0.252 0.705 233 216 190 0 0
4.1046 6.7446 -2.3946 -0.698 -0.355 0.622 231 212 185 0 0
4.1181 6.7010 -2.4064 -0.140 -0.830 0.541 228 211 183 0 0
4.3392 6.4124 -2.5208 -0.579 -0.487 0.654 234 217 189 0 0
4.3409 6.3965 -2.5242 -0.802 -0.339 0.491 225 208 180 0 0
4.3488 6.3844 -2.5286 -0.811 -0.330 0.483 225 208 180 0 0
4.7637 5.8146 -2.7486 -0.034 -0.834 0.551 227 207 178 0 0
4.7815 5.8079 -2.7548 -0.064 -0.807 0.587 227 208 178 0 0
1.6520 10.6535 -1.0122 -0.362 -0.599 0.714 180 135 114 0 0
2.1475 10.0937 -1.2527 -0.168 -0.758 0.630 183 132 113 0 0
2.3098 9.9283 -1.3282 -0.499 -0.566 0.656 191 143 128 0 0
2.5605 9.6498 -1.4491 -0.435 -0.525 0.732 190 134 115 0 0
2.7398 9.4294 -1.5393 -0.345 -0.687 0.640 138 77 58 0 0
2.8527 9.2752 -1.5990 -0.642 -0.390 0.659 179 126 104 0 0
2.9105 9.2235 -1.6246 -0.273 -0.401 0.875 173 117 93 0 0
3.1703 8.9532 -1.7465 -0.162 -0.813 0.559 195 143 123 0 0
3.3544 8.9190 -1.8041 -0.123 -0.928 0.352 153 98 75 0 0
3.4109 8.9092 -1.8217 -0.585 -0.626 0.515 172 119 97 0 0
4.0775 9.2562 -1.9441 0.455 -0.761 -0.463 118 75 59 0 0
4.1577 9.3116 -1.9564 0.455 -0.761 -0.463 117 75 59 0 0
4.2357 9.3644 -1.9685 0.469 -0.758 -0.453 137 95 78 0 0
4.3250 9.4279 -1.9818 0.445 -0.763 -0.470 141 97 81 0 0
4.4064 9.4832 -1.9944 0.492 -0.810 -0.319 137 91 75 0 0
4.4734 9.5241 -2.0056 0.473 -0.787 -0.396 130 83 67 0 0
4.5572 9.5809 -2.0186 0.473 -0.787 -0.396 146 101 84 0 0
3.0024 7.9649 -1.8803 -0.326 -0.477 0.816 222 199 167 0 0
2.9933 7.9360 -1.8830 -0.636 0.090 0.767 222 199 168 0 0
3.0032 7.8654 -1.8987 -0.381 -0.436 0.816 231 210 183 0 0
3.0932 7.7712 -1.9411 -0.748 -0.315 0.584 233 213 186 0 0
3.1068 7.7639 -1.9462 -0.831 -0.369 0.417 232 212 185 0 0
3.1718 7.6664 -1.9821 -0.655 -0.375 0.657 235 218 190 0 0
3.1765 7.6511 -1.9862 -0.655 -0.375 0.657 234 217 190 0 0
3.1892 7.6430 -1.9912 -0.219 -0.623 0.751 231 214 186 0 0
3.3532 7.5163 -2.0601 -0.574 -0.654 0.493 205 188 160 0 0
3.3622 7.5049 -2.0648 -0.574 -0.654 0.493 226 209 181 0 0
3.3920 7.4920 -2.0754 -0.652 -0.748 -0.124 229 212 184 0 0
3.4856 7.3427 -2.1288 -0.404 -0.662 0.631 232 215 187 0 0
3.5011 7.3366 -2.1343 -0.402 -0.649 0.646 231 214 186 0 0
3.5045 7.3206 -2.1381 -0.320 -0.536 0.781 227 210 182 0 0
3.5131 7.3089 -2.1427 -0.320 -0.536 0.781 234 217 189 0 0
3.7024 7.1431 -2.2258 -0.666 -0.390 0.636 230 213 185 0 0
3.7821 7.0390 -2.2670 -0.408 -0.527 0.745 234 218 190 0 0
3.8404 6.9916 -2.2920 -0.298 -0.690 0.659 231 214 186 0 0
4.0953 6.7437 -2.4084 -0.709 -0.091 0.699 232 213 185 0 0
4.0906 6.6879 -2.4173 -0.413 -0.609 0.677 231 214 186 0 0
4.6780 5.8701 -2.7306 -0.272 -0.760 0.590 231 211 184 0 0
4.7292 5.8172 -2.7546 -0.358 -0.721 0.594 227 208 178 0 0
4.7411 5.8076 -2.7597 -0.064 -0.807 0.587 230 211 181 0 0
5.1406 5.8686 -2.8599 0.308 -0.801 0.514 236 236 234 0 0
1.4135 11.1105 -0.8796 -0.148 -0.846 0.512 244 244 243 0 0
1.4814 11.1412 -0.8931 -0.889 -0.147 0.434 246 243 240 0 0
1.7509 10.5117 -1.0830 -0.261 -0.635 0.727 197 151 135 0 0
2.1550 10.0605 -1.2782 -0.163 -0.652 0.740 196 147 127 0 0
2.4293 9.7140 -1.4180 -0.351 -0.632 0.691 171 115 97 0 0
2.7204 9.4141 -1.5541 -0.283 -0.594 0.753 180 121 101 0 0
2.7896 9.3282 -1.5891 -0.680 -0.364 0.636 194 142 121 0 0
3.0445 9.0544 -1.7103 -0.365 -0.781 0.507 183 130 109 0 0
3.1434 8.9548 -1.7561 -0.176 -0.943 0.281 183 131 113 0 0
3.1595 8.9492 -1.7616 -0.174 -0.903 0.393 172 119 101 0 0
3.1757 8.9437 -1.7671 -0.207 -0.929 0.305 174 122 103 0 0
3.1826 8.9281 -1.7719 -0.302 -0.791 0.533 164 113 93 0 0
3.4374 8.8754 -1.8529 -0.035 -0.765 0.642 151 101 82 0 0
4.0020 9.2129 -1.9498 0.282 -0.933 -0.224 112 69 52 0 0
4.1522 9.3140 -1.9735 0.523 -0.813 -0.255 126 85 67 0 0
4.2222 9.3590 -1.9849 0.531 -0.808 -0.256 135 94 76 0 0
4.3180 9.4290 -1.9990 0.529 -0.813 -0.243 143 100 84 0 0
4.4057 9.4906 -2.0124 0.543 -0.832 -0.110 133 90 74 0 0
4.4836 9.5421 -2.0249 0.516 -0.813 -0.268 127 81 65 0 0
4.5611 9.5928 -2.0374 0.477 -0.792 -0.382 139 93 77 0 0
2.9879 7.9575 -1.8937 -0.439 -0.511 0.739 225 199 168 0 0
2.9782 7.9281 -1.8964 -0.734 -0.024 0.679 228 205 173 0 0
3.1832 7.6245 -2.0090 -0.356 -0.671 0.650 234 217 188 0 0
3.2509 7.5684 -2.0381 -0.164 -0.736 0.657 232 215 187 0 0
3.3451 7.5155 -2.0741 -0.737 -0.631 0.243 215 198 170 0 0
3.3523 7.5025 -2.0785 -0.736 -0.505 0.451 229 212 184 0 0
3.3683 7.4970 -2.0840 -0.411 -0.852 0.325 229 214 185 0 0
3.3826 7.4901 -2.0893 -0.169 -0.986 0.001 231 214 186 0 0
3.5394 7.2800 -2.1714 -0.481 -0.465 0.743 234 217 189 0 0
3.6529 7.1292 -2.2306 -0.349 -0.641 0.683 230 213 185 0 0
3.7449 7.0714 -2.2669 -0.430 -0.581 0.691 233 216 190 0 0
3.7557 7.0613 -2.2717 -0.359 -0.490 0.794 235 218 192 0 0
3.7632 7.0487 -2.2761 -0.359 -0.490 0.794 235 218 190 0 0
4.0749 6.6652 -2.4331 -0.297 -0.648 0.702 231 214 188 0 0
4.3997 6.2407 -2.6013 -0.607 -0.232 0.760 230 213 185 0 0
4.3987 6.2235 -2.6042 -0.636 -0.220 0.740 230 215 186 0 0
4.6132 5.8881 -2.7252 -0.519 -0.475 0.710 228 208 181 0 0
4.7172 5.8158 -2.7675 -0.282 -0.776 0.565 226 206 179 0 0
1.3884 11.1063 -0.8908 -0.241 -0.818 0.523 245 245 243 0 0
1.4438 11.1147 -0.9049 -0.015 -0.870 0.492 245 243 242 0 0
1.4582 11.1101 -0.9098 -0.146 -0.874 0.464 244 243 240 0 0
1.4718 11.0734 -0.9202 -0.193 -0.672 0.715 179 153 149 0 0
1.5463 10.6982 -1.0090 -0.137 -0.839 0.526 194 149 133 0 0
1.5795 10.6675 -1.0239 -0.423 -0.577 0.698 166 117 102 0 0
1.5898 10.6560 -1.0289 -0.526 -0.439 0.729 172 125 108 0 0
1.5969 10.6391 -1.0339 -0.526 -0.439 0.729 177 128 111 0 0
1.9869 10.1978 -1.2234 -0.289 -0.709 0.643 191 144 126 0 0
2.1929 9.9918 -1.3186 -0.466 -0.525 0.712 171 122 108 0 0
2.3494 9.8194 -1.3938 -0.265 -0.939 0.221 197 148 130 0 0
2.3638 9.8132 -1.3990 -0.682 -0.677 0.277 184 135 116 0 0
2.3738 9.8010 -1.4040 -0.833 -0.359 0.422 179 128 109 0 0
2.3849 9.7904 -1.4090 -0.429 -0.732 0.528 183 131 114 0 0
2.4158 9.7047 -1.4332 -0.513 -0.544 0.664 202 152 135 0 0
2.7311 9.3384 -1.5881 -0.191 -0.825 0.533 190 133 109 0 0
2.7835 9.3050 -1.6089 -0.643 -0.408 0.648 191 139 118 0 0
2.8641 9.1620 -1.6574 -0.233 -0.831 0.506 178 125 104 0 0
2.9628 9.0871 -1.6987 -0.737 -0.496 0.460 187 133 112 0 0
3.0670 8.9713 -1.7490 -0.209 -0.835 0.508 181 128 108 0 0
3.1281 8.9458 -1.7708 -0.173 -0.926 0.336 164 114 94 0 0
3.1438 8.9398 -1.7763 -0.309 -0.802 0.510 208 156 135 0 0
3.1572 8.9313 -1.7816 -0.302 -0.791 0.533 180 129 109 0 0
3.1704 8.9226 -1.7869 -0.302 -0.791 0.533 178 127 107 0 0
3.4317 8.8770 -1.8687 0.179 -0.945 0.274 132 83 64 0 0
3.9123 9.1549 -1.9537 0.184 -0.807 -0.562 109 66 49 0 0
3.9974 9.2161 -1.9666 0.323 -0.946 -0.027 115 72 55 0 0
4.1520 9.3217 -1.9911 0.537 -0.833 -0.132 132 91 73 0 0
4.2240 9.3687 -2.0028 0.552 -0.823 -0.134 136 95 77 0 0
4.3099 9.4289 -2.0161 0.542 -0.831 -0.129 142 99 83 0 0
4.3901 9.4833 -2.0289 0.542 -0.831 -0.129 130 87 71 0 0
4.4895 9.5559 -2.0437 0.528 -0.804 -0.274 130 84 68 0 0
4.5638 9.6036 -2.0560 0.390 -0.736 -0.553 138 92 76 0 0
2.9667 7.9437 -1.9064 -0.779 0.099 0.619 222 196 164 0 0
3.1585 7.6088 -2.0209 -0.245 -0.737 0.630 232 215 187 0 0
3.3308 7.5094 -2.0873 -0.600 -0.514 0.613 233 216 188 0 0
3.3338 7.4928 -2.0911 -0.587 -0.417 0.694 234 217 189 0 0
3.3562 7.4929 -2.0975 -0.436 -0.795 0.421 234 217 189 0 0
3.4585 7.3325 -2.1552 -0.405 -0.750 0.523 232 215 187 0 0
3.4638 7.2994 -2.1627 -0.425 -0.529 0.735 233 216 188 0 0
3.6413 7.1260 -2.2440 -0.182 -0.675 0.715 233 216 188 0 0
4.0290 6.6920 -2.4315 -0.339 -0.610 0.716 229 213 185 0 0
4.1320 6.5355 -2.4888 -0.210 -0.799 0.563 231 214 186 0 0
4.1466 6.5278 -2.4943 -0.209 -0.765 0.609 230 213 185 0 0
4.2503 6.4235 -2.5423 -0.400 -0.523 0.752 230 213 185 0 0
4.3920 6.1749 -2.6271 -0.483 -0.524 0.701 225 207 179 0 0
4.5757 5.9530 -2.7189 -0.502 -0.844 0.186 227 210 182 0 0
4.5856 5.9423 -2.7236 -0.525 -0.641 0.559 225 208 180 0 0
4.6089 5.8906 -2.7395 -0.497 -0.750 0.437 228 208 181 0 0
1.4566 11.0873 -0.9310 -0.117 -0.607 0.786 226 215 208 0 0
1.5397 10.6971 -1.0246 -0.350 -0.601 0.719 182 139 122 0 0
1.5523 10.6895 -1.0295 -0.230 -0.620 0.750 168 122 106 0 0
1.5746 10.6404 -1.0446 -0.558 -0.509 0.656 182 135 118 0 0
2.1793 9.9814 -1.3339 -0.577 -0.529 0.622 189 141 126 0 0
2.2903 9.8503 -1.3888 -0.258 -0.667 0.699 182 136 123 0 0
2.3487 9.8015 -1.4141 -0.360 -0.782 0.509 189 141 124 0 0
2.6086 9.4390 -1.5527 -0.723 -0.286 0.629 183 133 114 0 0
2.7685 9.3191 -1.6194 -0.830 -0.449 0.331 179 124 103 0 0
2.7755 9.3034 -1.6242 -0.853 -0.439 0.281 191 136 116 0 0
2.8253 9.1720 -1.6619 -0.247 -0.848 0.470 190 137 113 0 0
2.8523 9.1562 -1.6724 -0.233 -0.831 0.506 153 100 78 0 0
2.9482 9.1017 -1.7093 -0.423 -0.720 0.551 188 141 123 0 0
2.9522 9.0828 -1.7138 -0.570 -0.388 0.724 184 134 114 0 0
2.9590 9.0673 -1.7185 -0.626 -0.488 0.609 175 122 100 0 0
2.9735 9.0602 -1.7239 -0.602 -0.479 0.639 188 134 113 0 0
2.9855 9.0505 -1.7290 -0.792 -0.243 0.560 181 129 107 0 0
2.9885 9.0306 -1.7334 -0.792 -0.243 0.560 190 138 116 0 0
2.9915 9.0108 -1.7378 -0.792 -0.243 0.560 165 112 92 0 0
2.9966 8.9935 -1.7424 -0.632 -0.388 0.671 177 122 102 0 0
3.0560 8.9667 -1.7640 -0.245 -0.835 0.492 191 139 118 0 0
3.1167 8.9410 -1.7858 -0.555 -0.788 0.265 177 126 106 0 0
3.1319 8.9345 -1.7912 -0.640 -0.753 0.154 175 122 100 0 0
3.1426 8.9232 -1.7963 -0.653 -0.704 0.279 168 114 95 0 0
3.1703 8.9300 -1.8029 -0.220 -0.971 -0.096 171 117 98 0 0
3.8882 9.1621 -1.9642 0.272 -0.938 -0.215 104 61 44 0 0
3.9296 9.1799 -1.9727 0.157 -0.894 -0.419 112 69 52 0 0
3.9720 9.1985 -1.9814 0.370 -0.915 0.162 117 76 58 0 0
4.2099 9.3626 -2.0191 0.551 -0.824 -0.131 134 93 75 0 0
4.2939 9.4211 -2.0324 0.552 -0.833 -0.024 129 87 70 0 0
4.3885 9.4897 -2.0468 0.561 -0.820 -0.109 133 90 73 0 0
4.4813 9.5560 -2.0611 0.540 -0.808 -0.235 131 88 71 0 0
4.5806 9.6282 -2.0763 0.375 -0.730 -0.571 134 88 73 0 0
2.9528 7.9368 -1.9198 -0.800 0.253 0.543 218 193 160 0 0
3.0631 7.6841 -1.9963 -0.452 -0.535 0.714 233 216 188 0 0
3.0987 7.6581 -2.0111 -0.299 -0.538 0.788 234 214 187 0 0
3.1897 7.5655 -2.0534 -0.224 -0.876 0.428 231 214 186 0 0
3.2101 7.5642 -2.0594 -0.193 -0.752 0.630 234 217 189 0 0
3.3440 7.4886 -2.1109 -0.307 -0.797 0.520 232 215 187 0 0
4.1003 6.5544 -2.4925 -0.377 -0.510 0.773 232 215 187 0 0
4.1099 6.5435 -2.4971 -0.478 -0.457 0.750 232 215 187 0 0
4.1276 6.5207 -2.5062 -0.336 -0.698 0.632 228 211 183 0 0
4.3711 6.2172 -2.6296 -0.561 -0.420 0.713 228 211 183 0 0
4.3789 6.1557 -2.6428 -0.551 -0.390 0.738 230 213 185 0 0
4.4034 6.1207 -2.6560 -0.599 -0.296 0.744 229 212 184 0 0
4.4131 6.0936 -2.6636 -0.395 -0.780 0.486 227 208 180 0 0
4.4269 6.0852 -2.6690 -0.466 -0.643 0.607 230 210 183 0 0
4.4317 6.0716 -2.6728 -0.344 -0.745 0.571 230 210 183 0 0
4.4748 6.0474 -2.6894 -0.426 -0.451 0.785 228 211 183 0 0
4.4788 6.0334 -2.6930 -0.413 -0.674 0.612 228 211 183 0 0
4.5092 6.0018 -2.7073 -0.513 -0.430 0.743 232 212 185 0 0
4.5949 5.8719 -2.7548 -0.178 -0.814 0.553 232 212 187 0 0
1.3196 11.0325 -0.9194 0.015 -0.950 0.312 244 243 241 0 0
1.3285 11.0183 -0.9245 0.162 -0.949 -0.271 245 244 242 0 0
1.3517 11.0302 -0.9289 0.163 -0.982 -0.099 244 243 242 0 0
1.3722 11.0369 -0.9336 0.237 -0.957 0.166 247 242 241 0 0
1.5337 10.6679 -1.0453 -0.382 -0.557 0.737 176 129 112 0 0
1.5431 10.6549 -1.0503 -0.382 -0.557 0.737 165 116 99 0 0
1.5629 10.6306 -1.0602 -0.584 -0.541 0.605 175 127 109 0 0
1.8995 10.2198 -1.2292 -0.362 -0.662 0.657 176 128 106 0 0
1.9628 10.1801 -1.2542 -0.215 -0.812 0.542 174 126 108 0 0
2.1738 9.9564 -1.3541 -0.243 -0.772 0.587 166 118 102 0 0
2.1866 9.9483 -1.3592 -0.693 -0.536 0.482 128 79 66 0 0
2.1952 9.9343 -1.3641 -0.478 -0.722 0.500 191 143 129 0 0
2.5079 9.5414 -1.5231 -0.402 -0.633 0.661 189 137 116 0 0
2.5590 9.4830 -1.5480 -0.275 -0.594 0.756 171 116 99 0 0
2.5701 9.4725 -1.5530 -0.271 -0.620 0.737 177 121 105 0 0
2.5759 9.4553 -1.5577 -0.471 -0.490 0.734 165 112 95 0 0
2.7460 9.3002 -1.6337 -0.497 -0.547 0.673 189 134 113 0 0
2.7546 9.2865 -1.6386 -0.572 -0.374 0.730 181 126 106 0 0
2.8142 9.1669 -1.6769 -0.247 -0.848 0.470 193 137 114 0 0
2.8281 9.1595 -1.6822 -0.413 -0.807 0.422 184 129 106 0 0
2.8415 9.1515 -1.6874 -0.384 -0.769 0.511 176 121 99 0 0
2.9356 9.0718 -1.7283 -0.370 -0.480 0.795 186 140 119 0 0
2.9571 9.0495 -1.7384 -0.487 -0.493 0.721 180 129 108 0 0
2.9648 9.0350 -1.7432 -0.487 -0.493 0.721 183 130 109 0 0
2.9855 8.9887 -1.7573 -0.585 -0.381 0.716 190 137 116 0 0
3.0442 8.9614 -1.7789 -0.245 -0.835 0.492 190 141 121 0 0
3.0570 8.9524 -1.7841 -0.099 -0.915 0.392 187 139 119 0 0
3.1080 8.9391 -1.8010 -0.098 -0.941 0.324 172 120 100 0 0
3.2045 8.8826 -1.8385 -0.120 -0.964 0.238 169 113 90 0 0
3.2430 8.9006 -1.8462 -0.325 -0.832 0.449 155 101 77 0 0
3.3752 8.8565 -1.8916 0.113 -0.888 0.445 137 90 70 0 0
3.9297 9.1877 -1.9900 0.150 -0.927 -0.344 105 64 46 0 0
3.9879 9.2221 -2.0004 0.317 -0.852 -0.416 111 71 53 0 0
4.2835 9.4188 -2.0492 0.527 -0.827 -0.196 136 95 77 0 0
4.4743 9.5572 -2.0787 0.536 -0.803 -0.263 127 84 66 0 0
4.5988 9.6541 -2.0967 0.367 -0.724 -0.584 132 87 70 0 0
2.9012 7.9537 -1.9181 -0.665 -0.642 0.381 129 82 66 0 0
2.9641 7.7553 -1.9714 -0.319 -0.633 0.705 232 215 187 0 0
3.1932 7.5556 -2.0722 -0.237 -0.874 0.425 235 218 190 0 0
3.3692 7.3457 -2.1596 -0.254 -0.874 0.414 232 215 187 0 0
3.5072 7.2163 -2.2219 -0.469 -0.437 0.768 234 217 191 0 0
3.9484 6.7001 -2.4393 -0.450 -0.600 0.661 234 214 187 0 0
4.1391 6.4822 -2.5324 -0.385 -0.639 0.666 230 213 185 0 0
4.1602 6.4787 -2.5390 -0.373 -0.617 0.693 228 211 183 0 0
4.1686 6.4671 -2.5435 -0.389 -0.587 0.710 228 211 183 0 0
4.3629 6.2174 -2.6432 -0.572 -0.599 0.561 230 213 185 0 0
4.3588 6.1653 -2.6513 -0.510 -0.375 0.775 229 212 185 0 0
4.3753 6.1257 -2.6631 -0.565 -0.374 0.736 228 210 182 0 0
4.3896 6.1177 -2.6686 -0.558 -0.430 0.710 228 209 182 0 0
4.4160 6.0839 -2.6821 -0.540 -0.612 0.578 232 212 185 0 0
4.4652 6.0306 -2.7056 -0.376 -0.750 0.544 224 207 179 0 0
4.4772 6.0212 -2.7107 -0.458 -0.504 0.732 229 209 182 0 0
4.4943 5.9984 -2.7196 -0.513 -0.430 0.743 232 212 185 0 0
4.6110 5.7898 -2.7900 -0.713 -0.544 0.443 224 207 179 0 0
4.6183 5.7779 -2.7942 -0.859 -0.266 0.438 227 208 180 0 0
4.6405 5.7580 -2.8040 -0.327 -0.574 0.751 224 204 174 0 0
4.6693 5.7573 -2.8123 -0.322 -0.597 0.735 226 206 177 0 0
1.3716 11.0466 -0.9491 0.107 -0.973 0.207 247 243 238 0 0
1.3893 11.0481 -0.9539 0.122 -0.971 0.205 233 222 213 0 0
1.5208 10.6560 -1.0609 -0.382 -0.557 0.737 166 119 100 0 0
1.5302 10.6430 -1.0659 -0.382 -0.557 0.737 178 129 110 0 0
1.5443 10.6381 -1.0708 -0.273 -0.804 0.528 194 145 125 0 0
1.8785 10.2242 -1.2396 -0.416 -0.699 0.582 196 147 125 0 0
1.9058 10.1845 -1.2544 -0.278 -0.623 0.731 191 140 119 0 0
2.2848 9.7325 -1.4427 -0.810 -0.276 0.517 196 151 136 0 0
2.5153 9.4853 -1.5524 -0.373 -0.644 0.668 189 133 114 0 0
2.5538 9.4602 -1.5678 -0.275 -0.594 0.756 186 136 117 0 0
2.5603 9.4440 -1.5725 -0.344 -0.497 0.797 176 125 108 0 0
2.5761 9.4150 -1.5822 -0.410 -0.469 0.782 169 116 99 0 0
2.9508 9.0269 -1.7579 -0.329 -0.559 0.761 188 136 115 0 0
3.0325 8.9561 -1.7938 -0.245 -0.835 0.492 199 154 136 0 0
3.0454 8.9473 -1.7990 -0.099 -0.915 0.392 198 153 132 0 0
3.1333 8.9281 -1.8275 -0.691 -0.698 0.187 169 116 94 0 0
3.2320 8.8965 -1.8613 -0.387 -0.862 0.327 173 119 95 0 0
3.2468 8.8893 -1.8668 -0.243 -0.860 0.448 168 114 93 0 0
3.3577 8.8458 -1.9061 0.023 -0.914 0.406 126 79 59 0 0
3.9173 9.1830 -2.0059 0.159 -0.898 -0.410 101 59 43 0 0
3.9892 9.2311 -2.0179 0.317 -0.852 -0.416 108 69 52 0 0
2.8830 7.9425 -1.9310 -0.527 -0.833 0.170 131 82 65 0 0
2.9106 7.9291 -1.9412 -0.809 -0.167 0.563 194 160 134 0 0
2.9189 7.7782 -1.9704 -0.335 -0.782 0.526 233 213 188 0 0
2.9646 7.7230 -1.9932 -0.469 -0.480 0.741 230 213 187 0 0
2.9853 7.7226 -1.9992 -0.357 -0.713 0.603 235 218 191 0 0
3.2943 7.4016 -2.1443 -0.304 -0.582 0.754 230 213 184 0 0
3.5222 7.1604 -2.2521 -0.531 -0.498 0.686 235 219 190 0 0
3.7861 6.8726 -2.3784 -0.655 -0.504 0.563 233 216 188 0 0
4.2197 6.3355 -2.5974 -0.352 -0.476 0.806 232 215 187 0 0
4.2222 6.3203 -2.6008 -0.168 -0.677 0.716 229 212 183 0 0
4.3545 6.1514 -2.6685 -0.492 -0.562 0.664 229 210 183 0 0
4.3568 6.1363 -2.6719 -0.645 -0.349 0.680 228 208 181 0 0
4.3621 6.1230 -2.6757 -0.609 -0.395 0.688 231 211 184 0 0
4.3830 6.0861 -2.6882 -0.334 -0.688 0.644 229 211 183 0 0
4.3975 6.0782 -2.6938 -0.360 -0.552 0.752 229 212 184 0 0
4.4443 6.0237 -2.7168 -0.418 -0.494 0.763 229 212 184 0 0
4.4619 6.0174 -2.7229 -0.458 -0.504 0.732 231 211 184 0 0
4.4596 5.9999 -2.7254 -0.453 -0.453 0.768 229 209 182 0 0
4.5442 5.8701 -2.7726 -0.155 -0.777 0.610 230 210 183 0 0
4.5898 5.8151 -2.7953 -0.706 -0.471 0.529 228 210 183 0 0
4.6091 5.7936 -2.8046 -0.552 -0.646 0.527 225 207 179 0 0
4.6024 5.7743 -2.8061 -0.848 -0.345 0.401 229 209 181 0 0
1.3636 11.0425 -0.9649 0.113 -0.971 0.210 239 226 218 0 0
1.3826 11.0466 -0.9696 0.025 -0.942 0.336 192 163 148 0 0
1.3980 11.0441 -0.9745 0.025 -0.937 0.349 181 137 121 0 0
1.5502 10.6005 -1.0963 -0.558 -0.509 0.656 179 133 116 0 0
1.5576 10.5843 -1.1013 -0.559 -0.455 0.693 172 127 109 0 0
1.7145 10.3897 -1.1806 -0.137 -0.772 0.621 192 143 125 0 0
1.7243 10.3775 -1.1855 -0.411 -0.649 0.640 185 134 116 0 0
1.7326 10.3629 -1.1905 -0.351 -0.420 0.837 181 130 112 0 0
1.8370 10.1972 -1.2496 -0.324 -0.582 0.745 186 134 113 0 0
2.2738 9.7263 -1.4578 -0.836 -0.337 0.434 174 128 113 0 0
2.4602 9.5464 -1.5430 -0.323 -0.546 0.773 160 107 86 0 0
2.5519 9.4172 -1.5920 -0.380 -0.423 0.823 160 106 91 0 0
2.7390 9.1653 -1.6900 -0.623 -0.345 0.702 173 118 98 0 0
3.2233 8.8947 -1.8765 -0.387 -0.855 0.344 175 123 100 0 0
3.2356 8.8849 -1.8818 -0.250 -0.846 0.471 169 116 94 0 0
3.2522 8.8796 -1.8875 -0.328 -0.663 0.673 159 106 85 0 0
3.2635 8.8688 -1.8926 -0.328 -0.663 0.673 173 120 99 0 0
3.2928 8.8540 -1.9036 -0.098 -0.835 0.541 172 120 99 0 0
3.3107 8.8499 -1.9095 -0.091 -0.857 0.507 157 105 83 0 0
3.3517 8.8470 -1.9217 0.024 -0.995 0.100 123 76 55 0 0
2.8844 7.9505 -1.9460 -0.604 -0.601 0.524 134 86 69 0 0
2.8893 7.9351 -1.9501 -0.536 -0.658 0.530 138 93 73 0 0
2.9715 7.7162 -2.0122 -0.439 -0.587 0.680 234 217 189 0 0
3.0254 7.5912 -2.0497 -0.306 -0.913 0.271 229 209 178 0 0
3.0351 7.5808 -2.0543 -0.192 -0.921 0.339 227 208 178 0 0
3.1677 7.5073 -2.1053 -0.236 -0.730 0.641 230 213 185 0 0
3.3003 7.3376 -2.1732 -0.144 -0.976 -0.161 230 213 186 0 0
3.3169 7.3328 -2.1788 -0.134 -0.952 0.277 235 218 190 0 0
3.5233 7.1487 -2.2704 -0.433 -0.452 0.780 226 210 183 0 0
3.7635 6.8795 -2.3867 -0.458 -0.657 0.598 234 214 187 0 0
3.7795 6.8556 -2.3955 -0.509 -0.536 0.673 231 214 186 0 0
3.7842 6.8413 -2.3994 -0.677 -0.526 0.515 231 213 186 0 0
3.8696 6.7087 -2.4472 -0.543 -0.627 0.559 233 216 188 0 0
3.8800 6.6985 -2.4520 -0.583 -0.486 0.651 231 214 186 0 0
4.1739 6.3456 -2.5984 -0.556 -0.389 0.735 231 215 189 0 0
4.2109 6.3184 -2.6138 -0.316 -0.807 0.498 228 209 183 0 0
4.2141 6.3037 -2.6174 -0.228 -0.926 0.302 231 212 185 0 0
4.3409 6.1484 -2.6811 -0.492 -0.562 0.664 230 210 184 0 0
4.3333 6.1275 -2.6826 -0.818 -0.348 0.457 226 206 179 0 0
4.3631 6.0959 -2.6967 -0.494 -0.465 0.734 231 213 184 0 0
4.3809 6.0736 -2.7057 -0.342 -0.570 0.747 229 212 184 0 0
4.4115 6.0424 -2.7200 -0.308 -0.566 0.764 231 214 186 0 0
4.4288 6.0198 -2.7289 -0.219 -0.624 0.750 228 209 182 0 0
4.5531 5.8160 -2.8005 -0.257 -0.890 0.378 232 212 185 0 0
2.2442 9.7454 -1.4631 -0.340 -0.487 0.804 203 155 140 0 0
2.3856 9.5821 -1.5324 -0.396 -0.608 0.688 199 149 131 0 0
2.3955 9.5701 -1.5374 -0.396 -0.608 0.688 204 154 137 0 0
2.4053 9.5581 -1.5423 -0.396 -0.608 0.688 178 126 110 0 0
3.2243 8.8804 -1.8968 -0.209 -0.825 0.526 159 107 85 0 0
3.2377 8.8718 -1.9021 -0.367 -0.573 0.733 153 99 77 0 0
3.2764 8.8442 -1.9181 -0.080 -0.810 0.581 178 125 104 0 0
3.2967 8.8427 -1.9242 -0.091 -0.857 0.507 171 119 99 0 0
2.8913 7.9436 -1.9652 -0.767 -0.060 0.639 139 93 73 0 0
3.0118 7.5851 -2.0627 -0.363 -0.695 0.621 231 212 181 0 0
3.0294 7.5818 -2.0683 -0.396 -0.749 0.531 226 207 177 0 0
3.1855 7.4529 -2.1358 -0.279 -0.819 0.502 232 215 187 0 0
3.2001 7.4466 -2.1412 -0.307 -0.785 0.538 233 216 188 0 0
3.1876 7.4170 -2.1427 -0.445 -0.680 0.583 230 211 184 0 0
3.1954 7.4048 -2.1471 -0.486 -0.552 0.678 232 212 185 0 0
3.2087 7.3974 -2.1522 -0.316 -0.869 0.380 236 216 189 0 0
3.2203 7.3885 -2.1571 -0.322 -0.752 0.575 234 214 187 0 0
3.2621 7.3865 -2.1695 -0.457 -0.736 0.499 233 216 188 0 0
3.2954 7.3583 -2.1841 -0.012 -0.856 0.517 232 215 187 0 0
3.2993 7.3428 -2.1879 -0.151 -0.832 0.534 230 213 185 0 0
3.3055 7.3293 -2.1920 -0.199 -0.675 0.710 229 212 184 0 0
3.7241 6.9275 -2.3829 -0.426 -0.547 0.721 231 212 185 0 0
3.7795 6.8435 -2.4136 -0.475 -0.683 0.555 233 216 188 0 0
3.8298 6.8089 -2.4341 -0.194 -0.734 0.651 233 214 187 0 0
3.8654 6.7286 -2.4584 -0.497 -0.305 0.813 226 209 181 0 0
3.8687 6.7135 -2.4621 -0.506 -0.284 0.814 227 210 182 0 0
3.8651 6.6762 -2.4676 -0.611 -0.258 0.749 233 216 188 0 0
3.9013 6.6838 -2.4766 -0.365 -0.846 0.389 234 215 188 0 0
4.3475 6.0754 -2.7117 -0.546 -0.500 0.672 229 212 182 0 0
4.5191 5.8661 -2.7978 -0.240 -0.672 0.701 227 208 182 0 0
1.3886 10.6615 -1.0733 -0.293 -0.676 0.676 182 136 118 0 0
1.8005 10.1869 -1.2751 -0.416 -0.514 0.750 178 129 109 0 0
1.8157 10.1830 -1.2801 -0.288 -0.576 0.765 191 140 119 0 0
1.9296 9.9810 -1.3482 -0.193 -0.975 0.110 194 139 118 0 0
2.2298 9.7345 -1.4780 -0.414 -0.510 0.755 190 142 128 0 0
2.3771 9.5546 -1.5519 -0.312 -0.624 0.717 184 129 112 0 0
2.9217 8.9711 -1.8109 -0.376 -0.493 0.785 180 125 105 0 0
2.9498 8.9108 -1.8296 -0.291 -0.634 0.717 189 141 119 0 0
3.0476 8.8582 -1.8670 -0.303 -0.948 0.099 174 123 102 0 0
4.0339 9.2512 -2.0836 -0.929 -0.266 -0.258 144 102 83 0 0
2.8982 7.9973 -1.9738 -0.797 -0.103 0.595 139 92 74 0 0
2.8842 7.9432 -1.9792 -0.776 0.092 0.624 143 97 76 0 0
2.8686 7.7496 -2.0084 -0.356 -0.509 0.784 229 209 182 0 0
2.8872 7.7280 -2.0175 -0.462 -0.381 0.801 228 211 184 0 0
2.9466 7.6474 -2.0488 -0.164 -0.660 0.733 233 217 190 0 0
3.0100 7.5704 -2.0805 -0.372 -0.618 0.693 233 215 186 0 0
3.1195 7.4772 -2.1284 -0.349 -0.611 0.710 233 214 184 0 0
3.1869 7.4412 -2.1541 -0.279 -0.819 0.502 232 215 187 0 0
3.2294 7.3648 -2.1797 -0.070 -0.764 0.641 232 215 187 0 0
3.2300 7.3466 -2.1831 0.019 -0.982 0.189 233 216 188 0 0
3.2642 7.3380 -2.1944 -0.004 -0.915 0.403 235 218 190 0 0
3.2854 7.3371 -2.2007 -0.151 -0.832 0.534 236 219 191 0 0
3.2972 7.3283 -2.2057 -0.187 -0.820 0.540 233 216 188 0 0
3.3495 7.2787 -2.2294 -0.167 -0.615 0.771 232 215 187 0 0
3.6154 6.9774 -2.3588 -0.282 -0.687 0.670 233 216 188 0 0
3.6288 6.9517 -2.3671 -0.440 -0.566 0.697 231 211 183 0 0
3.6419 6.9436 -2.3723 -0.634 -0.467 0.617 231 212 182 0 0
3.6462 6.9290 -2.3761 -0.593 -0.357 0.722 234 214 187 0 0
3.6905 6.8551 -2.4018 -0.204 -0.763 0.613 232 212 183 0 0
3.6993 6.8439 -2.4063 -0.124 -0.915 0.383 232 212 184 0 0
3.8159 6.7343 -2.4591 -0.413 -0.669 0.617 233 216 188 0 0
3.8381 6.7150 -2.4689 -0.433 -0.559 0.707 226 209 181 0 0
3.8532 6.6733 -2.4805 -0.711 -0.145 0.689 229 209 182 0 0
3.8539 6.6565 -2.4836 -0.747 -0.134 0.651 229 209 182 0 0
3.9074 6.6069 -2.5077 -0.260 -0.721 0.642 232 215 186 0 0
3.9539 6.5867 -2.5247 -0.357 -0.857 0.372 231 212 182 0 0
4.0359 6.4703 -2.5687 -0.856 -0.379 0.352 233 214 184 0 0
4.1095 6.3490 -2.6111 -0.303 -0.823 0.481 230 213 185 0 0
4.1352 6.3317 -2.6215 -0.414 -0.822 0.392 229 212 185 0 0
4.2477 6.1851 -2.6796 -0.079 -0.839 0.538 227 207 180 0 0
4.3327 6.0718 -2.7239 -0.592 -0.321 0.739 227 210 180 0 0
1.2154 10.9848 -0.9841 -0.479 -0.713 0.512 245 244 240 0 0
1.3357 10.7248 -1.0640 -0.317 -0.454 0.833 188 141 123 0 0
1.7276 10.2459 -1.2607 -0.274 -0.613 0.741 190 143 123 0 0
1.9237 10.0340 -1.3543 -0.524 -0.270 0.808 185 134 113 0 0
1.9152 9.9951 -1.3586 -0.623 -0.743 -0.242 185 132 111 0 0
1.9261 9.9849 -1.3635 -0.499 -0.832 -0.240 178 124 103 0 0
2.0727 9.8319 -1.4326 -0.415 -0.787 0.456 190 147 130 0 0
2.0900 9.8307 -1.4378 -0.296 -0.696 0.654 183 140 125 0 0
2.2464 9.6897 -1.5077 -0.396 -0.628 0.670 180 133 117 0 0
3.0411 8.8586 -1.8822 -0.303 -0.948 0.099 163 112 90 0 0
4.0461 9.2712 -2.1025 -0.590 -0.437 -0.679 144 102 82 0 0
4.2801 9.4553 -2.1386 0.495 -0.742 -0.453 129 84 65 0 0
4.4918 9.6150 -2.1724 0.457 -0.753 -0.473 137 90 72 0 0
2.9016 8.0071 -1.9892 -0.765 -0.265 0.587 127 80 62 0 0
2.8923 7.9778 -1.9915 -0.923 0.314 0.225 136 89 71 0 0
2.9416 7.6490 -2.0628 -0.011 -0.979 0.201 228 211 185 0 0
2.9583 7.6257 -2.0717 -0.322 -0.658 0.681 232 212 185 0 0
3.0657 7.5119 -2.1226 -0.343 -0.644 0.684 230 213 185 0 0
3.1519 7.4358 -2.1607 -0.271 -0.841 0.468 231 214 186 0 0
3.1518 7.4169 -2.1640 -0.328 -0.739 0.588 231 211 184 0 0
3.1992 7.3825 -2.1837 -0.101 -0.815 0.571 230 213 185 0 0
3.2576 7.3384 -2.2083 -0.083 -0.915 0.394 230 213 185 0 0
3.4872 7.0649 -2.3223 -0.410 -0.387 0.826 232 215 187 0 0
3.6332 6.9249 -2.3889 -0.041 -0.959 0.281 232 214 186 0 0
3.6572 6.9249 -2.3959 -0.218 -0.888 0.404 232 215 187 0 0
3.6755 6.8497 -2.4142 -0.199 -0.772 0.604 229 210 180 0 0
3.7589 6.7518 -2.4554 -0.300 -0.655 0.693 227 210 182 0 0
3.8319 6.6986 -2.4858 -0.437 -0.659 0.612 235 216 189 0 0
3.9161 6.5838 -2.5301 -0.260 -0.721 0.642 232 212 185 0 0
4.0085 6.4746 -2.5758 -0.217 -0.844 0.491 228 209 180 0 0
4.1099 6.3376 -2.6290 -0.307 -0.617 0.725 230 213 185 0 0
4.1458 6.2768 -2.6499 -0.256 -0.738 0.624 227 209 182 0 0
4.2272 6.1943 -2.6879 -0.367 -0.590 0.719 230 212 185 0 0
4.2290 6.1461 -2.6967 -0.246 -0.561 0.790 232 212 185 0 0
4.3241 6.0555 -2.7400 -0.515 -0.425 0.745 229 212 184 0 0
4.4224 5.8863 -2.7979 -0.681 -0.506 0.530 227 207 180 0 0
4.4262 5.8725 -2.8014 -0.538 -0.638 0.551 226 206 179 0 0
1.2130 10.9911 -0.9995 -0.475 -0.751 0.459 245 244 241 0 0
1.3599 10.6318 -1.1042 -0.462 -0.508 0.726 180 132 112 0 0
1.5669 10.4124 -1.2022 -0.378 -0.641 0.668 197 146 125 0 0
1.6926 10.2550 -1.2660 -0.470 -0.527 0.708 178 132 112 0 0
1.7042 10.2460 -1.2709 -0.462 -0.552 0.694 182 135 115 0 0
1.7090 10.2261 -1.2757 -0.244 -0.612 0.752 180 132 112 0 0
1.9138 10.0021 -1.3740 -0.211 -0.698 0.684 195 144 124 0 0
2.3786 9.4745 -1.6003 -0.787 -0.364 0.498 184 128 111 0 0
2.3834 9.4563 -1.6048 -0.733 -0.399 0.551 184 130 113 0 0
2.3985 9.4511 -1.6101 -0.599 -0.405 0.691 183 130 112 0 0
2.5939 9.2129 -1.7081 -0.328 -0.556 0.764 182 130 109 0 0
3.0347 8.8591 -1.8975 -0.303 -0.948 0.099 172 120 98 0 0
3.0505 8.8535 -1.9030 -0.303 -0.948 0.099 170 118 96 0 0
3.0650 8.8465 -1.9085 -0.360 -0.924 0.126 167 115 93 0 0
3.1328 8.8510 -1.9274 -0.030 -0.984 0.174 178 126 104 0 0
3.9995 9.2805 -2.1063 0.055 -0.797 -0.602 110 72 53 0 0
4.0417 9.2746 -2.1195 -0.301 -0.861 -0.411 136 94 76 0 0
2.8903 7.9823 -2.0062 -0.923 0.314 0.225 143 96 78 0 0
2.9791 7.5548 -2.1057 -0.018 -0.887 0.462 233 213 186 0 0
3.0066 7.5414 -2.1160 -0.031 -0.843 0.537 232 215 187 0 0
3.1361 7.4282 -2.1732 -0.495 -0.780 0.382 230 213 185 0 0
3.1417 7.4142 -2.1773 -0.346 -0.806 0.480 234 214 187 0 0
3.1495 7.4021 -2.1816 -0.402 -0.828 0.390 236 218 190 0 0
3.1603 7.3926 -2.1864 -0.377 -0.767 0.519 230 213 185 0 0
3.1734 7.3852 -2.1915 -0.404 -0.809 0.426 230 213 185 0 0
3.1854 7.3766 -2.1965 -0.404 -0.809 0.426 232 215 187 0 0
3.1991 7.3697 -2.2017 -0.417 -0.673 0.611 235 218 190 0 0
3.6210 6.9214 -2.4018 -0.081 -0.952 0.295 234 217 189 0 0
3.6456 6.9219 -2.4089 -0.218 -0.888 0.404 230 213 185 0 0
3.6406 6.8473 -2.4203 -0.462 -0.464 0.756 233 213 184 0 0
3.6654 6.8478 -2.4274 -0.285 -0.739 0.610 230 211 181 0 0
3.7163 6.7618 -2.4571 -0.458 -0.645 0.612 234 214 187 0 0
3.7287 6.7532 -2.4622 -0.262 -0.715 0.649 232 215 187 0 0
3.7431 6.7460 -2.4676 -0.300 -0.655 0.693 229 213 185 0 0
3.7571 6.7385 -2.4730 -0.216 -0.601 0.769 235 215 188 0 0
3.8337 6.6016 -2.5189 -0.074 -0.801 0.594 230 211 181 0 0
3.9005 6.5786 -2.5423 -0.260 -0.721 0.642 229 209 182 0 0
3.9097 6.5676 -2.5469 -0.234 -0.766 0.599 228 210 183 0 0
4.0346 6.3787 -2.6158 -0.373 -0.609 0.700 234 214 187 0 0
4.0402 6.3655 -2.6197 -0.418 -0.498 0.760 230 210 183 0 0
4.2072 6.1545 -2.7047 -0.405 -0.642 0.651 229 209 182 0 0
4.2167 6.1438 -2.7093 -0.405 -0.642 0.651 229 211 183 0 0
4.2252 6.1326 -2.7137 -0.375 -0.680 0.631 228 210 183 0 0
4.2297 6.1189 -2.7174 -0.368 -0.587 0.721 231 212 186 0 0
4.2436 6.1108 -2.7228 -0.403 -0.647 0.647 228 208 183 0 0
4.3041 6.0651 -2.7483 -0.589 -0.430 0.685 229 210 180 0 0
4.4039 5.8968 -2.8064 -0.783 -0.507 0.360 225 207 180 0 0
4.4106 5.8846 -2.8105 -0.884 -0.242 0.400 226 208 181 0 0
4.4095 5.8681 -2.8130 -0.917 -0.388 0.090 226 208 180 0 0
4.8104 5.7324 -2.9532 0.283 -0.932 0.226 237 236 234 0 0
1.3461 10.6177 -1.1195 -0.651 -0.366 0.664 185 137 117 0 0
1.5016 10.4545 -1.1929 -0.163 -0.870 0.466 166 121 102 0 0
1.5596 10.3821 -1.2223 -0.352 -0.599 0.720 187 138 117 0 0
1.5695 10.3704 -1.2272 -0.352 -0.599 0.720 184 135 114 0 0
1.5777 10.3560 -1.2320 -0.280 -0.612 0.740 189 141 119 0 0
1.5882 10.3452 -1.2370 -0.280 -0.612 0.740 195 147 126 0 0
1.6812 10.2464 -1.2811 -0.483 -0.564 0.670 191 143 125 0 0
1.6901 10.2330 -1.2860 -0.483 -0.564 0.670 181 131 111 0 0
1.6989 10.2196 -1.2908 -0.483 -0.564 0.670 191 140 120 0 0
1.7101 10.2101 -1.2958 -0.461 -0.555 0.692 182 131 112 0 0
2.2623 9.5775 -1.5656 -0.351 -0.632 0.691 185 133 114 0 0
2.2726 9.5664 -1.5705 -0.351 -0.632 0.691 180 128 107 0 0
2.4518 9.3327 -1.6630 -0.155 -0.821 0.549 191 135 115 0 0
2.9026 8.8811 -1.8722 -0.706 -0.390 0.591 178 124 102 0 0
2.9101 8.8667 -1.8769 -0.609 -0.615 0.501 197 142 118 0 0
2.9084 8.8422 -1.8806 -0.358 -0.921 0.154 194 140 118 0 0
3.0585 8.8469 -1.9237 -0.360 -0.924 0.126 165 113 91 0 0
3.0740 8.8409 -1.9293 -0.146 -0.986 0.080 147 94 72 0 0
4.0032 9.2920 -2.1242 0.108 -0.861 -0.497 109 71 51 0 0
4.0359 9.3008 -2.1323 0.108 -0.861 -0.497 106 68 49 0 0
4.0450 9.2858 -2.1375 -0.184 -0.828 -0.530 137 95 77 0 0
2.9347 7.5780 -2.1044 -0.568 -0.234 0.789 235 218 190 0 0
2.9515 7.5742 -2.1100 -0.229 -0.809 0.542 228 212 183 0 0
2.9499 7.5536 -2.1131 -0.443 -0.598 0.668 231 212 186 0 0
3.1832 7.3620 -2.2141 -0.423 -0.823 0.380 234 217 189 0 0
3.2907 7.2111 -2.2714 -0.504 -0.628 0.593 234 216 190 0 0
3.3046 7.2041 -2.2767 -0.578 -0.611 0.541 231 214 188 0 0
3.5993 6.8753 -2.4192 -0.627 -0.492 0.604 231 211 184 0 0
3.6056 6.8623 -2.4233 -0.627 -0.492 0.604 234 214 187 0 0
3.6700 6.8039 -2.4521 -0.162 -0.685 0.711 232 213 184 0 0
3.6967 6.7707 -2.4656 -0.343 -0.807 0.480 233 213 186 0 0
3.7025 6.7574 -2.4696 -0.494 -0.690 0.529 233 214 187 0 0
3.7122 6.7469 -2.4742 -0.494 -0.690 0.529 230 213 185 0 0
3.7142 6.7308 -2.4775 -0.580 -0.548 0.603 229 213 185 0 0
3.8195 6.6144 -2.5283 -0.323 -0.782 0.532 230 210 181 0 0
3.8268 6.6022 -2.5325 -0.479 -0.781 0.401 233 213 186 0 0
3.8444 6.5971 -2.5385 -0.394 -0.789 0.471 233 213 186 0 0
3.8757 6.5670 -2.5528 -0.179 -0.931 0.317 231 212 183 0 0
3.9997 6.3949 -2.6186 -0.292 -0.659 0.693 230 210 183 0 0
4.1793 6.1427 -2.7143 -0.212 -0.852 0.478 233 213 186 0 0
4.1925 6.1343 -2.7196 -0.537 -0.719 0.441 231 213 185 0 0
4.2110 6.1291 -2.7259 -0.375 -0.680 0.631 227 210 182 0 0
4.2215 6.1190 -2.7307 -0.371 -0.621 0.691 231 214 187 0 0
4.2318 6.1088 -2.7355 -0.375 -0.680 0.631 233 213 186 0 0
4.3788 5.9035 -2.8136 -0.816 -0.498 0.294 229 211 182 0 0
4.3843 5.8907 -2.8174 -0.841 -0.487 0.235 228 211 183 0 0
4.4186 5.8462 -2.8351 -0.566 -0.808 0.165 227 210 182 0 0
4.6233 5.6880 -2.9221 0.096 -0.956 0.278 220 213 201 0 0
1.1787 11.1017 -1.0050 -0.158 -0.325 0.932 244 243 241 0 0
1.2021 11.0840 -1.0148 -0.161 -0.345 0.925 246 242 241 0 0
1.2730 10.6734 -1.1055 -0.344 -0.876 0.337 169 122 106 0 0
1.2836 10.6630 -1.1103 -0.384 -0.763 0.521 157 110 93 0 0
1.2916 10.6481 -1.1152 -0.490 -0.543 0.682 175 127 107 0 0
1.5405 10.3604 -1.2373 -0.447 -0.292 0.845 164 112 91 0 0
1.5630 10.3417 -1.2471 -0.235 -0.586 0.776 170 118 97 0 0
1.5738 10.3315 -1.2520 -0.325 -0.537 0.779 172 120 99 0 0
1.5836 10.3197 -1.2569 -0.287 -0.534 0.795 182 131 110 0 0
1.7442 10.1370 -1.3352 -0.208 -0.608 0.767 176 129 110 0 0
2.2838 9.5152 -1.5995 -0.339 -0.597 0.727 184 129 110 0 0
2.3087 9.4986 -1.6097 -0.362 -0.508 0.782 179 125 104 0 0
2.5596 9.1872 -1.7364 -0.370 -0.422 0.828 171 122 102 0 0
2.8718 8.8545 -1.8847 -0.626 -0.778 -0.057 188 133 109 0 0
2.8943 8.8567 -1.8909 -0.441 -0.897 -0.009 194 139 114 0 0
2.8963 8.8363 -1.8950 -0.350 -0.935 0.057 187 134 111 0 0
4.0096 9.3063 -2.1425 0.165 -0.857 -0.488 110 71 54 0 0
4.0724 9.3210 -2.1585 -0.223 -0.744 -0.630 139 97 79 0 0
4.5307 9.6778 -2.2326 0.503 -0.795 -0.340 128 82 66 0 0
5.0171 10.0524 -2.3120 -0.792 0.435 0.429 140 94 76 0 0
2.9592 7.5300 -2.1355 -0.279 -0.518 0.808 231 214 187 0 0
3.1800 7.3094 -2.2379 -0.447 -0.410 0.795 233 216 188 0 0
3.1851 7.2952 -2.2418 -0.435 -0.403 0.805 230 213 185 0 0
3.2859 7.2129 -2.2854 -0.675 -0.576 0.460 234 214 189 0 0
3.2915 7.1992 -2.2894 -0.817 -0.497 0.294 230 212 187 0 0
3.3056 7.1741 -2.2978 -0.893 -0.390 0.224 228 212 184 0 0
3.4879 6.9746 -2.3853 -0.259 -0.674 0.692 229 212 184 0 0
3.5908 6.9100 -2.4266 -0.214 -0.824 0.525 231 212 182 0 0
3.5874 6.8720 -2.4320 -0.479 -0.450 0.753 231 211 184 0 0
3.5972 6.8617 -2.4367 -0.631 -0.370 0.681 231 211 184 0 0
3.6216 6.8267 -2.4498 -0.320 -0.587 0.743 231 211 184 0 0
3.8069 6.6110 -2.5409 -0.323 -0.782 0.532 234 215 186 0 0
3.8167 6.6006 -2.5456 -0.428 -0.760 0.489 234 214 187 0 0
3.8435 6.5847 -2.5562 -0.586 -0.787 0.191 233 213 186 0 0
3.8547 6.5752 -2.5611 -0.586 -0.787 0.191 230 210 183 0 0
3.9296 6.4893 -2.5977 -0.266 -0.653 0.709 231 211 184 0 0
3.9855 6.3742 -2.6337 -0.224 -0.835 0.502 230 210 183 0 0
3.9872 6.3586 -2.6369 -0.263 -0.955 0.137 227 208 179 0 0
4.0084 6.3555 -2.6436 -0.365 -0.858 0.361 229 209 182 0 0
4.0215 6.3471 -2.6489 -0.635 -0.428 0.643 231 214 186 0 0
4.1836 6.1340 -2.7328 -0.415 -0.870 0.266 225 207 179 0 0
4.1929 6.1232 -2.7373 -0.605 -0.642 0.471 223 206 178 0 0
4.3864 5.8967 -2.8327 -0.636 -0.522 0.568 230 213 187 0 0
4.3969 5.8866 -2.8375 -0.921 -0.177 0.347 229 212 186 0 0
4.3927 5.8684 -2.8394 -0.431 -0.876 0.217 230 213 185 0 0
4.4027 5.8423 -2.8468 -0.519 -0.844 0.135 225 208 180 0 0
1.1957 11.0519 -1.0356 -0.010 -0.358 0.934 247 242 241 0 0
1.2656 10.6704 -1.1207 -0.344 -0.876 0.337 190 145 128 0 0
1.2721 10.6527 -1.1256 -0.490 -0.543 0.682 197 150 132 0 0
1.2807 10.6388 -1.1305 -0.490 -0.543 0.682 183 135 116 0 0
1.4184 10.4755 -1.1987 -0.395 -0.582 0.711 185 146 128 0 0
1.5327 10.3572 -1.2525 -0.500 -0.442 0.744 178 126 106 0 0
1.5369 10.3364 -1.2572 -0.472 -0.548 0.691 185 133 112 0 0
1.5502 10.3303 -1.2622 -0.328 -0.547 0.770 192 140 119 0 0
1.5572 10.3140 -1.2670 -0.463 -0.436 0.772 181 129 108 0 0
1.5689 10.3053 -1.2719 -0.287 -0.534 0.795 180 128 107 0 0
1.7599 10.0898 -1.3647 -0.265 -0.664 0.700 188 140 120 0 0
1.7734 10.0572 -1.3742 -0.328 -0.593 0.735 176 125 103 0 0
1.7823 10.0440 -1.3791 -0.250 -0.634 0.732 194 142 121 0 0
1.8041 10.0239 -1.3889 -0.357 -0.578 0.734 176 125 104 0 0
2.2485 9.5511 -1.6000 -0.331 -0.724 0.606 178 127 109 0 0
2.8106 8.8846 -1.8785 -0.286 -0.600 0.748 196 145 124 0 0
2.8730 8.8633 -1.9005 -0.340 -0.770 0.540 177 123 101 0 0
2.8935 8.8406 -1.9104 -0.352 -0.668 0.655 161 109 87 0 0
3.0888 8.8038 -1.9743 -0.451 -0.705 0.548 172 118 94 0 0
4.0805 9.3369 -2.1772 -0.037 -0.856 -0.515 133 91 74 0 0
2.9225 7.5409 -2.1385 -0.564 -0.261 0.783 231 214 186 0 0
3.1643 7.3020 -2.2502 -0.718 -0.349 0.602 233 216 190 0 0
3.2556 7.2122 -2.2923 -0.389 -0.745 0.542 234 214 187 0 0
3.2749 7.2097 -2.2985 -0.579 -0.815 0.029 234 214 187 0 0
3.2813 7.1967 -2.3026 -0.567 -0.821 -0.069 232 213 186 0 0
3.4249 7.0032 -2.3776 -0.764 -0.645 0.011 235 217 189 0 0
3.4312 6.9902 -2.3817 -0.131 -0.947 0.294 232 212 185 0 0
3.5638 6.8777 -2.4399 -0.270 -0.795 0.544 228 209 179 0 0
3.5780 6.8529 -2.4482 -0.845 0.021 0.534 231 212 183 0 0
3.8445 6.5736 -2.5741 -0.434 -0.752 0.496 231 212 184 0 0
3.8843 6.5493 -2.5900 -0.799 -0.535 0.273 231 212 182 0 0
3.9089 6.5147 -2.6031 -0.533 -0.806 0.257 232 212 185 0 0
3.9167 6.5029 -2.6074 -0.382 -0.831 0.403 231 211 184 0 0
3.9513 6.3907 -2.6365 -0.767 -0.506 0.393 230 213 185 0 0
3.9666 6.3671 -2.6450 -0.106 -0.823 0.558 231 213 185 0 0
3.9984 6.3542 -2.6566 -0.365 -0.858 0.361 231 211 184 0 0
4.1666 6.1451 -2.7416 -0.421 -0.802 0.424 229 209 182 0 0
4.1891 6.1260 -2.7515 -0.627 -0.776 -0.070 228 210 182 0 0
4.2021 6.1174 -2.7567 -0.517 -0.856 0.012 223 203 176 0 0
4.1926 6.0955 -2.7576 -0.793 -0.393 0.466 222 202 175 0 0
4.2087 6.0888 -2.7635 -0.814 -0.440 0.380 229 209 182 0 0
4.2887 5.9902 -2.8038 -0.397 -0.742 0.540 231 211 184 0 0
4.3781 5.8651 -2.8513 -0.351 -0.838 0.418 228 210 183 0 0
4.4928 5.6916 -2.9145 -0.413 -0.705 0.577 214 190 159 0 0
4.7036 5.6919 -2.9767 -0.035 -0.982 0.188 236 236 234 0 0
1.0768 10.9606 -1.0329 -0.776 -0.557 -0.294 243 243 241 0 0
1.2193 10.9843 -1.0712 -0.020 -0.895 0.446 167 121 102 0 0
1.2927 10.5832 -1.1603 -0.209 -0.760 0.615 188 139 120 0 0
1.3295 10.5611 -1.1749 -0.326 -0.676 0.661 188 141 122 0 0
1.3408 10.5520 -1.1798 -0.554 -0.411 0.724 163 118 98 0 0
1.5431 10.3006 -1.2820 -0.299 -0.387 0.873 156 104 83 0 0
1.7625 10.0496 -1.3891 -0.336 -0.596 0.729 180 128 107 0 0
1.9291 9.8511 -1.4719 -0.613 -0.351 0.708 192 149 134 0 0
2.0463 9.7358 -1.5260 -0.430 -0.630 0.647 176 138 122 0 0
2.0483 9.7133 -1.5303 -0.485 -0.344 0.804 176 133 117 0 0
2.5414 9.1339 -1.7738 -0.494 -0.727 0.476 192 141 122 0 0
4.0866 9.3510 -2.1957 -0.033 -0.811 -0.585 132 91 74 0 0
4.9212 10.0019 -2.3340 0.024 -0.761 0.648 147 100 83 0 0
2.7663 7.6515 -2.0892 -0.323 -0.501 0.803 231 214 186 0 0
2.7787 7.6440 -2.0942 -0.219 -0.748 0.626 230 213 185 0 0
2.7970 7.6420 -2.0999 -0.656 -0.382 0.651 228 211 183 0 0
2.8003 7.6257 -2.1036 -0.296 -0.865 0.406 229 212 184 0 0
2.8517 7.5777 -2.1269 -0.659 -0.336 0.673 233 216 188 0 0
2.9207 7.5074 -2.1592 -0.354 -0.383 0.853 232 213 183 0 0
3.3746 7.0234 -2.3750 -0.635 -0.429 0.643 234 214 188 0 0
3.3814 7.0108 -2.3792 -0.479 -0.749 0.457 237 217 190 0 0
3.3919 7.0011 -2.3839 -0.449 -0.769 0.456 235 215 188 0 0
3.8686 6.5270 -2.6048 -0.507 -0.493 0.707 233 214 184 0 0
3.8802 6.5177 -2.6098 -0.679 -0.554 0.481 232 212 184 0 0
3.8828 6.5025 -2.6132 -0.653 -0.678 0.337 231 212 184 0 0
3.8895 6.4900 -2.6172 -0.925 -0.280 0.258 231 212 185 0 0
3.8996 6.4798 -2.6219 -0.612 -0.482 0.627 228 209 182 0 0
3.9205 6.4430 -2.6343 -0.620 -0.458 0.637 226 209 181 0 0
3.9704 6.3580 -2.6634 -0.131 -0.963 0.237 225 204 177 0 0
4.0627 6.2506 -2.7088 -0.226 -0.844 0.486 227 207 179 0 0
4.1562 6.1438 -2.7544 -0.421 -0.802 0.424 231 211 184 0 0
4.1403 6.1180 -2.7541 -0.282 -0.616 0.735 230 212 184 0 0
4.2705 5.9367 -2.8231 -0.407 -0.423 0.809 228 210 182 0 0
4.6911 5.6902 -2.9892 -0.142 -0.964 0.226 236 236 234 0 0
1.0780 11.0042 -1.0430 0.307 -0.949 0.076 243 243 241 0 0
1.0760 10.9698 -1.0481 -0.776 -0.557 -0.294 243 243 241 0 0
1.2519 10.6081 -1.1608 -0.415 -0.430 0.802 177 131 113 0 0
1.2819 10.5453 -1.1802 -0.256 -0.488 0.834 181 139 121 0 0
1.3121 10.5695 -1.1852 -0.814 -0.201 0.544 174 133 115 0 0
1.3156 10.5469 -1.1900 -0.321 -0.603 0.730 188 146 127 0 0
1.4393 10.3612 -1.2578 -0.491 -0.716 0.497 178 134 116 0 0
1.4463 10.3450 -1.2626 -0.428 -0.726 0.538 168 124 105 0 0
1.7495 10.0389 -1.4039 -0.336 -0.596 0.729 179 127 106 0 0
1.7580 10.0252 -1.4087 -0.362 -0.660 0.658 178 127 106 0 0
1.7684 10.0146 -1.4136 -0.362 -0.660 0.658 180 129 110 0 0
1.7932 9.9728 -1.4280 -0.593 -0.491 0.638 179 128 109 0 0
1.9145 9.8646 -1.4821 -0.319 -0.710 0.628 193 149 132 0 0
1.9149 9.8393 -1.4865 -0.671 -0.403 0.622 189 147 131 0 0
2.0241 9.7134 -1.5400 -0.761 -0.308 0.571 198 158 143 0 0
2.0291 9.6950 -1.5445 -0.781 -0.248 0.573 175 132 117 0 0
2.0337 9.6761 -1.5490 -0.728 -0.319 0.606 180 136 121 0 0
2.3149 9.3847 -1.6814 -0.351 -0.474 0.808 195 140 120 0 0
3.1072 8.7706 -2.0198 0.116 -0.881 0.459 141 88 70 0 0
4.0213 9.3416 -2.1968 0.094 -0.744 -0.661 97 58 43 0 0
4.9079 9.9973 -2.3516 0.056 -0.725 0.687 141 95 78 0 0
2.7394 7.6515 -2.0968 -0.467 -0.621 0.630 227 208 178 0 0
2.7481 7.6405 -2.1012 -0.467 -0.621 0.630 230 211 183 0 0
2.7824 7.6152 -2.1156 -0.293 -0.802 0.521 232 214 186 0 0
2.8577 7.5512 -2.1487 -0.281 -0.563 0.777 232 215 187 0 0
2.8575 7.5320 -2.1519 0.029 -0.899 0.438 232 215 187 0 0
2.8759 7.5297 -2.1577 0.029 -0.899 0.438 232 215 187 0 0
2.9732 7.4283 -2.2036 -0.485 -0.409 0.773 230 211 183 0 0
3.3550 7.0316 -2.3835 -0.420 -0.820 0.389 230 213 187 0 0
3.3636 7.0204 -2.3879 -0.636 -0.753 0.168 233 216 190 0 0
3.3716 7.0088 -2.3922 -0.702 -0.587 0.404 234 217 190 0 0
3.3780 6.9959 -2.3963 -0.449 -0.758 0.473 232 215 187 0 0
3.8512 6.5205 -2.6165 -0.369 -0.730 0.575 231 212 182 0 0
3.8623 6.5110 -2.6214 -0.369 -0.730 0.575 235 215 187 0 0
3.8752 6.5027 -2.6266 -0.571 -0.574 0.587 229 212 184 0 0
3.8912 6.4795 -2.6352 -0.650 -0.506 0.567 230 211 184 0 0
3.9191 6.4304 -2.6517 -0.601 -0.570 0.560 229 208 181 0 0
3.9750 6.3328 -2.6846 -0.645 -0.221 0.732 233 214 188 0 0
3.9741 6.2991 -2.6900 -0.364 -0.728 0.581 229 212 186 0 0
4.1982 6.0279 -2.8020 -0.381 -0.453 0.806 235 215 188 0 0
4.2470 5.9441 -2.8305 -0.435 -0.501 0.748 229 209 182 0 0
4.2533 5.9317 -2.8344 -0.407 -0.423 0.809 225 207 180 0 0
4.2668 5.9235 -2.8398 -0.325 -0.626 0.709 227 210 182 0 0
4.6027 5.6494 -2.9856 -0.525 -0.794 -0.306 237 237 236 0 0
1.4244 10.3461 -1.2726 -0.522 -0.654 0.548 178 131 113 0 0
1.4331 10.3327 -1.2775 -0.388 -0.694 0.606 206 159 141 0 0
1.4775 10.2952 -1.2969 -0.446 -0.463 0.766 183 131 112 0 0
1.7232 10.0343 -1.4136 -0.385 -0.538 0.750 188 137 116 0 0
1.7752 9.9546 -1.4424 -0.334 -0.621 0.709 176 125 106 0 0
1.8538 9.8885 -1.4769 -0.413 -0.442 0.796 184 136 121 0 0
1.8981 9.8495 -1.4966 -0.651 -0.477 0.591 176 132 116 0 0
2.0020 9.7418 -1.5455 -0.613 -0.364 0.701 180 139 127 0 0
2.0110 9.7289 -1.5503 -0.619 -0.368 0.694 149 107 94 0 0
2.0110 9.7035 -1.5545 -0.680 -0.328 0.656 212 169 155 0 0
2.0163 9.6857 -1.5591 -0.767 -0.259 0.587 212 166 154 0 0
2.0204 9.6661 -1.5635 -0.680 -0.328 0.656 195 147 135 0 0
2.2217 9.4666 -1.6568 -0.238 -0.571 0.786 174 118 95 0 0
2.3049 9.3799 -1.6961 -0.610 -0.353 0.710 182 125 105 0 0
2.3151 9.3446 -1.7049 -0.592 -0.334 0.734 190 137 116 0 0
2.8735 8.7958 -1.9629 -0.182 -0.717 0.673 186 134 112 0 0
3.9689 9.3207 -2.2036 0.326 -0.870 -0.369 106 65 51 0 0
4.0257 9.3539 -2.2151 0.145 -0.802 -0.579 105 64 49 0 0
2.7265 7.6455 -2.1094 -0.301 -0.754 0.585 226 205 175 0 0
2.7380 7.6372 -2.1143 -0.301 -0.754 0.585 223 204 174 0 0
2.7820 7.6018 -2.1333 -0.586 -0.598 0.547 229 209 181 0 0
2.8407 7.5227 -2.1640 -0.085 -0.818 0.568 234 217 189 0 0
2.8740 7.5151 -2.1751 -0.447 -0.478 0.756 231 214 186 0 0
2.8823 7.5038 -2.1795 -0.241 -0.660 0.712 232 213 185 0 0
3.0012 7.3468 -2.2411 -0.403 -0.552 0.730 232 215 189 0 0
3.2079 7.1539 -2.3349 -0.501 -0.539 0.677 235 216 189 0 0
3.2166 7.1429 -2.3393 -0.450 -0.590 0.670 232 212 185 0 0
3.2530 7.1181 -2.3543 -0.156 -0.988 -0.008 232 212 182 0 0
3.2701 7.1138 -2.3601 -0.290 -0.953 0.091 233 214 184 0 0
3.3404 7.0258 -2.3957 -0.433 -0.456 0.778 232 215 189 0 0
3.3567 7.0027 -2.4044 -0.250 -0.606 0.755 231 214 187 0 0
3.3667 6.9927 -2.4091 -0.250 -0.606 0.755 230 213 185 0 0
3.8803 6.4775 -2.6480 -0.429 -0.801 0.417 233 213 186 0 0
3.8918 6.4513 -2.6558 -0.506 -0.584 0.635 232 212 185 0 0
4.0481 6.2187 -2.7411 -0.383 -0.689 0.615 230 210 181 0 0
4.0748 6.1371 -2.7626 -0.302 -0.876 0.377 228 211 183 0 0
4.4307 5.6729 -2.9459 -0.283 -0.953 0.113 203 179 144 0 0
4.4660 5.6760 -2.9560 -0.115 -0.862 0.493 207 183 147 0 0
4.6234 5.6647 -3.0049 -0.455 -0.771 -0.446 238 236 237 0 0
1.4317 10.3122 -1.2972 -0.553 -0.647 0.525 192 148 129 0 0
1.8272 9.8841 -1.4864 -0.333 -0.482 0.811 185 138 119 0 0
1.8473 9.8618 -1.4961 -0.363 -0.498 0.788 190 145 126 0 0
1.8739 9.8489 -1.5062 -0.229 -0.793 0.565 203 157 139 0 0
1.8999 9.8094 -1.5206 -0.505 -0.432 0.747 175 132 115 0 0
1.9166 9.7564 -1.5343 -0.370 -0.592 0.716 181 137 121 0 0
1.9550 9.7347 -1.5494 -0.337 -0.583 0.739 176 132 118 0 0
2.2391 9.4243 -1.6858 -0.388 -0.618 0.684 165 103 82 0 0
2.2465 9.4095 -1.6905 -0.431 -0.622 0.653 171 108 89 0 0
2.5153 9.0789 -1.8256 -0.631 -0.452 0.630 179 127 106 0 0
2.5218 9.0635 -1.8301 -0.631 -0.452 0.630 182 130 109 0 0
2.5907 8.9832 -1.8640 -0.441 -0.522 0.730 188 139 119 0 0
2.5982 8.9688 -1.8686 -0.426 -0.575 0.698 185 134 114 0 0
2.6479 8.9349 -1.8891 -0.352 -0.558 0.751 183 133 111 0 0
