ply
format ascii 1.0
element vertex 822
property float x
property float y
property float z
property float nx
property float ny
property float nz
property uchar diffuse_red
property uchar diffuse_green
property uchar diffuse_blue
property uchar class
property uchar detection
end_header
4.6494 6.5664 -2.2933 -0.402 -0.765 0.502 231 207 177 0 0
4.8804 6.5672 -2.2300 -0.503 -0.762 0.408 226 205 176 0 0
4.9173 6.5477 -2.2158 -0.061 -0.785 0.617 227 207 180 0 0
5.4216 6.8582 -2.1410 0.935 -0.343 -0.093 215 191 156 0 0
5.4432 6.9191 -2.1476 0.935 -0.343 -0.093 204 185 156 0 0
6.5189 9.0403 -2.2888 0.354 -0.929 -0.109 227 224 218 0 0
6.5525 9.1206 -2.2961 0.569 -0.632 -0.526 227 224 218 0 0
6.5764 9.1536 -2.2963 0.866 -0.442 -0.234 226 223 218 0 0
6.4646 8.1183 -2.1137 -0.734 -0.081 -0.674 180 163 145 0 0
6.6050 7.3465 -1.9160 -0.507 -0.762 -0.403 170 153 125 0 0
6.6179 7.3414 -1.9114 -0.515 -0.788 -0.336 172 155 126 0 0
6.6328 7.2896 -1.8967 -0.117 -0.925 -0.362 176 159 129 0 0
6.6446 7.2806 -1.8916 -0.005 -0.972 -0.235 173 156 127 0 0
6.6584 7.2795 -1.8875 -0.005 -0.972 -0.235 159 142 115 0 0
6.6710 7.2738 -1.8829 -0.122 -0.945 -0.305 173 155 129 0 0
6.7872 7.1357 -1.8225 -0.005 -0.863 -0.506 175 159 131 0 0
7.0517 6.9606 -1.7136 -0.071 -0.915 -0.396 177 162 134 0 0
7.3459 6.8643 -1.6128 -0.004 -0.994 -0.107 168 153 120 0 0
7.4275 6.8649 -1.5905 -0.106 -0.993 0.051 170 153 123 0 0
7.4448 6.8751 -1.5878 0.111 -0.991 0.073 173 157 125 0 0
7.5589 6.8537 -1.5520 0.302 -0.950 -0.080 174 155 125 0 0
1.7481 9.2063 -3.6539 0.225 -0.531 0.817 229 225 222 0 0
1.7778 9.2960 -3.6643 0.018 -0.514 0.858 228 224 221 0 0
2.0227 8.9154 -3.5179 -0.289 -0.897 -0.335 147 103 96 0 0
2.0397 8.9111 -3.5123 -0.134 -0.908 -0.397 138 100 89 0 0
2.7612 6.5489 -2.8231 -0.193 -0.659 0.727 217 198 168 0 0
2.7726 6.5556 -2.8214 -0.186 -0.728 0.660 219 200 170 0 0
2.8228 6.5567 -2.8078 -0.184 -0.551 0.814 223 203 175 0 0
2.8834 6.5723 -2.7943 -0.274 -0.729 0.628 225 204 176 0 0
3.1977 6.5893 -2.7114 0.113 -0.715 0.690 221 201 169 0 0
3.2106 6.5880 -2.7076 0.232 -0.811 0.537 221 202 171 0 0
3.2227 6.5930 -2.7053 0.232 -0.811 0.537 224 205 175 0 0
3.2992 6.5908 -2.6838 -0.393 -0.836 0.384 220 199 168 0 0
3.3626 6.5927 -2.6668 -0.112 -0.660 0.743 219 197 166 0 0
4.0127 6.6097 -2.4915 -0.118 -0.639 0.760 224 203 174 0 0
4.1284 6.5832 -2.4541 -0.084 -0.789 0.609 221 202 171 0 0
4.1412 6.5844 -2.4508 -0.084 -0.789 0.609 224 203 172 0 0
4.1667 6.5926 -2.4455 -0.094 -0.711 0.697 227 206 177 0 0
4.2564 6.6046 -2.4233 -0.027 -0.716 0.698 225 202 170 0 0
4.2692 6.5893 -2.4166 -0.287 -0.692 0.663 221 198 166 0 0
4.6275 6.5691 -2.3139 -0.367 -0.681 0.633 227 204 174 0 0
4.6524 6.5543 -2.3039 -0.444 -0.673 0.591 229 206 175 0 0
4.6657 6.5628 -2.3021 -0.316 -0.641 0.700 226 204 173 0 0
4.6784 6.5611 -2.2982 -0.209 -0.568 0.796 225 204 173 0 0
5.4228 6.8392 -2.1512 0.959 -0.282 0.011 213 188 155 0 0
6.5140 9.0738 -2.3153 0.149 -0.849 0.506 227 224 220 0 0
6.5919 9.2032 -2.3207 0.769 -0.461 -0.442 226 223 218 0 0
6.6234 7.3463 -1.9263 -0.549 -0.675 -0.493 166 149 121 0 0
6.6387 7.2963 -1.9117 -0.227 -0.882 -0.413 176 159 129 0 0
6.6500 7.2853 -1.9063 -0.173 -0.941 -0.292 174 157 127 0 0
6.7919 7.1380 -1.8366 -0.218 -0.872 -0.439 177 161 132 0 0
6.8828 7.0686 -1.7972 -0.327 -0.935 -0.134 181 167 141 0 0
6.8951 7.0637 -1.7928 -0.327 -0.935 -0.134 179 165 138 0 0
7.1270 6.9277 -1.7008 -0.071 -0.996 -0.053 176 161 133 0 0
7.2043 6.9143 -1.6767 -0.009 -0.987 -0.160 174 160 134 0 0
7.3501 6.8646 -1.6263 -0.349 -0.924 0.158 170 154 121 0 0
7.3644 6.8667 -1.6228 0.083 -0.994 0.067 167 150 120 0 0
7.3933 6.8717 -1.6159 0.061 -0.995 0.075 168 153 122 0 0
7.4081 6.8750 -1.6125 0.197 -0.980 0.040 171 156 125 0 0
7.4209 6.8729 -1.6085 0.040 -0.997 0.073 170 152 122 0 0
8.7696 7.9352 -1.4582 0.849 -0.507 0.146 242 243 238 0 0
1.7570 9.1865 -3.6654 -0.230 -0.681 0.695 229 225 224 0 0
1.7736 9.1857 -3.6607 -0.230 -0.681 0.695 228 224 222 0 0
2.7032 6.5404 -2.8511 -0.083 -0.702 0.708 218 197 165 0 0
2.7159 6.5397 -2.8474 -0.183 -0.740 0.647 219 199 166 0 0
2.7662 6.5398 -2.8336 -0.437 -0.723 0.534 219 200 170 0 0
2.7780 6.5441 -2.8313 -0.381 -0.678 0.629 220 201 171 0 0
2.7918 6.5371 -2.8260 -0.065 -0.588 0.807 226 206 178 0 0
2.8553 6.5333 -2.8077 -0.337 -0.571 0.748 224 204 176 0 0
3.3679 6.5752 -2.6756 0.068 -0.661 0.747 220 197 166 0 0
3.6219 6.5773 -2.6061 -0.062 -0.577 0.814 224 204 175 0 0
3.8250 6.5926 -2.5535 -0.443 -0.736 0.512 226 206 177 0 0
3.8378 6.5908 -2.5496 -0.394 -0.739 0.547 227 206 177 0 0
3.8508 6.5869 -2.5452 -0.299 -0.669 0.681 226 205 176 0 0
3.8895 6.5764 -2.5323 -0.158 -0.701 0.695 222 201 170 0 0
4.2599 6.5838 -2.4320 -0.208 -0.624 0.753 222 199 167 0 0
4.5028 6.5632 -2.3609 -0.281 -0.711 0.644 224 203 174 0 0
4.6687 6.5507 -2.3126 -0.276 -0.690 0.669 227 204 173 0 0
4.6942 6.5493 -2.3053 -0.403 -0.602 0.689 227 207 176 0 0
5.4502 6.9138 -2.1737 0.971 -0.231 0.053 199 181 160 0 0
6.6122 9.2753 -2.3486 0.774 -0.554 -0.306 226 222 219 0 0
6.6083 7.3821 -1.9533 -0.583 -0.691 -0.427 173 154 122 0 0
6.6457 7.3073 -1.9273 -0.172 -0.832 -0.527 175 158 128 0 0
6.7641 7.1732 -1.8667 -0.513 -0.818 -0.261 177 160 132 0 0
6.7973 7.1424 -1.8511 -0.313 -0.907 -0.281 179 164 136 0 0
6.9554 7.0215 -1.7823 -0.122 -0.986 -0.117 177 161 135 0 0
6.9675 7.0160 -1.7778 0.029 -0.983 -0.179 178 163 135 0 0
6.9810 7.0153 -1.7740 0.086 -0.995 -0.041 182 167 138 0 0
7.1329 6.9333 -1.7150 -0.306 -0.918 -0.254 178 162 136 0 0
7.1436 6.9245 -1.7102 -0.058 -0.995 -0.075 173 157 129 0 0
7.1569 6.9234 -1.7063 -0.058 -0.995 -0.075 162 145 117 0 0
7.1700 6.9220 -1.7024 -0.013 -0.997 0.072 166 151 120 0 0
7.1834 6.9213 -1.6986 -0.058 -0.995 -0.075 171 156 127 0 0
7.2091 6.9165 -1.6905 -0.009 -0.987 -0.160 168 152 126 0 0
7.3616 6.8856 -1.6421 0.085 -0.989 -0.120 173 154 122 0 0
7.3698 6.8706 -1.6367 0.029 -0.999 0.029 162 145 115 0 0
7.3835 6.8708 -1.6330 0.194 -0.974 0.120 160 144 113 0 0
7.3973 6.8716 -1.6294 0.029 -0.999 0.029 165 150 119 0 0
7.4125 6.8760 -1.6261 0.032 -0.998 0.057 168 153 122 0 0
8.7148 7.8395 -1.4697 0.851 -0.524 0.035 241 241 239 0 0
8.7838 7.9560 -1.4751 0.845 -0.505 0.179 241 241 239 0 0
1.7833 9.1620 -3.6711 -0.425 -0.580 0.695 229 225 223 0 0
2.7339 6.5285 -2.8539 -0.224 -0.660 0.717 222 202 169 0 0
2.7466 6.5275 -2.8502 -0.255 -0.672 0.695 220 201 169 0 0
2.7973 6.5250 -2.8357 -0.156 -0.660 0.734 222 203 175 0 0
2.8097 6.5257 -2.8325 -0.156 -0.660 0.734 224 204 178 0 0
2.8241 6.5150 -2.8263 -0.222 -0.563 0.796 223 203 176 0 0
2.8365 6.5159 -2.8230 -0.449 -0.639 0.625 222 202 175 0 0
2.8495 6.5132 -2.8189 -0.364 -0.703 0.612 224 204 176 0 0
3.3479 6.5573 -2.6912 -0.177 -0.759 0.627 225 202 170 0 0
3.6641 6.5700 -2.6069 -0.129 -0.541 0.831 225 202 171 0 0
3.8417 6.5839 -2.5610 -0.525 -0.558 0.643 225 204 175 0 0
3.8937 6.5617 -2.5420 -0.356 -0.748 0.560 223 202 171 0 0
3.9826 6.5692 -2.5191 -0.413 -0.626 0.662 226 205 173 0 0
4.0848 6.5636 -2.4899 -0.176 -0.583 0.793 225 206 176 0 0
4.0976 6.5586 -2.4853 -0.151 -0.658 0.738 225 206 176 0 0
4.1231 6.5622 -2.4790 0.131 -0.636 0.760 224 203 174 0 0
4.1358 6.5636 -2.4758 -0.044 -0.752 0.658 220 199 170 0 0
4.1486 6.5621 -2.4720 -0.353 -0.750 0.559 222 201 170 0 0
4.1612 6.5722 -2.4706 -0.018 -0.679 0.734 224 205 175 0 0
4.2635 6.5703 -2.4421 -0.208 -0.624 0.753 223 200 169 0 0
4.9005 6.5199 -2.2563 -0.330 -0.717 0.614 226 205 176 0 0
4.9257 6.5155 -2.2485 -0.088 -0.668 0.739 228 207 180 0 0
6.3398 8.9916 -2.3822 0.620 -0.529 -0.580 230 226 222 0 0
6.5293 9.5201 -2.4416 0.922 -0.300 -0.244 228 224 220 0 0
6.6287 7.3895 -1.9646 -0.349 -0.745 -0.568 174 155 123 0 0
6.6511 7.3118 -1.9421 -0.243 -0.808 -0.537 168 151 121 0 0
6.7667 7.1677 -1.8799 -0.343 -0.854 0.390 178 161 133 0 0
6.8022 7.1453 -1.8654 -0.393 -0.896 -0.207 177 162 135 0 0
6.9724 7.0187 -1.7919 0.029 -0.983 -0.179 181 165 139 0 0
6.9854 7.0163 -1.7878 0.302 -0.924 0.235 179 164 135 0 0
7.0009 7.0221 -1.7847 0.042 -0.997 -0.057 179 164 135 0 0
7.1612 6.9242 -1.7200 -0.058 -0.995 -0.075 174 158 131 0 0
7.1745 6.9232 -1.7161 -0.058 -0.995 -0.075 158 143 112 0 0
7.1878 6.9221 -1.7123 -0.058 -0.995 -0.075 174 159 130 0 0
7.2020 6.9240 -1.7087 0.056 -0.997 0.054 174 159 131 0 0
7.2139 6.9187 -1.7044 -0.009 -0.987 -0.160 172 156 130 0 0
7.3158 6.8984 -1.6720 0.030 -1.000 0.009 178 159 129 0 0
7.4425 6.8726 -1.6318 -0.118 -0.992 -0.030 169 152 123 0 0
7.7356 6.8916 -1.5552 0.044 -0.997 0.061 179 159 128 0 0
8.6705 7.7660 -1.4826 0.839 -0.543 -0.037 240 241 238 0 0
2.8416 6.5055 -2.8332 -0.352 -0.718 0.600 222 203 174 0 0
2.9642 6.5247 -2.8036 -0.163 -0.788 0.594 222 201 170 0 0
3.3398 6.5469 -2.7050 -0.262 -0.740 0.620 223 198 167 0 0
3.6182 6.5502 -2.6292 -0.022 -0.641 0.767 225 206 175 0 0
3.6438 6.5472 -2.6215 -0.292 -0.705 0.646 225 205 175 0 0
3.8849 6.5521 -2.5563 -0.081 -0.715 0.694 226 205 175 0 0
4.9280 6.4993 -2.2583 -0.238 -0.764 0.600 226 204 177 0 0
4.9532 6.4965 -2.2507 -0.128 -0.722 0.680 227 204 175 0 0
4.9659 6.4951 -2.2470 -0.306 -0.689 0.657 224 202 173 0 0
5.3447 6.4640 -2.1362 0.090 -0.578 0.811 218 196 160 0 0
6.6128 7.4228 -1.9915 -0.413 -0.647 -0.641 175 156 124 0 0
6.6237 7.4096 -1.9857 -0.422 -0.648 -0.634 168 149 117 0 0
6.6570 7.3182 -1.9571 -0.274 -0.762 -0.587 171 154 124 0 0
6.9776 7.0223 -1.8060 0.042 -0.997 -0.057 178 162 135 0 0
6.9914 7.0227 -1.8023 0.042 -0.997 -0.057 180 165 137 0 0
7.0053 7.0230 -1.7986 0.042 -0.997 -0.057 177 162 133 0 0
7.1916 6.9214 -1.7257 -0.059 -0.982 -0.182 161 144 114 0 0
7.2053 6.9215 -1.7220 0.010 -0.984 -0.176 173 157 128 0 0
7.2187 6.9210 -1.7182 0.010 -0.984 -0.176 174 158 129 0 0
7.7278 6.8959 -1.5729 -0.035 -0.971 0.238 177 158 126 0 0
8.7860 7.9737 -1.5112 0.848 -0.507 -0.154 241 240 240 0 0
1.8147 9.1341 -3.6926 -0.883 -0.424 0.203 229 225 224 0 0
2.9112 6.4836 -2.8231 -0.183 -0.833 0.522 223 201 169 0 0
2.9343 6.4962 -2.8195 0.365 -0.732 0.576 224 203 174 0 0
2.9689 6.5157 -2.8141 -0.163 -0.788 0.594 223 202 173 0 0
2.9813 6.5168 -2.8109 -0.258 -0.775 0.576 227 206 177 0 0
3.0444 6.5154 -2.7933 -0.236 -0.600 0.764 222 203 173 0 0
3.4082 6.5298 -2.6964 -0.354 -0.640 0.682 224 205 175 0 0
3.6353 6.5381 -2.6358 -0.331 -0.671 0.664 223 204 174 0 0
3.6481 6.5356 -2.6317 -0.309 -0.655 0.690 225 206 176 0 0
3.6736 6.5338 -2.6243 -0.257 -0.753 0.605 224 203 174 0 0
3.8759 6.5461 -2.5713 -0.266 -0.615 0.743 225 204 174 0 0
4.0290 6.5300 -2.5258 -0.433 -0.639 0.636 229 208 177 0 0
4.5374 6.5115 -2.3821 -0.260 -0.779 0.570 226 203 172 0 0
4.5501 6.5112 -2.3785 -0.067 -0.648 0.759 223 200 169 0 0
4.5629 6.5115 -2.3751 0.021 -0.653 0.757 220 197 165 0 0
4.5755 6.5096 -2.3712 -0.085 -0.706 0.703 225 202 169 0 0
4.5880 6.5046 -2.3667 -0.374 -0.612 0.697 227 205 174 0 0
4.6641 6.4983 -2.3445 -0.136 -0.602 0.787 225 204 172 0 0
4.6772 6.5057 -2.3424 -0.512 -0.605 0.610 227 206 175 0 0
4.9423 6.4751 -2.2630 -0.274 -0.645 0.713 228 204 178 0 0
4.9547 6.4713 -2.2588 -0.344 -0.713 0.612 226 204 176 0 0
4.9673 6.4698 -2.2550 -0.310 -0.724 0.616 224 203 174 0 0
5.1187 6.4590 -2.2111 0.069 -0.664 0.745 223 204 174 0 0
5.3935 6.6089 -2.1677 0.745 -0.614 -0.263 210 186 150 0 0
6.6281 7.4101 -2.0001 -0.373 -0.794 -0.480 174 155 123 0 0
6.6402 7.4019 -1.9950 -0.449 -0.714 -0.537 175 156 124 0 0
6.6765 7.3226 -1.9680 -0.558 -0.687 -0.465 156 139 110 0 0
6.7746 7.2166 -1.9183 -0.498 -0.788 -0.361 177 160 128 0 0
7.0097 7.0240 -1.8124 0.042 -0.997 -0.057 179 164 136 0 0
7.0697 6.9964 -1.7900 -0.178 -0.983 -0.036 180 164 138 0 0
7.1964 6.9236 -1.7396 -0.059 -0.982 -0.182 167 150 120 0 0
7.2106 6.9252 -1.7360 0.071 -0.996 -0.051 159 142 112 0 0
7.2236 6.9235 -1.7321 0.010 -0.984 -0.176 168 153 124 0 0
7.2370 6.9228 -1.7282 -0.032 -0.983 -0.178 173 159 132 0 0
8.0277 7.0130 -1.5302 0.285 -0.929 -0.236 196 180 154 0 0
8.7477 7.9136 -1.5254 0.847 -0.507 -0.161 240 241 240 0 0
1.8457 9.0876 -3.6921 -0.766 -0.637 0.086 228 224 221 0 0
1.8321 9.5388 -3.7933 -0.819 -0.384 -0.426 225 221 217 0 0
2.8527 6.4797 -2.8520 -0.248 -0.689 0.681 223 204 174 0 0
2.9027 6.4797 -2.8383 -0.253 -0.887 0.386 220 200 168 0 0
2.9154 6.4785 -2.8346 0.030 -0.821 0.570 220 200 170 0 0
2.9992 6.5041 -2.8171 -0.213 -0.730 0.649 223 204 174 0 0
3.0744 6.5055 -2.7967 -0.190 -0.830 0.525 224 205 175 0 0
3.8300 6.5176 -2.5917 -0.227 -0.773 0.592 224 203 175 0 0
3.9440 6.5193 -2.5607 -0.578 -0.694 0.429 224 205 174 0 0
4.0329 6.5152 -2.5354 -0.438 -0.616 0.654 229 208 177 0 0
4.0456 6.5110 -2.5310 -0.515 -0.637 0.574 226 205 174 0 0
4.3754 6.4931 -2.4365 0.074 -0.714 0.696 223 205 175 0 0
4.3881 6.4966 -2.4338 0.018 -0.658 0.753 225 205 175 0 0
4.5533 6.4988 -2.3889 -0.441 -0.626 0.643 224 201 169 0 0
4.5660 6.5005 -2.3857 0.046 -0.729 0.683 221 198 165 0 0
4.5787 6.4986 -2.3818 -0.085 -0.706 0.703 221 198 163 0 0
4.9450 6.4645 -2.2738 -0.346 -0.680 0.646 228 205 178 0 0
4.9574 6.4610 -2.2696 -0.314 -0.675 0.668 228 205 177 0 0
5.0321 6.4452 -2.2457 -0.088 -0.802 0.591 227 204 173 0 0
5.1211 6.4473 -2.2217 0.069 -0.664 0.745 225 202 171 0 0
6.3891 9.3474 -2.4996 0.378 -0.887 -0.265 229 226 221 0 0
6.6344 7.4182 -2.0156 -0.452 -0.780 -0.433 167 150 120 0 0
6.6462 7.4084 -2.0102 -0.452 -0.780 -0.433 176 157 126 0 0
6.7543 7.2295 -1.9418 -0.355 -0.894 -0.273 167 152 122 0 0
6.7667 7.2238 -1.9372 -0.280 -0.904 -0.323 172 154 124 0 0
6.7797 7.2200 -1.9328 -0.498 -0.788 -0.361 171 152 122 0 0
6.7926 7.2158 -1.9284 -0.068 -0.940 -0.335 174 155 124 0 0
6.8203 7.1654 -1.9098 -0.513 -0.857 0.044 175 156 125 0 0
6.8339 7.1642 -1.9058 -0.424 -0.850 -0.314 173 156 126 0 0
6.8582 7.1517 -1.8965 -0.150 -0.945 -0.290 173 157 129 0 0
7.0738 6.9964 -1.8037 0.131 -0.932 -0.337 182 166 140 0 0
7.2150 6.9263 -1.7497 0.071 -0.996 -0.051 157 142 109 0 0
7.2286 6.9260 -1.7459 0.010 -0.984 -0.176 156 141 110 0 0
2.0197 9.0578 -3.6558 -0.701 -0.708 -0.089 169 132 118 0 0
2.0436 9.0201 -3.6410 -0.069 -0.978 -0.196 159 122 106 0 0
2.6657 6.4956 -2.9206 -0.251 -0.968 -0.021 215 191 160 0 0
2.8466 6.4617 -2.8635 -0.040 -0.676 0.736 223 204 174 0 0
2.9473 6.4566 -2.8348 0.035 -0.798 0.602 222 201 172 0 0
2.9716 6.4605 -2.8289 0.343 -0.805 0.483 225 204 175 0 0
2.9835 6.4647 -2.8266 -0.168 -0.882 0.440 225 205 175 0 0
3.0929 6.4871 -2.8014 -0.157 -0.642 0.750 222 202 172 0 0
3.1302 6.4897 -2.7917 -0.212 -0.922 0.324 223 204 174 0 0
3.1425 6.4912 -2.7887 0.067 -0.865 0.497 221 202 172 0 0
3.4565 6.4929 -2.7027 -0.286 -0.692 0.663 224 202 171 0 0
3.4690 6.4944 -2.6996 -0.166 -0.714 0.681 223 202 171 0 0
3.9483 6.4981 -2.5688 -0.545 -0.641 0.540 224 203 174 0 0
4.1888 6.4988 -2.5028 0.235 -0.586 0.776 225 201 171 0 0
4.2648 6.4898 -2.4800 -0.139 -0.760 0.635 228 207 178 0 0
4.3155 6.4946 -2.4671 -0.156 -0.693 0.704 226 206 178 0 0
4.5439 6.4911 -2.4036 -0.352 -0.720 0.597 225 204 173 0 0
4.5688 6.4795 -2.3942 -0.553 -0.701 0.450 221 200 167 0 0
4.5816 6.4832 -2.3915 -0.146 -0.810 0.568 221 198 164 0 0
4.6194 6.4772 -2.3798 -0.078 -0.673 0.735 225 203 174 0 0
4.7580 6.4603 -2.3381 -0.151 -0.699 0.699 227 203 174 0 0
4.7955 6.4517 -2.3259 -0.407 -0.654 0.637 224 203 173 0 0
4.8968 6.4508 -2.2979 -0.037 -0.577 0.816 226 204 177 0 0
4.9095 6.4518 -2.2946 -0.045 -0.605 0.795 224 201 174 0 0
4.9474 6.4503 -2.2839 -0.176 -0.782 0.598 230 209 182 0 0
5.0095 6.4362 -2.2637 -0.398 -0.888 0.230 226 204 175 0 0
5.0222 6.4356 -2.2601 -0.273 -0.787 0.553 228 204 176 0 0
5.0357 6.4450 -2.2584 -0.314 -0.798 0.515 226 203 172 0 0
5.2111 6.4254 -2.2060 -0.124 -0.787 0.605 227 206 177 0 0
6.3762 9.3439 -2.5211 0.025 -0.749 -0.662 230 227 222 0 0
6.3924 9.3384 -2.5154 -0.039 -0.785 -0.618 230 227 222 0 0
6.5881 7.5608 -2.0748 -0.877 -0.437 -0.201 161 145 115 0 0
6.6434 7.4368 -2.0326 -0.614 -0.733 -0.293 167 149 119 0 0
6.6517 7.4138 -2.0253 -0.414 -0.841 -0.349 171 152 122 0 0
6.7479 7.2423 -1.9616 -0.500 -0.812 -0.303 176 161 132 0 0
6.7594 7.2332 -1.9564 -0.405 -0.837 -0.367 172 156 127 0 0
6.7713 7.2253 -1.9514 -0.405 -0.837 -0.367 173 156 127 0 0
6.7971 7.2171 -1.9426 -0.209 -0.941 -0.266 166 147 116 0 0
6.8634 7.1553 -1.9109 -0.150 -0.945 -0.290 175 159 131 0 0
7.1597 6.9528 -1.7854 -0.229 -0.939 0.255 177 162 133 0 0
7.5122 6.9066 -1.6785 -0.197 -0.980 -0.012 173 155 125 0 0
7.7131 6.8968 -1.6211 0.035 -0.967 -0.251 176 161 132 0 0
8.0395 7.0211 -1.5585 0.326 -0.943 -0.068 194 177 150 0 0
8.7431 7.9167 -1.5602 0.848 -0.507 -0.154 240 240 238 0 0
1.6211 9.1068 -3.7939 0.258 -0.941 0.220 231 230 228 0 0
1.8457 9.0527 -3.7204 -0.410 -0.783 0.468 229 225 222 0 0
1.8623 9.0515 -3.7156 -0.372 -0.803 0.465 230 226 222 0 0
2.0457 9.0316 -3.6608 -0.341 -0.906 -0.253 167 129 117 0 0
2.7515 6.4543 -2.9017 -0.027 -0.664 0.748 219 198 169 0 0
2.7882 6.4584 -2.8925 -0.190 -0.639 0.745 219 199 171 0 0
2.8520 6.4497 -2.8731 -0.124 -0.691 0.712 222 203 173 0 0
2.9024 6.4462 -2.8585 -0.318 -0.895 0.312 221 199 168 0 0
2.9406 6.4407 -2.8468 -0.088 -0.618 0.781 221 200 171 0 0
2.9509 6.4548 -2.8471 0.205 -0.830 0.519 222 201 172 0 0
2.9642 6.4493 -2.8422 0.253 -0.805 0.538 223 202 173 0 0
2.9752 6.4590 -2.8413 0.131 -0.974 0.184 222 203 172 0 0
3.0005 6.4567 -2.8338 -0.291 -0.867 0.405 223 203 173 0 0
3.1350 6.4787 -2.8017 -0.311 -0.753 0.580 225 205 178 0 0
4.0406 6.4890 -2.5552 -0.486 -0.686 0.541 229 205 174 0 0
4.1798 6.4824 -2.5155 -0.105 -0.771 0.628 223 200 168 0 0
4.2050 6.4873 -2.5097 0.039 -0.783 0.620 225 202 171 0 0
4.4073 6.4676 -2.4498 -0.420 -0.767 0.486 227 206 177 0 0
4.4200 6.4666 -2.4461 -0.472 -0.651 0.594 223 202 173 0 0
4.4326 6.4652 -2.4423 -0.321 -0.758 0.567 225 202 173 0 0
4.7978 6.4334 -2.3350 -0.380 -0.520 0.765 221 200 170 0 0
5.0249 6.4267 -2.2712 -0.273 -0.809 0.520 225 203 174 0 0
5.0385 6.4365 -2.2696 -0.165 -0.805 0.570 226 205 176 0 0
5.5458 7.2313 -2.3046 0.938 -0.346 -0.000 235 230 224 0 0
6.6665 7.3992 -2.0335 -0.664 -0.573 -0.481 168 151 123 0 0
6.7180 7.2727 -1.9916 -0.495 -0.837 -0.233 166 150 122 0 0
6.7422 7.2578 -1.9817 -0.462 -0.887 0.007 169 153 125 0 0
6.7655 7.2400 -1.9714 -0.333 -0.894 -0.299 174 159 130 0 0
6.7768 7.2302 -1.9661 -0.378 -0.873 -0.309 175 160 132 0 0
6.7903 7.2283 -1.9620 -0.356 -0.855 -0.376 172 156 127 0 0
6.8021 7.2201 -1.9570 -0.209 -0.941 -0.266 167 151 119 0 0
6.8573 7.1683 -1.9305 -0.324 -0.836 -0.443 174 157 128 0 0
6.8694 7.1617 -1.9257 -0.142 -0.897 -0.419 175 158 131 0 0
7.0391 7.0348 -1.8512 -0.286 -0.901 -0.327 181 165 139 0 0
7.1567 6.9731 -1.8054 -0.261 -0.879 -0.399 179 163 134 0 0
7.5693 6.9024 -1.6766 0.030 -0.937 0.349 171 154 126 0 0
7.5830 6.9024 -1.6728 0.059 -0.995 -0.075 172 155 127 0 0
7.6454 6.8874 -1.6524 0.172 -0.982 -0.085 175 159 132 0 0
8.6365 7.7404 -1.5672 0.846 -0.507 -0.164 241 240 235 0 0
1.6261 9.1044 -3.8100 0.258 -0.941 0.220 231 230 228 0 0
2.0492 9.0357 -3.6786 -0.403 -0.885 -0.235 154 119 109 0 0
2.7578 6.4378 -2.9100 0.118 -0.641 0.759 218 197 167 0 0
2.7811 6.4467 -2.9056 -0.578 -0.695 0.427 223 202 174 0 0
2.8574 6.4372 -2.8825 0.140 -0.764 0.630 223 202 173 0 0
2.8686 6.4452 -2.8812 -0.241 -0.689 0.684 223 202 172 0 0
2.9553 6.4484 -2.8581 0.241 -0.821 0.518 223 202 173 0 0
3.1918 6.4532 -2.7942 -0.329 -0.737 0.590 221 201 168 0 0
3.6912 6.4797 -2.6629 -0.343 -0.710 0.616 224 203 174 0 0
3.7044 6.4697 -2.6571 -0.431 -0.752 0.498 223 203 172 0 0
3.8305 6.4645 -2.6213 -0.047 -0.809 0.585 225 204 175 0 0
4.0068 6.4672 -2.5735 -0.058 -0.617 0.785 227 204 172 0 0
5.0647 6.4082 -2.2699 -0.292 -0.717 0.632 227 207 177 0 0
5.5289 7.1825 -2.3135 0.938 -0.346 -0.003 233 230 224 0 0
6.3949 9.5729 -2.6039 0.204 -0.509 0.836 228 227 223 0 0
6.4077 9.5478 -2.5948 0.192 -0.519 0.833 228 226 222 0 0
6.5959 8.5192 -2.3158 -0.814 -0.045 -0.580 217 216 212 0 0
6.6847 7.3980 -2.0437 -0.581 -0.670 -0.462 168 151 123 0 0
6.7583 7.2502 -1.9908 -0.414 -0.844 -0.341 174 157 129 0 0
6.7704 7.2430 -1.9859 -0.333 -0.894 -0.299 171 154 126 0 0
6.7957 7.2325 -1.9767 -0.356 -0.855 -0.376 179 163 134 0 0
6.8393 7.1884 -1.9549 -0.302 -0.907 -0.294 170 154 121 0 0
6.8620 7.1700 -1.9446 -0.451 -0.832 -0.323 177 160 132 0 0
6.8752 7.1677 -1.9405 -0.142 -0.897 -0.419 182 165 138 0 0
7.0671 7.0233 -1.8559 -0.161 -0.872 -0.462 181 167 141 0 0
7.1600 6.9706 -1.8187 -0.238 -0.914 -0.328 179 164 135 0 0
7.5310 6.8985 -1.7009 -0.386 -0.920 -0.074 176 160 131 0 0
7.7103 6.9032 -1.6527 0.174 -0.973 -0.154 168 152 126 0 0
7.7247 6.9052 -1.6492 0.174 -0.973 -0.154 172 156 129 0 0
2.7129 6.4302 -2.9343 -0.272 -0.710 0.650 217 194 160 0 0
2.7392 6.4217 -2.9252 -0.086 -0.817 0.570 221 197 163 0 0
2.8621 6.4293 -2.8931 0.140 -0.764 0.630 223 201 171 0 0
3.6206 6.4589 -2.6914 -0.244 -0.649 0.720 226 203 172 0 0
3.6841 6.4496 -2.6719 -0.371 -0.652 0.661 224 205 175 0 0
3.6959 6.4596 -2.6709 -0.559 -0.741 0.372 224 203 174 0 0
3.7087 6.4574 -2.6669 -0.497 -0.671 0.551 224 203 172 0 0
3.7961 6.4681 -2.6453 -0.295 -0.604 0.741 230 207 178 0 0
3.9482 6.4404 -2.5974 0.276 -0.689 0.671 224 204 174 0 0
3.9726 6.4612 -2.5953 -0.561 -0.604 0.566 225 204 173 0 0
3.9852 6.4629 -2.5922 -0.567 -0.575 0.590 224 203 171 0 0
3.9981 6.4509 -2.5860 -0.182 -0.588 0.788 224 203 172 0 0
4.0863 6.4492 -2.5614 -0.641 -0.597 0.482 225 202 170 0 0
4.2122 6.4601 -2.5293 -0.102 -0.671 0.734 226 203 172 0 0
4.3382 6.4338 -2.4888 -0.052 -0.674 0.737 224 201 171 0 0
4.7782 6.4103 -2.3628 -0.383 -0.575 0.723 223 202 171 0 0
5.1046 6.3935 -2.2694 -0.330 -0.605 0.725 225 206 176 0 0
5.5620 7.2885 -2.3430 0.950 -0.301 0.087 231 231 226 0 0
6.3958 9.5506 -2.6177 0.204 -0.509 0.836 228 227 223 0 0
6.3534 8.2536 -2.3406 -0.882 -0.463 0.089 223 219 214 0 0
6.7763 7.2490 -2.0008 -0.365 -0.792 -0.489 172 156 127 0 0
6.8443 7.1914 -1.9693 -0.302 -0.907 -0.294 175 159 129 0 0
6.9202 7.1169 -1.9319 -0.396 -0.831 -0.391 175 160 131 0 0
7.1653 6.9743 -1.8329 -0.238 -0.914 -0.328 178 162 136 0 0
7.1726 6.9549 -1.8266 -0.094 -0.893 -0.440 175 161 134 0 0
7.5623 6.8984 -1.7069 -0.166 -0.950 0.265 173 157 129 0 0
7.6862 6.9010 -1.6735 0.267 -0.944 -0.195 179 163 137 0 0
1.6017 9.1058 -3.8530 -0.297 -0.817 0.494 232 231 228 0 0
1.6143 9.1216 -3.8531 -0.539 -0.840 0.068 233 231 228 0 0
2.7440 6.4139 -2.9357 -0.086 -0.817 0.570 217 194 158 0 0
2.9432 6.4094 -2.8800 -0.235 -0.788 0.569 223 203 173 0 0
2.9556 6.4094 -2.8766 -0.127 -0.791 0.599 222 202 174 0 0
3.2275 6.4215 -2.8047 -0.319 -0.671 0.670 224 201 171 0 0
3.6002 6.4434 -2.7073 -0.001 -0.941 0.338 224 203 176 0 0
3.6503 6.4430 -2.6934 0.111 -0.628 0.771 226 205 175 0 0
3.6755 6.4425 -2.6864 -0.452 -0.642 0.620 226 205 176 0 0
3.6880 6.4421 -2.6829 -0.391 -0.749 0.534 223 202 172 0 0
3.7761 6.4372 -2.6576 -0.328 -0.675 0.661 224 203 174 0 0
3.8253 6.4574 -2.6487 -0.286 -0.938 0.197 226 205 175 0 0
4.1403 6.4394 -2.5581 0.228 -0.885 0.406 225 205 175 0 0
4.3416 6.4218 -2.4989 0.100 -0.763 0.639 222 199 168 0 0
4.3920 6.4304 -2.4870 -0.190 -0.677 0.711 224 203 172 0 0
4.4423 6.4267 -2.4724 -0.428 -0.628 0.650 224 203 176 0 0
4.4544 6.4055 -2.4643 -0.476 -0.825 0.304 226 207 177 0 0
5.1810 6.3679 -2.2564 -0.167 -0.628 0.760 228 206 177 0 0
5.3178 6.3543 -2.2158 0.303 -0.747 0.592 213 188 153 0 0
5.5434 7.2277 -2.3497 0.949 -0.299 0.096 231 229 224 0 0
5.5682 7.3034 -2.3599 0.949 -0.299 0.096 232 230 226 0 0
6.5486 8.7744 -2.4206 0.088 -0.289 -0.953 218 217 213 0 0
6.6984 7.4180 -2.0753 -0.596 -0.569 -0.567 170 152 125 0 0
6.8502 7.1977 -1.9843 -0.188 -0.895 -0.404 178 163 135 0 0
6.8855 7.1746 -1.9694 -0.411 -0.823 -0.393 176 161 133 0 0
7.0579 7.0553 -1.8953 -0.028 -0.999 -0.046 177 162 136 0 0
1.6224 9.1058 -3.8653 -0.623 -0.578 0.527 231 230 227 0 0
1.6395 9.1030 -3.8600 -0.509 -0.787 0.348 232 231 227 0 0
1.6727 9.0313 -3.8347 0.450 -0.673 0.587 231 230 228 0 0
2.7353 6.4122 -2.9514 -0.082 -0.698 0.711 216 192 156 0 0
3.4297 6.4296 -2.7647 -0.299 -0.697 0.652 224 204 174 0 0
3.4551 6.4249 -2.7566 -0.296 -0.719 0.629 222 199 168 0 0
3.5422 6.4295 -2.7338 -0.188 -0.529 0.827 225 206 176 0 0
4.0312 6.4169 -2.5967 -0.124 -0.642 0.757 225 203 172 0 0
4.3072 6.4044 -2.5181 0.128 -0.893 0.432 225 205 175 0 0
4.3197 6.4013 -2.5140 0.199 -0.665 0.719 224 202 171 0 0
4.6701 6.3741 -2.4117 -0.061 -0.755 0.653 227 203 174 0 0
5.5491 7.2399 -2.3660 0.949 -0.295 0.115 232 229 224 0 0
5.5743 7.3177 -2.3767 0.948 -0.293 0.125 233 230 225 0 0
6.3666 9.4345 -2.6374 0.349 -0.608 0.714 228 227 223 0 0
6.3997 9.5175 -2.6471 -0.253 -0.581 0.774 227 227 222 0 0
6.4212 9.5388 -2.6460 -0.481 -0.402 0.779 227 227 222 0 0
6.6046 8.1569 -2.2835 -0.664 -0.098 -0.741 210 204 194 0 0
6.8141 7.2538 -2.0220 -0.044 -0.801 -0.597 172 156 130 0 0
6.8560 7.2032 -1.9991 -0.188 -0.895 -0.404 170 154 128 0 0
6.8971 7.1524 -1.9763 -0.687 -0.726 0.037 178 162 136 0 0
7.9910 7.0207 -1.6463 0.243 -0.919 -0.312 194 177 151 0 0
8.1618 7.1260 -1.6232 0.466 -0.885 -0.010 201 185 163 0 0
8.1796 7.1345 -1.6203 0.450 -0.889 0.081 201 184 164 0 0
1.6315 9.0859 -3.8763 -0.623 -0.578 0.527 232 231 227 0 0
1.6791 9.0224 -3.8487 0.387 -0.765 0.514 231 230 228 0 0
1.9503 9.2852 -3.8341 -0.759 -0.511 -0.404 225 224 220 0 0
2.0951 9.0572 -3.7425 0.132 -0.953 0.272 198 192 189 0 0
3.4347 6.4130 -2.7732 -0.152 -0.622 0.768 227 206 176 0 0
3.4597 6.4130 -2.7664 -0.253 -0.710 0.658 226 203 172 0 0
3.5217 6.4166 -2.7501 -0.321 -0.606 0.728 223 202 171 0 0
3.6101 6.4043 -2.7231 -0.231 -0.644 0.729 223 203 174 0 0
3.6462 6.4231 -2.7175 -0.389 -0.700 0.599 224 203 172 0 0
3.6589 6.4196 -2.7132 -0.389 -0.700 0.599 224 203 173 0 0
3.6720 6.4109 -2.7076 -0.380 -0.817 0.434 223 202 173 0 0
3.8466 6.4197 -2.6617 -0.346 -0.785 0.514 227 204 174 0 0
3.9222 6.4094 -2.6386 -0.109 -0.967 0.230 223 201 172 0 0
4.0099 6.4052 -2.6136 -0.306 -0.726 0.615 228 207 177 0 0
4.0226 6.3990 -2.6087 -0.371 -0.728 0.577 227 206 175 0 0
4.2731 6.4016 -2.5406 -0.108 -0.653 0.749 225 202 171 0 0
4.3232 6.3944 -2.5252 -0.122 -0.664 0.737 227 206 177 0 0
4.3859 6.3938 -2.5078 -0.375 -0.644 0.667 227 206 177 0 0
4.5729 6.3640 -2.4497 -0.172 -0.691 0.702 222 201 172 0 0
4.5855 6.3643 -2.4463 -0.172 -0.691 0.702 225 204 175 0 0
4.6729 6.3599 -2.4214 -0.125 -0.735 0.666 227 205 177 0 0
4.6857 6.3653 -2.4191 -0.176 -0.749 0.639 231 211 183 0 0
5.5549 7.2521 -2.3824 0.949 -0.295 0.115 233 229 224 0 0
5.5806 7.3326 -2.3936 0.950 -0.294 0.107 234 230 226 0 0
6.3650 9.3993 -2.6487 0.277 -0.905 0.322 226 227 222 0 0
6.3998 9.4914 -2.6601 -0.302 -0.563 0.770 226 225 221 0 0
6.4918 7.8506 -2.2614 0.473 -0.367 0.801 214 212 210 0 0
6.7923 7.3125 -2.0566 -0.386 -0.833 -0.396 171 156 129 0 0
6.8207 7.2625 -2.0374 0.067 -0.815 -0.576 174 158 132 0 0
6.8617 7.2087 -2.0139 -0.188 -0.895 -0.404 175 159 133 0 0
7.5148 6.9209 -1.7692 0.110 -0.960 -0.258 173 156 126 0 0
7.7019 6.9444 -1.7232 0.062 -0.977 -0.206 182 165 138 0 0
8.1498 7.1209 -1.6404 0.500 -0.861 -0.088 195 180 159 0 0
8.6937 7.7820 -1.6416 0.652 -0.609 -0.452 239 239 237 0 0
1.9698 9.2117 -3.8303 -0.800 -0.539 -0.263 226 225 221 0 0
2.7203 6.3949 -2.9787 -0.166 -0.889 0.426 209 187 154 0 0
2.8622 6.3608 -2.9319 -0.410 -0.562 0.718 219 199 169 0 0
2.9968 6.3678 -2.8966 -0.263 -0.634 0.727 222 203 172 0 0
3.0708 6.3692 -2.8766 -0.040 -0.861 0.506 222 199 168 0 0
3.4516 6.4028 -2.7799 -0.328 -0.586 0.741 222 201 170 0 0
3.4641 6.4019 -2.7762 -0.255 -0.670 0.697 225 203 171 0 0
3.5772 6.3901 -2.7425 -0.341 -0.591 0.731 223 202 172 0 0
3.7766 6.3909 -2.6880 -0.150 -0.667 0.730 226 205 176 0 0
4.3015 6.3782 -2.5411 -0.048 -0.629 0.776 225 206 177 0 0
4.3140 6.3801 -2.5381 -0.110 -0.637 0.763 224 204 176 0 0
4.4015 6.3697 -2.5117 -0.511 -0.606 0.610 221 198 167 0 0
4.5885 6.3536 -2.4567 -0.175 -0.731 0.660 225 204 174 0 0
4.6760 6.3518 -2.4323 -0.169 -0.804 0.570 227 206 178 0 0
4.6887 6.3556 -2.4297 -0.176 -0.749 0.639 230 209 182 0 0
4.7133 6.3479 -2.4211 -0.426 -0.582 0.692 233 213 185 0 0
5.0120 6.3276 -2.3346 -0.311 -0.571 0.759 224 203 173 0 0
5.5150 7.1389 -2.3825 0.928 -0.367 0.060 196 176 154 0 0
5.5607 7.2643 -2.3987 0.949 -0.295 0.115 232 228 225 0 0
6.4242 9.4110 -2.6539 0.237 -0.689 0.685 226 223 219 0 0
6.6183 9.0280 -2.5129 0.548 -0.442 -0.710 216 215 212 0 0
6.4882 7.8161 -2.2707 0.386 -0.366 0.847 214 212 210 0 0
6.6171 7.8548 -2.2443 -0.641 -0.173 -0.748 170 150 126 0 0
6.9442 7.1422 -1.9912 0.206 -0.916 -0.345 174 159 130 0 0
7.3763 6.9424 -1.8268 0.101 -0.994 0.027 165 148 119 0 0
7.8572 6.9782 -1.7031 0.336 -0.923 -0.187 185 167 142 0 0
7.8724 6.9815 -1.6997 0.352 -0.913 -0.205 183 166 141 0 0
7.8879 6.9857 -1.6964 0.295 -0.929 -0.224 188 172 146 0 0
8.6377 7.7816 -1.6731 0.817 -0.513 -0.263 238 239 235 0 0
1.4300 9.0152 -3.9511 -0.311 -0.746 0.589 236 235 233 0 0
3.1005 6.3576 -2.8794 -0.226 -0.724 0.652 222 202 172 0 0
3.4571 6.3811 -2.7870 -0.394 -0.619 0.679 223 202 171 0 0
3.4698 6.3777 -2.7827 -0.394 -0.619 0.679 225 203 172 0 0
3.5815 6.3799 -2.7526 -0.325 -0.565 0.758 223 202 173 0 0
3.5941 6.3775 -2.7486 -0.276 -0.654 0.705 224 205 175 0 0
3.6064 6.3791 -2.7456 -0.191 -0.584 0.789 225 204 173 0 0
3.6939 6.3738 -2.7204 -0.368 -0.710 0.601 228 207 178 0 0
3.7069 6.3651 -2.7148 0.121 -0.615 0.779 226 205 175 0 0
3.7553 6.3875 -2.7067 -0.175 -0.577 0.798 224 204 173 0 0
3.7681 6.3816 -2.7018 -0.338 -0.698 0.631 226 206 176 0 0
3.8055 6.3804 -2.6913 -0.328 -0.641 0.694 226 205 174 0 0
4.6790 6.3421 -2.4428 -0.211 -0.714 0.668 227 206 176 0 0
4.6917 6.3451 -2.4400 -0.259 -0.679 0.687 228 207 178 0 0
4.7038 6.3385 -2.4352 -0.234 -0.649 0.724 228 208 178 0 0
4.7163 6.3380 -2.4317 -0.234 -0.649 0.724 227 205 174 0 0
4.7287 6.3374 -2.4281 -0.234 -0.649 0.724 224 202 171 0 0
4.9899 6.3209 -2.3527 -0.206 -0.574 0.792 223 201 172 0 0
5.0020 6.3169 -2.3484 -0.372 -0.619 0.692 224 203 174 0 0
6.3645 8.1989 -2.4092 -0.520 -0.281 0.807 218 217 213 0 0
6.6353 7.9734 -2.2828 -0.662 -0.145 -0.735 171 156 139 0 0
6.6314 7.8955 -2.2659 -0.641 -0.173 -0.748 172 154 132 0 0
6.8060 7.3318 -2.0879 -0.674 -0.655 -0.341 171 155 129 0 0
6.8125 7.3042 -2.0797 -0.505 -0.711 -0.488 174 158 132 0 0
6.9365 7.1492 -2.0100 -0.101 -0.923 -0.372 177 162 133 0 0
6.9505 7.1492 -2.0061 0.206 -0.916 -0.345 176 161 132 0 0
6.9650 7.1512 -2.0026 0.206 -0.916 -0.345 178 163 134 0 0
7.0335 7.1018 -1.9724 -0.402 -0.834 -0.379 177 161 134 0 0
7.0450 7.0941 -1.9675 -0.402 -0.834 -0.379 176 160 134 0 0
7.6414 6.9441 -1.7692 0.191 -0.911 -0.364 176 160 129 0 0
8.0118 7.0401 -1.6898 -0.382 -0.921 0.076 194 176 152 0 0
8.6736 7.8502 -1.6953 0.817 -0.513 -0.263 239 239 237 0 0
1.4407 8.9903 -3.9603 0.215 -0.750 0.625 235 234 232 0 0
1.4517 9.0104 -3.9619 -0.162 -0.980 0.120 235 234 232 0 0
1.7052 8.9665 -3.8822 0.073 -0.757 0.650 232 231 227 0 0
1.7780 9.1472 -3.9043 -0.021 -0.347 0.938 230 229 227 0 0
1.8072 9.1638 -3.9001 -0.450 -0.533 0.717 229 228 225 0 0
1.8309 9.1308 -3.8859 -0.782 -0.561 0.271 230 229 227 0 0
2.8258 6.3246 -2.9606 -0.114 -0.706 0.699 219 197 164 0 0
2.8610 6.3341 -2.9531 -0.178 -0.688 0.704 222 202 172 0 0
3.0937 6.3424 -2.8913 0.272 -0.762 0.588 221 202 173 0 0
3.3018 6.3567 -2.8375 0.044 -0.691 0.722 226 202 172 0 0
3.5865 6.3602 -2.7603 -0.201 -0.654 0.729 224 204 175 0 0
3.5985 6.3653 -2.7582 -0.276 -0.654 0.705 227 208 178 0 0
3.6233 6.3657 -2.7514 -0.045 -0.722 0.691 227 205 176 0 0
3.6980 6.3632 -2.7304 -0.368 -0.710 0.601 224 205 175 0 0
3.7722 6.3706 -2.7118 -0.338 -0.698 0.631 226 206 177 0 0
3.7974 6.3645 -2.7034 -0.011 -0.713 0.702 224 204 177 0 0
4.8799 6.3066 -2.3931 -0.116 -0.719 0.685 225 205 176 0 0
4.9177 6.3109 -2.3837 -0.049 -0.853 0.520 224 204 176 0 0
4.9302 6.3122 -2.3806 -0.049 -0.853 0.520 224 204 177 0 0
4.9426 6.3109 -2.3769 -0.311 -0.770 0.557 227 207 180 0 0
4.9541 6.2998 -2.3712 0.068 -0.692 0.718 228 208 181 0 0
4.9669 6.3037 -2.3685 -0.061 -0.831 0.552 228 208 181 0 0
4.9794 6.3038 -2.3652 -0.140 -0.853 0.503 226 206 179 0 0
5.0286 6.2961 -2.3499 -0.517 -0.732 0.445 226 205 176 0 0
5.0405 6.2905 -2.3453 -0.517 -0.732 0.445 223 202 172 0 0
5.6044 7.4120 -2.4514 0.959 -0.262 0.110 229 229 225 0 0
6.3028 9.5463 -2.7562 0.470 -0.705 -0.531 229 227 223 0 0
6.3224 9.5577 -2.7535 0.670 -0.624 -0.403 229 227 223 0 0
6.6483 7.9461 -2.2894 -0.645 -0.171 -0.745 170 153 134 0 0
6.7524 7.4336 -2.1416 -0.549 -0.649 -0.526 170 154 126 0 0
6.8122 7.3388 -2.1032 -0.666 -0.585 -0.462 171 155 130 0 0
6.9619 7.1735 -2.0237 -0.561 -0.804 -0.199 175 160 131 0 0
7.3839 6.9408 -1.8539 0.189 -0.948 0.257 163 146 117 0 0
7.3972 6.9397 -1.8500 0.042 -0.999 -0.000 156 139 109 0 0
7.6769 6.9540 -1.7766 0.073 -0.993 -0.095 174 156 127 0 0
7.7918 6.9663 -1.7480 0.327 -0.866 -0.379 180 163 136 0 0
8.0033 7.0428 -1.7077 0.261 -0.933 -0.250 195 177 152 0 0
8.0183 7.0454 -1.7042 0.233 -0.931 -0.280 191 174 150 0 0
8.5273 7.6170 -1.6976 0.812 -0.519 -0.267 234 226 218 0 0
1.5100 8.9889 -3.9587 -0.372 -0.885 0.279 234 234 232 0 0
1.7416 9.1820 -3.9405 -0.177 -0.274 0.945 231 230 226 0 0
1.7967 9.1568 -3.9195 -0.646 -0.625 0.439 231 230 226 0 0
1.8158 9.1450 -3.9115 -0.528 -0.575 0.624 231 230 226 0 0
1.8407 9.1060 -3.8955 -0.810 -0.541 0.225 231 230 226 0 0
1.8661 9.0646 -3.8788 -0.903 -0.415 0.115 231 230 226 0 0
1.8862 9.0474 -3.8693 -0.911 -0.384 0.149 231 230 226 0 0
2.1252 8.9102 -3.7716 -0.639 -0.756 -0.141 228 227 223 0 0
2.1567 8.9139 -3.7639 -0.511 -0.840 0.184 225 223 219 0 0
2.8915 6.3185 -2.9546 -0.452 -0.850 0.269 220 199 168 0 0
3.0130 6.3275 -2.9234 -0.294 -0.759 0.580 220 199 168 0 0
3.1089 6.3458 -2.9014 0.035 -0.679 0.734 222 203 173 0 0
3.1215 6.3439 -2.8975 0.029 -0.662 0.749 222 202 170 0 0
3.2697 6.3430 -2.8566 0.024 -0.752 0.658 223 200 169 0 0
3.3058 6.3512 -2.8487 -0.116 -0.702 0.702 227 204 173 0 0
3.7893 6.3485 -2.7155 -0.271 -0.672 0.689 227 206 177 0 0
3.8016 6.3505 -2.7126 -0.202 -0.691 0.694 226 206 178 0 0
3.8269 6.3404 -2.7033 -0.097 -0.786 0.611 224 205 176 0 0
4.0254 6.3453 -2.6500 -0.281 -0.688 0.669 226 207 177 0 0
4.0628 6.3417 -2.6389 -0.241 -0.641 0.728 223 202 171 0 0
4.8573 6.2909 -2.4092 -0.191 -0.823 0.534 223 202 173 0 0
4.8698 6.2914 -2.4059 -0.127 -0.816 0.565 223 204 176 0 0
4.8823 6.2917 -2.4025 -0.127 -0.816 0.565 223 204 175 0 0
4.9070 6.2895 -2.3952 -0.290 -0.654 0.698 225 203 173 0 0
5.5259 7.2296 -2.4457 0.870 -0.492 -0.041 198 174 145 0 0
5.5446 7.2629 -2.4484 0.870 -0.492 -0.041 195 176 155 0 0
6.3869 9.5940 -2.7633 0.598 -0.786 -0.159 229 226 220 0 0
6.5193 9.3778 -2.6764 -0.683 -0.477 0.552 224 219 216 0 0
7.0001 7.1475 -2.0223 -0.532 -0.799 -0.282 171 154 127 0 0
7.0265 7.1426 -2.0139 -0.283 -0.921 -0.267 177 160 133 0 0
7.0462 7.1162 -2.0023 -0.139 -0.899 -0.416 173 156 128 0 0
7.0633 7.1263 -2.0000 -0.163 -0.957 -0.240 171 154 126 0 0
7.2483 7.0133 -1.9228 0.049 -0.936 -0.347 181 164 138 0 0
7.3753 6.9437 -1.8717 0.090 -0.986 -0.140 173 157 128 0 0
7.3893 6.9444 -1.8680 0.090 -0.986 -0.140 175 158 130 0 0
7.4021 6.9420 -1.8639 -0.018 -0.997 -0.074 166 149 119 0 0
7.4293 6.9414 -1.8563 0.034 -0.990 0.136 163 147 114 0 0
7.9935 7.0426 -1.7253 0.183 -0.975 -0.126 189 172 148 0 0
8.0089 7.0461 -1.7219 0.273 -0.950 -0.152 196 179 154 0 0
8.5065 7.5939 -1.7138 0.806 -0.522 -0.280 226 219 210 0 0
8.5598 7.6791 -1.7191 0.806 -0.522 -0.280 240 237 232 0 0
1.6817 8.8976 -3.9079 0.024 -0.569 0.822 232 231 229 0 0
1.6933 8.9164 -3.9092 0.196 -0.640 0.743 233 232 230 0 0
1.8464 9.1000 -3.9105 -0.790 -0.606 0.097 232 231 227 0 0
2.1258 8.8476 -3.7744 -0.638 -0.751 0.169 230 228 223 0 0
2.7701 6.3298 -3.0040 -0.673 -0.706 0.220 211 188 154 0 0
3.0301 6.3174 -2.9298 -0.189 -0.812 0.552 219 196 165 0 0
3.0547 6.3170 -2.9230 -0.346 -0.745 0.570 220 199 168 0 0
3.1134 6.3370 -2.9116 0.234 -0.766 0.599 219 199 168 0 0
3.3112 6.3334 -2.8565 -0.281 -0.828 0.486 225 203 172 0 0
3.5457 6.3366 -2.7930 -0.328 -0.687 0.649 223 201 170 0 0
4.0169 6.3298 -2.6622 -0.346 -0.601 0.721 227 207 177 0 0
4.1909 6.3142 -2.6109 0.118 -0.666 0.737 224 205 175 0 0
4.4392 6.3129 -2.5425 -0.342 -0.564 0.752 226 207 178 0 0
4.8603 6.2838 -2.4202 -0.152 -0.691 0.706 224 203 173 0 0
4.8846 6.2765 -2.4118 -0.177 -0.630 0.756 225 203 174 0 0
4.9461 6.2690 -2.3932 -0.275 -0.619 0.736 225 204 175 0 0
4.9714 6.2746 -2.3876 -0.224 -0.502 0.835 226 206 179 0 0
5.5306 7.2344 -2.4607 0.882 -0.471 0.005 198 174 146 0 0
5.5496 7.2701 -2.4639 0.882 -0.471 0.005 195 177 156 0 0
6.3955 9.6125 -2.7844 0.314 -0.627 -0.713 228 225 220 0 0
6.5232 9.3724 -2.6928 -0.276 -0.528 0.803 223 219 215 0 0
6.7109 7.6850 -2.2434 -0.316 -0.433 -0.844 174 156 132 0 0
6.8341 7.3361 -2.1273 -0.532 -0.597 -0.600 169 153 128 0 0
6.8437 7.3199 -2.1209 -0.296 -0.680 -0.671 167 151 126 0 0
7.0398 7.1271 -2.0217 -0.242 -0.884 -0.400 170 153 127 0 0
7.2420 7.0234 -1.9418 -0.172 -0.903 -0.395 178 161 135 0 0
7.2541 7.0181 -1.9372 0.006 -0.939 -0.344 183 166 140 0 0
7.4072 6.9446 -1.8779 0.115 -0.993 0.016 163 146 116 0 0
7.4215 6.9464 -1.8744 0.115 -0.993 0.016 155 138 108 0 0
8.5960 7.7489 -1.7417 0.799 -0.515 -0.309 237 238 234 0 0
1.6169 8.9842 -3.9640 -0.805 -0.443 0.394 234 233 231 0 0
1.6628 8.9277 -3.9379 -0.236 -0.620 0.748 234 233 231 0 0
1.7916 8.9278 -3.9027 -0.229 -0.972 0.045 233 232 230 0 0
1.8152 8.9665 -3.9054 0.385 -0.916 -0.109 233 232 228 0 0
1.8345 8.9523 -3.8967 0.256 -0.945 0.206 233 232 228 0 0
1.8510 8.9507 -3.8918 0.321 -0.941 0.106 233 232 228 0 0
1.8662 8.9554 -3.8888 0.384 -0.859 0.339 232 231 229 0 0
1.9036 9.0068 -3.8907 -0.881 -0.440 0.176 231 230 228 0 0
2.1382 8.7263 -3.7598 -0.723 -0.580 -0.377 232 228 225 0 0
2.1418 8.8698 -3.7929 -0.655 -0.737 0.166 229 228 224 0 0
2.1620 8.8485 -3.7823 -0.628 -0.759 0.172 228 227 223 0 0
2.7748 6.3221 -3.0144 -0.673 -0.706 0.220 209 188 155 0 0
3.0355 6.3036 -2.9386 -0.155 -0.786 0.598 223 200 169 0 0
3.0473 6.3064 -2.9360 -0.361 -0.826 0.433 223 200 169 0 0
3.3291 6.3138 -2.8605 0.035 -0.683 0.729 223 200 169 0 0
3.3775 6.3227 -2.8494 -0.241 -0.589 0.772 223 204 172 0 0
3.4150 6.3178 -2.8379 -0.244 -0.654 0.716 224 204 172 0 0
4.0579 6.3146 -2.6610 -0.267 -0.678 0.684 224 205 175 0 0
4.2687 6.2828 -2.5957 -0.167 -0.735 0.658 226 205 176 0 0
4.3803 6.2983 -2.5687 -0.398 -0.639 0.658 225 204 175 0 0
5.5195 7.2266 -2.4770 0.868 -0.479 -0.129 195 173 143 0 0
5.5381 7.2595 -2.4797 0.841 -0.534 -0.090 196 174 147 0 0
5.5551 7.2802 -2.4800 0.882 -0.471 0.005 195 178 157 0 0
6.5052 9.3438 -2.7097 -0.726 -0.362 0.585 222 218 214 0 0
6.8086 9.3873 -2.6369 -0.260 -0.282 -0.923 213 212 210 0 0
6.6518 8.2875 -2.4186 -0.351 -0.445 0.824 209 208 206 0 0
6.7231 7.7154 -2.2632 -0.325 -0.428 -0.843 174 156 132 0 0
7.0455 7.1322 -2.0363 -0.242 -0.884 -0.400 170 153 127 0 0
7.1538 7.0789 -1.9940 -0.201 -0.955 -0.218 178 162 136 0 0
7.2472 7.0264 -1.9560 -0.155 -0.934 -0.323 179 163 137 0 0
7.2602 7.0241 -1.9519 -0.210 -0.900 -0.383 187 170 144 0 0
7.2728 7.0205 -1.9475 -0.163 -0.930 -0.330 183 165 141 0 0
7.3696 6.9430 -1.9026 -0.088 -0.996 -0.015 177 160 133 0 0
7.3829 6.9419 -1.8987 -0.139 -0.990 0.037 173 157 129 0 0
7.4110 6.9440 -1.8915 0.167 -0.985 0.037 163 146 117 0 0
7.4314 6.9624 -1.8903 0.072 -0.995 -0.074 162 145 115 0 0
7.7621 6.9987 -1.8083 0.056 -0.982 -0.182 180 163 138 0 0
8.5762 7.7282 -1.7584 0.799 -0.515 -0.309 238 239 233 0 0
1.6696 8.9172 -3.9513 -0.502 -0.515 0.695 234 233 231 0 0
1.8241 8.9459 -3.9158 0.302 -0.951 0.058 234 233 229 0 0
1.8486 8.9813 -3.9176 0.099 -0.809 0.579 234 233 229 0 0
1.8639 8.9854 -3.9144 0.099 -0.809 0.579 233 232 230 0 0
2.1407 8.7348 -3.7786 -0.720 -0.548 -0.426 231 229 226 0 0
2.1347 8.8460 -3.8068 -0.328 -0.530 0.782 232 228 225 0 0
2.1833 8.8433 -3.7929 -0.682 -0.682 -0.262 230 227 224 0 0
2.1968 8.8566 -3.7923 -0.620 -0.740 0.261 229 225 222 0 0
2.6718 6.4303 -3.0820 -0.842 -0.509 -0.181 229 226 221 0 0
2.7795 6.3144 -3.0247 -0.673 -0.706 0.220 213 193 162 0 0
3.0280 6.2935 -2.9516 -0.073 -0.725 0.685 221 200 171 0 0
3.0521 6.2965 -2.9458 0.002 -1.000 -0.014 222 200 170 0 0
3.0639 6.2995 -2.9432 0.089 -0.994 0.065 221 200 169 0 0
3.0769 6.2949 -2.9386 0.028 -0.934 0.356 219 198 167 0 0
3.3948 6.3070 -2.8544 -0.217 -0.588 0.779 221 202 171 0 0
3.4939 6.3006 -2.8257 -0.040 -0.711 0.702 224 203 173 0 0
4.4207 6.2831 -2.5676 -0.384 -0.631 0.674 229 209 182 0 0
4.6667 6.2462 -2.4913 -0.222 -0.800 0.557 224 202 173 0 0
5.0971 6.2201 -2.3671 -0.148 -0.670 0.728 224 201 170 0 0
5.5256 7.2415 -2.4940 0.852 -0.508 -0.126 196 175 144 0 0
5.5441 7.2730 -2.4965 0.852 -0.508 -0.126 195 173 148 0 0
5.5606 7.2903 -2.4961 0.882 -0.471 0.005 196 180 160 0 0
5.6367 5.9121 -2.1456 0.365 -0.399 0.841 230 226 223 0 0
6.4259 9.5337 -2.7955 0.067 -0.956 -0.284 226 223 218 0 0
6.3294 8.6904 -2.6203 0.517 -0.501 0.694 224 220 217 0 0
6.4554 8.8285 -2.6188 -0.575 -0.264 0.774 219 216 211 0 0
6.4771 8.8537 -2.6189 -0.616 -0.218 0.757 220 217 212 0 0
6.6051 8.7610 -2.5616 0.828 -0.484 0.283 213 212 209 0 0
6.7192 8.8296 -2.5467 0.094 -0.741 -0.665 211 210 208 0 0
6.7838 7.4868 -2.2079 -0.419 -0.483 -0.769 174 157 132 0 0
7.0164 7.1600 -2.0661 0.078 -0.983 -0.165 175 159 133 0 0
7.0292 7.1562 -2.0616 0.200 -0.978 -0.059 178 162 136 0 0
7.0398 7.1452 -2.0561 -0.362 -0.900 -0.242 179 163 138 0 0
7.1496 7.0958 -2.0142 -0.046 -0.895 -0.443 176 160 134 0 0
7.1741 7.0858 -2.0051 0.049 -0.965 -0.257 180 164 138 0 0
7.1827 7.0698 -1.9989 -0.222 -0.926 -0.304 178 162 137 0 0
7.2779 7.0235 -1.9617 0.178 -0.981 -0.080 182 165 140 0 0
7.2904 7.0195 -1.9574 -0.076 -0.975 -0.210 184 168 142 0 0
7.3299 7.0140 -1.9452 -0.010 -0.936 -0.353 179 163 136 0 0
7.6076 6.9813 -1.8613 -0.375 -0.901 -0.217 161 144 116 0 0
7.6174 6.9708 -1.8561 -0.362 -0.928 0.084 158 141 113 0 0
7.6556 6.9627 -1.8437 -0.175 -0.979 0.100 169 152 124 0 0
7.7312 6.9801 -1.8272 0.158 -0.987 0.031 177 160 132 0 0
8.5594 7.7142 -1.7758 0.792 -0.517 -0.326 240 237 232 0 0
2.1433 8.8243 -3.8169 -0.303 -0.498 0.813 233 229 227 0 0
2.1799 8.8007 -3.8012 -0.734 -0.680 -0.006 231 227 224 0 0
2.7129 6.3610 -3.0677 -0.717 -0.593 0.366 227 223 217 0 0
2.7277 6.3476 -3.0604 -0.717 -0.593 0.366 227 220 211 0 0
2.7423 6.3351 -3.0534 -0.722 -0.610 0.327 218 207 192 0 0
2.8128 6.2831 -3.0215 -0.339 -0.747 0.572 212 189 156 0 0
2.8254 6.2809 -3.0176 -0.278 -0.737 0.616 218 195 161 0 0
3.0598 6.2664 -2.9498 -0.221 -0.786 0.578 226 205 175 0 0
3.3263 6.2892 -2.8823 -0.054 -0.654 0.755 221 200 169 0 0
3.3752 6.2919 -2.8696 -0.360 -0.694 0.624 222 201 170 0 0
3.4245 6.2906 -2.8558 -0.292 -0.645 0.706 223 204 174 0 0
3.4975 6.2988 -2.8378 -0.188 -0.569 0.801 226 206 176 0 0
4.1768 6.2670 -2.6440 -0.086 -0.617 0.782 226 207 177 0 0
4.7313 6.2344 -2.4843 -0.052 -0.599 0.799 224 200 170 0 0
5.3335 6.2961 -2.3341 0.749 -0.584 0.313 198 174 143 0 0
5.5326 7.2623 -2.5123 0.838 -0.527 -0.142 198 177 148 0 0
5.5502 7.2874 -2.5135 0.852 -0.508 -0.126 195 174 149 0 0
5.5529 7.2094 -2.4940 0.950 -0.274 0.147 197 182 162 0 0
5.6650 5.9174 -2.1521 0.212 -0.413 0.886 227 225 220 0 0
6.3830 9.5578 -2.8321 -0.359 -0.801 -0.479 226 224 219 0 0
6.4318 9.5378 -2.8139 -0.083 -0.759 -0.646 225 222 216 0 0
6.6094 8.7591 -2.5777 0.828 -0.484 0.283 213 212 210 0 0
6.6825 8.8646 -2.5831 -0.557 -0.343 0.757 212 209 208 0 0
6.6971 8.8560 -2.5770 -0.554 -0.369 0.747 211 210 208 0 0
6.7282 8.8477 -2.5665 0.107 -0.661 -0.742 211 210 208 0 0
6.7467 8.8560 -2.5634 -0.057 -0.704 -0.708 210 209 207 0 0
6.7476 8.5839 -2.4977 -0.385 -0.418 0.823 209 205 204 0 0
6.6429 7.8957 -2.3606 0.763 -0.465 0.449 200 197 197 0 0
6.7839 7.5249 -2.2327 -0.419 -0.462 -0.781 169 152 127 0 0
6.8619 7.3900 -2.1789 -0.384 -0.698 -0.604 172 156 130 0 0
7.0373 7.1690 -2.0776 0.232 -0.840 -0.491 179 163 137 0 0
7.1560 7.1029 -2.0292 -0.046 -0.895 -0.443 177 161 136 0 0
7.1797 7.0902 -2.0196 0.228 -0.971 -0.069 177 161 135 0 0
7.1914 7.0835 -2.0148 -0.462 -0.884 -0.067 177 161 135 0 0
7.2974 7.0279 -1.9724 0.178 -0.981 -0.080 177 161 135 0 0
7.3091 7.0218 -1.9677 -0.063 -0.968 -0.244 178 162 136 0 0
7.3366 7.0215 -1.9601 -0.150 -0.970 -0.192 178 163 134 0 0
7.3424 6.9986 -1.9530 0.097 -0.784 -0.613 179 163 135 0 0
7.3557 6.9971 -1.9490 0.097 -0.784 -0.613 174 157 131 0 0
7.4316 6.9784 -1.9237 0.122 -0.933 -0.337 172 155 127 0 0
7.4456 6.9789 -1.9200 0.122 -0.933 -0.337 178 161 133 0 0
7.5130 6.9752 -1.9006 0.244 -0.968 -0.052 170 150 123 0 0
7.5282 6.9788 -1.8973 0.244 -0.968 -0.052 177 157 130 0 0
8.5446 7.7044 -1.7936 0.762 -0.512 -0.397 239 236 229 0 0
2.1598 8.8440 -3.8347 -0.127 -0.554 0.823 232 229 225 0 0
2.2013 8.7946 -3.8114 -0.740 -0.661 0.128 231 228 225 0 0
2.7231 6.3235 -3.0693 -0.145 -0.554 0.820 228 225 220 0 0
2.7319 6.3428 -3.0716 -0.702 -0.662 0.264 227 224 215 0 0
2.7465 6.3302 -3.0645 -0.702 -0.662 0.264 221 215 201 0 0
2.8035 6.2854 -3.0381 -0.716 -0.693 0.085 210 189 158 0 0
2.8176 6.2745 -3.0315 -0.288 -0.902 0.321 208 186 154 0 0
3.3430 6.2800 -2.8890 -0.098 -0.686 0.721 225 205 175 0 0
3.3552 6.2808 -2.8859 -0.033 -0.668 0.743 223 204 174 0 0
3.3802 6.2757 -2.8778 -0.452 -0.701 0.552 224 203 172 0 0
3.5033 6.2717 -2.8431 0.034 -0.727 0.685 225 205 173 0 0
3.5273 6.2782 -2.8381 -0.011 -0.677 0.736 224 207 177 0 0
4.6727 6.2288 -2.5124 -0.036 -0.717 0.697 228 205 177 0 0
4.7102 6.2367 -2.5040 0.018 -0.668 0.744 229 206 178 0 0
4.7217 6.2224 -2.4974 -0.100 -0.602 0.793 226 203 175 0 0
4.7709 6.2213 -2.4837 -0.114 -0.770 0.628 225 205 176 0 0
5.5399 7.2851 -2.5310 0.796 -0.575 -0.191 199 175 148 0 0
5.5563 7.3019 -2.5306 0.852 -0.508 -0.126 194 173 146 0 0
5.5590 7.2235 -2.5108 0.952 -0.279 0.123 196 182 162 0 0
5.5854 7.3088 -2.5243 0.953 -0.270 0.135 227 226 217 0 0
6.3977 9.6091 -2.8595 0.203 -0.810 -0.551 227 223 217 0 0
6.5041 8.8581 -2.6483 -0.896 -0.376 0.238 218 215 210 0 0
6.5204 8.8568 -2.6435 -0.626 -0.289 0.724 218 215 210 0 0
6.7281 8.9701 -2.6141 0.240 -0.320 0.917 211 210 208 0 0
6.7293 8.8316 -2.5802 0.434 -0.751 -0.498 211 210 208 0 0
6.7477 8.8398 -2.5771 0.406 -0.731 -0.548 210 209 206 0 0
6.7438 8.7530 -2.5572 0.015 -0.893 -0.450 209 208 204 0 0
6.7599 8.5482 -2.5031 -0.555 -0.393 0.733 205 203 204 0 0
6.9569 7.2612 -2.1371 -0.250 -0.836 -0.488 175 160 135 0 0
7.0649 7.1544 -2.0816 0.191 -0.981 0.016 176 160 135 0 0
7.1851 7.0941 -2.0341 0.049 -0.965 -0.257 181 165 139 0 0
7.1955 7.0835 -2.0287 -0.381 -0.872 -0.307 177 161 136 0 0
7.3443 7.0318 -1.9754 -0.251 -0.798 -0.549 178 161 133 0 0
7.3512 7.0119 -1.9687 0.097 -0.784 -0.613 179 161 132 0 0
7.4362 6.9796 -1.9376 0.164 -0.899 -0.406 173 156 128 0 0
7.5187 6.9793 -1.9149 0.147 -0.961 -0.235 159 142 116 0 0
7.5627 6.9865 -1.9046 0.269 -0.944 -0.190 181 163 133 0 0
7.7454 6.9950 -1.8566 0.408 -0.909 0.082 183 167 143 0 0
2.1674 8.8270 -3.8461 -0.745 -0.367 0.557 230 229 225 0 0
2.1894 8.7958 -3.8325 -0.745 -0.539 0.393 230 229 225 0 0
2.2361 8.8019 -3.8212 -0.330 -0.520 0.788 228 227 223 0 0
2.7280 6.3154 -3.0795 -0.251 -0.606 0.755 229 226 220 0 0
2.7404 6.3145 -3.0759 -0.241 -0.716 0.656 229 226 217 0 0
2.7659 6.3090 -3.0676 -0.754 -0.657 -0.010 217 204 185 0 0
2.8078 6.2796 -3.0489 -0.716 -0.693 0.085 213 192 162 0 0
2.8229 6.2632 -3.0408 -0.561 -0.797 0.226 210 188 156 0 0
2.9131 6.2338 -3.0089 -0.239 -0.558 0.795 220 199 167 0 0
3.0363 6.2229 -2.9725 -0.239 -0.858 0.455 222 202 173 0 0
3.3732 6.2583 -2.8889 -0.215 -0.824 0.523 223 204 174 0 0
3.5695 6.2540 -2.8341 0.072 -0.667 0.742 224 202 172 0 0
3.8022 6.2618 -2.7723 -0.082 -0.785 0.614 226 205 176 0 0
3.8148 6.2550 -2.7671 -0.330 -0.628 0.705 224 204 176 0 0
3.9376 6.2571 -2.7340 -0.220 -0.638 0.738 226 205 176 0 0
4.5523 6.2105 -2.5543 0.083 -0.695 0.715 223 200 173 0 0
4.5647 6.2140 -2.5518 -0.081 -0.636 0.768 224 203 174 0 0
4.5771 6.2159 -2.5489 -0.081 -0.636 0.768 225 204 174 0 0
4.5891 6.2103 -2.5442 -0.193 -0.696 0.692 224 203 172 0 0
4.7736 6.2092 -2.4934 -0.492 -0.589 0.641 221 201 170 0 0
4.9448 6.1937 -2.4428 -0.331 -0.739 0.587 225 202 171 0 0
5.1775 6.1820 -2.3762 -0.286 -0.633 0.719 228 205 174 0 0
5.1896 6.1806 -2.3725 -0.286 -0.633 0.719 227 203 171 0 0
5.2012 6.1743 -2.3678 -0.128 -0.772 0.623 222 198 163 0 0
5.5249 7.2498 -2.5417 0.902 -0.430 -0.041 198 175 144 0 0
5.5459 7.2991 -2.5480 0.796 -0.575 -0.191 195 174 144 0 0
5.5390 7.1537 -2.5144 0.952 -0.279 0.123 193 173 145 0 0
5.5648 7.2361 -2.5274 0.952 -0.279 0.123 197 183 163 0 0
5.6179 7.4056 -2.5543 0.952 -0.279 0.123 228 227 222 0 0
6.4045 8.7504 -2.6672 0.583 -0.561 0.589 219 218 214 0 0
6.5061 8.8447 -2.6624 -0.582 -0.533 0.614 217 214 209 0 0
6.5150 8.8091 -2.6512 -0.669 -0.501 0.549 217 214 209 0 0
6.5290 8.7977 -2.6446 -0.669 -0.501 0.549 217 213 209 0 0
6.7010 8.9032 -2.6233 0.140 -0.287 0.948 211 210 208 0 0
