ply
format ascii 1.0
element vertex 826
property float x
property float y
property float z
property float nx
property float ny
property float nz
property uchar diffuse_red
property uchar diffuse_green
property uchar diffuse_blue
property uchar class
property uchar detection
end_header
2.5194 7.0001 -2.6286 -0.582 -0.579 0.572 219 195 161 0 0
2.7565 6.8747 -2.6205 0.116 -0.791 0.600 227 206 179 0 0
3.3658 6.6872 -2.6172 -0.099 -0.979 0.178 225 203 172 0 0
3.3898 6.6754 -2.6165 -0.690 -0.685 0.233 226 203 175 0 0
3.4053 6.6779 -2.6174 -0.523 -0.730 0.440 225 204 175 0 0
3.4159 6.6688 -2.6166 -0.616 -0.630 0.474 229 206 174 0 0
3.7522 6.5393 -2.6114 -0.257 -0.560 0.787 228 209 178 0 0
4.1825 6.3303 -2.5991 -0.498 -0.835 -0.234 226 207 179 0 0
7.0697 8.1222 -2.9315 0.017 -0.957 0.288 193 193 191 0 0
7.1272 8.0009 -2.9177 -0.381 -0.924 -0.028 192 192 190 0 0
8.0667 8.2615 -2.9840 0.322 -0.460 -0.828 205 205 204 0 0
0.6906 10.6271 -3.0537 0.500 -0.790 -0.354 231 228 225 0 0
0.7073 10.6321 -3.0550 -0.153 -0.806 -0.572 231 227 224 0 0
0.7236 10.6314 -3.0555 0.170 -0.974 -0.146 229 227 225 0 0
0.7406 10.6422 -3.0575 -0.379 -0.770 0.513 229 226 224 0 0
1.1531 10.5914 -3.0653 -0.931 -0.354 -0.087 220 214 212 0 0
1.1946 10.4943 -3.0540 -0.905 -0.353 -0.239 214 211 207 0 0
2.6541 8.9257 -2.8994 0.318 -0.835 -0.449 113 67 53 0 0
2.7005 8.9784 -2.9079 0.432 -0.794 -0.427 106 60 47 0 0
2.7200 8.9899 -2.9101 0.166 -0.885 -0.435 110 64 49 0 0
2.7367 8.9901 -2.9107 -0.201 -0.737 -0.646 111 66 50 0 0
2.7763 9.0141 -2.9153 0.439 -0.883 -0.168 105 62 49 0 0
2.7961 9.0259 -2.9175 0.480 -0.872 -0.099 107 65 50 0 0
2.8180 9.0452 -2.9208 0.435 -0.891 -0.131 96 55 39 0 0
2.8374 9.0550 -2.9228 0.435 -0.891 -0.131 102 61 46 0 0
2.9673 9.1578 -2.9409 0.445 -0.736 -0.510 111 71 59 0 0
2.9854 9.1614 -2.9420 0.259 -0.782 -0.567 108 67 54 0 0
2.5035 7.1826 -2.6653 0.649 -0.720 -0.246 210 188 163 0 0
2.5184 7.1859 -2.6662 0.187 -0.850 -0.492 219 199 169 0 0
2.5248 7.1597 -2.6630 -0.581 -0.560 -0.590 218 197 167 0 0
2.5251 6.9722 -2.6384 -0.510 -0.608 0.609 216 193 158 0 0
2.5349 6.9592 -2.6370 -0.734 -0.444 0.514 219 196 162 0 0
2.5575 6.9429 -2.6357 -0.474 -0.467 0.746 224 203 171 0 0
3.0025 6.7776 -2.6296 -0.206 -0.678 0.706 220 199 169 0 0
3.3488 6.6803 -2.6290 0.235 -0.888 0.395 226 203 172 0 0
3.3600 6.6727 -2.6284 0.056 -0.772 0.633 227 203 173 0 0
3.3885 6.6718 -2.6293 -0.295 -0.719 0.629 226 204 174 0 0
3.3999 6.6646 -2.6288 -0.516 -0.662 0.544 227 205 176 0 0
3.4133 6.6619 -2.6289 -0.549 -0.629 0.550 228 206 175 0 0
3.4224 6.6493 -2.6276 -0.396 -0.527 0.752 226 205 174 0 0
3.4321 6.6381 -2.6264 -0.453 -0.610 0.650 228 207 176 0 0
3.8262 6.4776 -2.6192 -0.436 -0.766 0.473 228 208 178 0 0
3.8678 6.4721 -2.6200 -0.219 -0.699 0.681 226 205 175 0 0
4.1811 6.3273 -2.6120 -0.446 -0.691 0.568 229 210 183 0 0
4.4330 6.2099 -2.6054 -0.190 -0.617 0.764 228 208 180 0 0
7.0352 8.1326 -2.9493 -0.289 -0.955 0.068 196 195 193 0 0
7.0526 8.1273 -2.9492 -0.289 -0.955 0.068 195 195 193 0 0
7.1111 8.0071 -2.9354 -0.362 -0.932 0.003 193 192 190 0 0
7.1278 8.0012 -2.9353 -0.381 -0.924 -0.028 193 193 191 0 0
7.1783 7.9285 -2.9275 -0.954 -0.110 -0.277 193 193 191 0 0
7.9852 8.2732 -3.0011 0.254 -0.452 -0.855 203 203 202 0 0
8.1656 8.4060 -3.0249 0.295 -0.448 -0.844 206 205 203 0 0
8.1659 7.6735 -2.9287 -0.183 -0.170 0.968 224 224 223 0 0
0.7231 10.6150 -3.0707 0.258 -0.866 0.428 231 227 224 0 0
1.1958 10.5039 -3.0728 -0.905 -0.353 -0.239 217 212 209 0 0
1.5739 8.9765 -2.8836 -0.654 -0.524 -0.546 180 137 121 0 0
1.7495 8.5631 -2.8350 -0.684 -0.596 -0.421 160 113 95 0 0
1.8980 8.4765 -2.8289 -0.020 -0.840 -0.542 133 86 70 0 0
1.9130 8.4773 -2.8295 -0.080 -0.839 -0.539 128 80 63 0 0
2.2418 8.6683 -2.8666 0.192 -0.886 -0.423 123 77 62 0 0
2.6012 8.9094 -2.9115 0.047 -0.889 -0.456 110 65 49 0 0
2.6369 8.9213 -2.9143 0.381 -0.894 -0.235 117 71 58 0 0
2.6879 8.9928 -2.9256 0.276 -0.961 0.035 111 65 52 0 0
2.7056 8.9969 -2.9268 0.238 -0.970 -0.038 109 64 49 0 0
2.7224 8.9978 -2.9275 -0.003 -0.991 -0.131 115 71 56 0 0
2.7410 9.0055 -2.9292 -0.326 -0.779 -0.536 113 70 54 0 0
2.7817 9.0337 -2.9344 0.479 -0.845 -0.236 99 57 43 0 0
2.8016 9.0456 -2.9367 0.479 -0.845 -0.236 107 65 51 0 0
2.8209 9.0552 -2.9387 0.368 -0.912 -0.184 99 60 45 0 0
2.8400 9.0637 -2.9405 0.384 -0.916 -0.119 88 49 34 0 0
2.9497 9.1551 -2.9565 0.485 -0.739 -0.468 103 61 47 0 0
2.9712 9.1710 -2.9594 0.485 -0.739 -0.468 112 70 56 0 0
2.9899 9.1766 -2.9608 0.259 -0.782 -0.567 108 65 51 0 0
2.5069 7.1934 -2.6803 0.193 -0.790 -0.581 208 185 160 0 0
2.5222 7.1980 -2.6815 0.193 -0.790 -0.581 217 196 166 0 0
2.5286 7.1718 -2.6783 -0.581 -0.560 -0.590 219 198 167 0 0
2.5228 6.9637 -2.6504 -0.734 -0.444 0.514 213 190 155 0 0
2.5324 6.9497 -2.6489 -0.734 -0.444 0.514 217 193 159 0 0
2.6116 6.8949 -2.6445 -0.724 -0.476 0.499 226 207 177 0 0
2.6578 6.8671 -2.6424 -0.136 -0.649 0.748 224 204 172 0 0
2.8783 6.7817 -2.6390 -0.003 -0.808 0.589 226 205 178 0 0
2.9982 6.7652 -2.6411 -0.273 -0.715 0.644 223 204 173 0 0
3.7444 6.4906 -2.6313 -0.215 -0.655 0.725 229 209 182 0 0
3.8857 6.4180 -2.6267 -0.352 -0.622 0.700 227 205 177 0 0
3.9214 6.4302 -2.6296 -0.464 -0.563 0.684 229 206 178 0 0
4.0012 6.3826 -2.6262 -0.165 -0.727 0.667 226 204 175 0 0
4.6011 6.1071 -2.6110 -0.260 -0.704 0.660 228 207 180 0 0
4.7513 6.0275 -2.6058 -0.397 -0.660 0.637 225 205 178 0 0
7.0683 8.1192 -2.9663 -0.098 -0.981 0.165 196 196 194 0 0
7.1793 7.9844 -2.9524 -0.673 -0.520 -0.525 195 195 193 0 0
7.2187 7.9252 -2.9459 -0.892 -0.314 -0.324 194 194 192 0 0
7.4848 7.9349 -2.9567 0.185 -0.982 -0.030 198 198 195 0 0
1.5755 8.9853 -2.9004 -0.725 -0.519 -0.452 194 151 135 0 0
1.7514 8.5725 -2.8514 -0.684 -0.596 -0.421 167 120 102 0 0
2.4694 8.8328 -2.9125 0.387 -0.857 -0.339 123 74 59 0 0
2.4895 8.8495 -2.9154 0.258 -0.954 -0.155 117 70 54 0 0
2.6399 8.9322 -2.9320 0.234 -0.907 -0.350 110 64 50 0 0
2.7074 9.0031 -2.9439 0.316 -0.829 -0.462 103 60 43 0 0
2.7260 9.0106 -2.9456 -0.201 -0.816 -0.542 109 66 49 0 0
2.7425 9.0101 -2.9462 -0.045 -0.696 -0.717 112 69 53 0 0
2.7859 9.0485 -2.9529 0.288 -0.894 -0.342 111 69 54 0 0
2.8044 9.0551 -2.9545 0.288 -0.894 -0.342 116 74 60 0 0
2.8230 9.0617 -2.9560 0.266 -0.951 -0.157 114 72 58 0 0
2.8412 9.0670 -2.9574 0.266 -0.951 -0.157 110 68 54 0 0
2.9730 9.1762 -2.9768 0.526 -0.807 -0.269 113 71 55 0 0
2.9942 9.1907 -2.9795 0.476 -0.833 -0.281 107 64 50 0 0
2.5104 7.2048 -2.6955 0.076 -0.715 -0.695 205 182 157 0 0
2.5251 7.2072 -2.6964 0.076 -0.715 -0.695 214 193 163 0 0
2.5398 7.2096 -2.6972 0.076 -0.715 -0.695 216 195 164 0 0
2.4941 6.9583 -2.6619 -0.304 -0.707 0.639 220 198 166 0 0
2.9120 6.7579 -2.6502 -0.272 -0.710 0.650 229 208 180 0 0
3.1648 6.6828 -2.6493 0.084 -0.955 0.283 225 206 176 0 0
3.7386 6.4779 -2.6427 -0.083 -0.744 0.663 226 207 178 0 0
3.7524 6.4761 -2.6429 -0.083 -0.744 0.663 225 205 178 0 0
3.8024 6.4579 -2.6423 -0.312 -0.726 0.613 229 210 181 0 0
3.9169 6.4208 -2.6415 -0.443 -0.580 0.684 224 201 172 0 0
3.9267 6.4108 -2.6405 -0.410 -0.580 0.704 227 204 176 0 0
4.0881 6.3205 -2.6343 -0.530 -0.598 0.601 227 205 176 0 0
4.2191 6.2584 -2.6307 -0.133 -0.954 0.269 227 206 179 0 0
4.2340 6.2582 -2.6312 -0.025 -0.996 0.085 224 204 177 0 0
4.2445 6.2500 -2.6305 0.156 -0.933 0.325 225 205 178 0 0
4.2880 6.2470 -2.6317 -0.293 -0.790 0.539 226 208 180 0 0
4.6617 6.0559 -2.6196 -0.628 -0.518 0.581 227 207 180 0 0
4.6920 6.0552 -2.6206 -0.183 -0.699 0.691 226 209 182 0 0
7.4093 8.0027 -2.9807 0.170 -0.339 0.925 197 197 195 0 0
7.4052 7.9432 -2.9725 -0.169 -0.974 -0.152 199 197 197 0 0
7.4311 7.8948 -2.9670 0.345 -0.753 -0.560 199 199 197 0 0
7.4678 7.9133 -2.9708 0.521 -0.841 0.145 199 199 197 0 0
7.9104 8.2646 -3.0340 0.279 -0.490 -0.826 203 203 203 0 0
8.4090 7.8389 -2.9950 -0.558 0.063 0.828 227 227 227 0 0
0.7200 10.5467 -3.0961 0.501 -0.864 -0.057 231 227 224 0 0
1.1149 10.3385 -3.0824 -0.595 -0.798 0.090 222 217 214 0 0
1.1947 10.6665 -3.1299 -0.727 -0.236 -0.644 219 215 212 0 0
1.1985 10.5257 -3.1109 -0.932 -0.309 -0.190 219 215 211 0 0
1.2252 10.4532 -3.1021 -0.904 -0.366 -0.221 217 214 211 0 0
1.2384 10.4169 -3.0976 -0.883 -0.400 -0.245 219 211 208 0 0
1.5905 8.9820 -2.9161 -0.646 -0.541 -0.538 178 132 116 0 0
1.9028 8.4996 -2.8622 -0.225 -0.839 -0.495 128 81 65 0 0
1.9191 8.5064 -2.8637 0.048 -0.858 -0.511 130 81 65 0 0
2.4899 8.8499 -2.9314 0.098 -0.970 -0.223 117 69 54 0 0
2.7126 9.0220 -2.9630 0.315 -0.802 -0.507 115 72 55 0 0
2.7312 9.0299 -2.9647 -0.023 -0.877 -0.480 111 68 51 0 0
2.7473 9.0274 -2.9650 0.109 -0.786 -0.608 98 57 39 0 0
2.7866 9.0499 -2.9695 0.344 -0.832 -0.436 112 70 55 0 0
2.8056 9.0585 -2.9714 0.250 -0.885 -0.393 110 68 54 0 0
2.8227 9.0594 -2.9721 0.269 -0.882 -0.387 108 66 52 0 0
2.8406 9.0636 -2.9733 0.289 -0.878 -0.382 110 68 54 0 0
2.9046 9.1125 -2.9823 0.223 -0.813 -0.537 115 72 56 0 0
2.9254 9.1266 -2.9850 0.147 -0.782 -0.605 112 70 54 0 0
2.9442 9.1329 -2.9866 0.066 -0.802 -0.593 102 60 44 0 0
2.9655 9.1482 -2.9894 0.454 -0.774 -0.442 113 71 55 0 0
2.4905 6.9450 -2.6731 -0.405 -0.661 0.632 217 196 165 0 0
2.6438 6.8647 -2.6679 -0.668 -0.550 0.502 222 203 171 0 0
2.6538 6.8529 -2.6667 -0.877 -0.438 0.198 222 202 171 0 0
2.6645 6.8433 -2.6658 -0.575 -0.619 0.536 225 204 173 0 0
2.7506 6.8120 -2.6647 -0.294 -0.689 0.662 225 204 177 0 0
2.9428 6.7266 -2.6602 0.282 -0.921 0.269 224 205 175 0 0
2.9574 6.7283 -2.6610 0.022 -0.911 0.411 225 206 176 0 0
2.9729 6.7327 -2.6622 -0.309 -0.915 0.259 223 202 174 0 0
2.9885 6.7370 -2.6633 0.130 -0.933 0.336 228 208 181 0 0
3.0794 6.6800 -2.6590 -0.243 -0.811 0.533 225 204 175 0 0
3.0921 6.6762 -2.6589 -0.243 -0.811 0.533 228 207 178 0 0
3.1067 6.6778 -2.6597 -0.370 -0.743 0.557 224 203 175 0 0
3.2294 6.6660 -2.6626 -0.523 -0.491 0.697 224 205 176 0 0
3.4989 6.5571 -2.6578 -0.364 -0.580 0.729 226 204 175 0 0
3.7961 6.4444 -2.6535 -0.197 -0.599 0.776 227 207 180 0 0
3.9561 6.3805 -2.6507 -0.279 -0.627 0.728 228 209 180 0 0
4.1038 6.2935 -2.6444 -0.434 -0.500 0.749 225 206 176 0 0
4.1312 6.2890 -2.6448 -0.267 -0.549 0.792 228 208 181 0 0
4.2030 6.2560 -2.6430 -0.245 -0.591 0.769 226 206 179 0 0
4.2131 6.2471 -2.6422 -0.072 -0.813 0.577 230 210 181 0 0
4.2293 6.2493 -2.6431 0.121 -0.921 0.371 228 208 180 0 0
4.2553 6.2420 -2.6430 -0.585 -0.655 0.479 226 208 181 0 0
4.2693 6.2400 -2.6433 -0.559 -0.781 0.280 226 209 181 0 0
4.2833 6.2382 -2.6436 -0.231 -0.793 0.564 225 208 180 0 0
4.6379 6.0665 -2.6334 -0.329 -0.586 0.741 228 208 181 0 0
4.7268 6.0126 -2.6293 -0.190 -0.513 0.837 226 205 175 0 0
7.2995 7.9182 -2.9828 -0.089 -0.965 0.248 198 198 196 0 0
7.4525 7.9208 -2.9888 0.345 -0.753 -0.560 201 201 199 0 0
7.4909 7.9414 -2.9930 0.240 -0.832 -0.500 201 201 199 0 0
7.9574 7.5400 -2.9558 -0.671 -0.135 0.729 221 223 222 0 0
0.7546 10.5756 -3.1186 0.492 -0.765 0.415 230 226 224 0 0
0.8522 10.5613 -3.1203 -0.619 -0.761 -0.195 229 225 222 0 0
1.0814 10.3277 -3.0969 0.183 -0.933 0.310 221 217 214 0 0
1.0982 10.3317 -3.0981 0.393 -0.916 -0.074 221 217 214 0 0
1.1155 10.3417 -3.1001 -0.129 -0.952 0.278 222 216 215 0 0
1.1357 10.3832 -3.1066 -0.101 -0.912 0.397 222 216 214 0 0
1.5926 8.9949 -2.9335 -0.628 -0.590 -0.507 161 114 100 0 0
1.9055 8.5127 -2.8792 -0.029 -0.832 -0.555 131 84 68 0 0
1.9248 8.5355 -2.8830 -0.094 -0.958 -0.270 129 81 64 0 0
2.4399 8.8417 -2.9443 0.184 -0.883 -0.432 128 81 65 0 0
2.6464 8.9555 -2.9677 0.190 -0.801 -0.568 107 60 42 0 0
2.7162 9.0350 -2.9812 0.334 -0.783 -0.524 112 69 53 0 0
2.7343 9.0407 -2.9827 0.140 -0.754 -0.642 110 67 51 0 0
2.7897 9.0605 -2.9874 0.500 -0.801 -0.330 111 67 54 0 0
2.8052 9.0557 -2.9874 0.334 -0.869 -0.364 121 78 64 0 0
2.8267 9.0733 -2.9906 0.359 -0.846 -0.394 110 68 54 0 0
2.9297 9.1409 -3.0037 0.209 -0.755 -0.621 105 63 47 0 0
2.9484 9.1471 -3.0053 0.066 -0.802 -0.593 106 64 48 0 0
2.9691 9.1599 -3.0078 0.427 -0.814 -0.395 112 69 53 0 0
2.4879 6.9354 -2.6849 -0.405 -0.661 0.632 219 198 167 0 0
2.6527 6.8486 -2.6792 -0.765 -0.404 0.502 224 205 175 0 0
2.6630 6.8378 -2.6781 -0.571 -0.535 0.623 224 204 173 0 0
2.7127 6.8217 -2.6777 -0.321 -0.706 0.631 225 205 175 0 0
2.9015 6.7268 -2.6718 -0.761 -0.640 0.104 225 205 176 0 0
2.9572 6.7271 -2.6740 0.032 -0.953 0.302 224 203 174 0 0
3.0816 6.6850 -2.6729 -0.158 -0.761 0.629 228 209 179 0 0
3.0896 6.6691 -2.6710 -0.661 -0.637 0.397 227 208 178 0 0
3.1014 6.6633 -2.6706 -0.671 -0.657 0.343 224 205 176 0 0
3.4942 6.5457 -2.6693 -0.364 -0.580 0.729 224 203 172 0 0
3.6641 6.4735 -2.6658 -0.571 -0.503 0.649 226 208 180 0 0
3.9366 6.3706 -2.6619 -0.314 -0.598 0.738 225 205 175 0 0
4.1338 6.2656 -2.6549 -0.716 -0.569 0.405 227 207 180 0 0
4.1989 6.2480 -2.6549 0.002 -0.817 0.577 228 207 178 0 0
4.2151 6.2501 -2.6558 -0.087 -0.876 0.475 224 205 175 0 0
4.2234 6.2380 -2.6545 0.032 -0.803 0.595 225 206 178 0 0
4.2502 6.2323 -2.6547 -0.478 -0.578 0.662 227 210 182 0 0
4.2593 6.2217 -2.6536 -0.557 -0.521 0.647 227 210 182 0 0
4.2823 6.2092 -2.6528 0.032 -0.777 0.628 228 208 180 0 0
4.2966 6.2080 -2.6531 -0.164 -0.686 0.709 227 206 177 0 0
7.2805 7.8936 -2.9962 -0.598 -0.628 -0.499 199 199 197 0 0
7.2923 7.8814 -2.9950 -0.598 -0.628 -0.499 199 199 197 0 0
7.3459 7.8681 -2.9952 -0.493 -0.329 0.806 201 201 200 0 0
8.1451 8.5477 -3.1183 0.193 -0.466 -0.864 206 206 206 0 0
8.1958 8.5806 -3.1247 0.193 -0.466 -0.864 208 208 206 0 0
8.3131 7.7090 -3.0097 -0.535 -0.049 0.843 227 227 225 0 0
0.7480 10.4518 -3.1186 0.132 -0.568 0.813 231 227 226 0 0
0.8529 10.5675 -3.1386 -0.196 -0.932 -0.306 229 225 222 0 0
1.0020 10.7894 -3.1750 -0.766 -0.142 -0.627 225 221 218 0 0
1.0819 10.3305 -3.1145 -0.034 -0.894 -0.447 221 217 215 0 0
1.1154 10.3371 -3.1167 -0.227 -0.954 0.193 222 216 216 0 0
1.2103 10.4660 -3.1382 -0.752 -0.653 -0.090 220 215 212 0 0
1.4802 9.6544 -3.0361 -0.883 -0.468 0.028 178 132 117 0 0
1.5948 9.0075 -2.9509 -0.628 -0.590 -0.507 164 118 103 0 0
1.8340 8.5289 -2.8937 -0.394 -0.773 -0.498 141 95 79 0 0
1.9262 8.5414 -2.8990 -0.028 -0.988 -0.149 131 84 67 0 0
2.3502 8.7976 -2.9507 0.314 -0.932 -0.182 139 97 81 0 0
2.7930 9.0721 -3.0056 0.421 -0.823 -0.382 111 67 54 0 0
2.8081 9.0656 -3.0052 0.376 -0.813 -0.444 119 76 63 0 0
2.8294 9.0823 -3.0084 0.339 -0.777 -0.531 107 65 51 0 0
2.8486 9.0912 -3.0103 0.318 -0.782 -0.536 101 59 45 0 0
2.8922 9.1273 -3.0170 0.623 -0.753 -0.213 112 70 56 0 0
2.5969 6.8443 -2.6896 -0.232 -0.576 0.784 229 207 178 0 0
2.6997 6.7809 -2.6847 -0.515 -0.762 0.392 227 207 176 0 0
2.8992 6.7196 -2.6839 -0.652 -0.664 0.367 225 206 177 0 0
2.9092 6.7088 -2.6827 -0.652 -0.617 0.441 226 206 180 0 0
2.9192 6.6980 -2.6816 -0.705 -0.567 0.426 228 208 181 0 0
3.4894 6.5343 -2.6807 -0.364 -0.580 0.729 229 208 177 0 0
3.5034 6.5335 -2.6811 -0.346 -0.618 0.706 228 206 176 0 0
3.5152 6.5275 -2.6808 -0.424 -0.720 0.549 226 204 176 0 0
3.6129 6.4877 -2.6790 -0.479 -0.719 0.503 226 205 176 0 0
3.6359 6.4747 -2.6780 -0.377 -0.599 0.707 228 206 175 0 0
4.1177 6.2628 -2.6671 -0.547 -0.720 0.427 228 208 181 0 0
4.1305 6.2590 -2.6671 -0.588 -0.634 0.503 228 208 181 0 0
4.1519 6.2435 -2.6657 -0.473 -0.698 0.538 226 208 178 0 0
4.1658 6.2417 -2.6660 -0.245 -0.724 0.644 226 207 177 0 0
4.1756 6.2322 -2.6651 -0.291 -0.783 0.549 228 207 178 0 0
4.2095 6.2396 -2.6674 -0.007 -0.835 0.550 226 207 176 0 0
4.2187 6.2291 -2.6663 0.032 -0.803 0.595 229 210 182 0 0
4.2296 6.2219 -2.6657 -0.267 -0.684 0.679 232 212 185 0 0
4.7075 5.9817 -2.6507 -0.403 -0.561 0.723 222 202 172 0 0
7.0464 7.9196 -3.0083 0.268 -0.943 -0.197 200 200 200 0 0
7.4765 8.2251 -3.0670 0.315 -0.442 -0.840 201 201 199 0 0
7.2844 7.9524 -3.0219 -0.670 -0.165 0.724 201 201 199 0 0
7.3232 7.9745 -3.0265 -0.813 -0.234 0.533 201 201 199 0 0
7.2246 7.8224 -3.0016 -0.557 -0.307 0.772 201 201 199 0 0
7.3486 7.8442 -3.0094 -0.006 -0.333 0.943 203 203 202 0 0
0.9214 10.3644 -3.1302 -0.834 -0.314 0.454 227 224 220 0 0
1.5969 9.0202 -2.9684 -0.628 -0.590 -0.507 167 120 104 0 0
1.7969 8.5707 -2.9132 -0.388 -0.749 -0.537 165 118 103 0 0
1.8103 8.5625 -2.9126 -0.432 -0.784 -0.446 138 90 76 0 0
1.8216 8.5417 -2.9101 -0.239 -0.821 -0.518 139 93 77 0 0
2.3687 8.8077 -2.9685 0.245 -0.949 -0.198 132 88 73 0 0
2.6610 9.0114 -3.0084 0.270 -0.950 -0.157 128 80 61 0 0
2.8119 9.0787 -3.0236 0.499 -0.785 -0.368 116 73 60 0 0
2.8337 9.0974 -3.0271 0.390 -0.840 -0.376 110 68 55 0 0
2.8943 9.1340 -3.0346 0.623 -0.753 -0.213 111 68 53 0 0
2.9580 9.1794 -3.0434 0.139 -0.735 -0.664 109 64 49 0 0
2.8874 6.7247 -2.6972 0.028 -0.696 0.717 226 205 178 0 0
2.9196 6.6983 -2.6948 -0.214 -0.565 0.797 229 209 180 0 0
2.9417 6.6827 -2.6934 -0.173 -0.695 0.698 228 207 176 0 0
3.3939 6.5449 -2.6917 -0.584 -0.548 0.599 228 209 177 0 0
3.4813 6.5153 -2.6909 -0.325 -0.655 0.682 230 206 178 0 0
3.4990 6.5228 -2.6927 -0.346 -0.618 0.706 231 206 179 0 0
3.6032 6.4658 -2.6887 -0.271 -0.638 0.721 226 205 176 0 0
3.6425 6.4570 -2.6890 -0.250 -0.551 0.796 225 205 176 0 0
3.8831 6.3512 -2.6835 -0.456 -0.673 0.582 230 210 181 0 0
4.1178 6.2626 -2.6802 -0.509 -0.560 0.654 226 206 179 0 0
4.1366 6.2422 -2.6781 -0.458 -0.697 0.551 230 211 182 0 0
4.1479 6.2357 -2.6776 -0.411 -0.709 0.573 227 208 180 0 0
4.1719 6.2251 -2.6771 -0.291 -0.783 0.549 226 205 174 0 0
4.1845 6.2209 -2.6770 -0.323 -0.730 0.603 229 208 177 0 0
4.1970 6.2165 -2.6769 -0.272 -0.749 0.604 229 209 179 0 0
4.2531 6.1830 -2.6743 -0.782 -0.559 0.276 224 204 177 0 0
4.2671 6.1812 -2.6746 -0.483 -0.854 0.193 225 206 177 0 0
4.7866 5.9373 -2.6607 -0.310 -0.538 0.784 226 209 181 0 0
4.7980 5.9313 -2.6603 -0.310 -0.538 0.784 226 210 181 0 0
5.0311 5.9304 -2.6692 0.313 -0.920 -0.236 201 183 157 0 0
5.0589 5.9477 -2.6727 0.432 -0.875 -0.217 206 194 179 0 0
6.7700 7.9405 -3.0178 -0.786 -0.359 -0.504 208 208 206 0 0
6.7805 7.9266 -3.0163 -0.247 -0.966 -0.070 207 207 207 0 0
7.3202 7.9701 -3.0433 -0.778 -0.200 0.595 202 202 200 0 0
7.6945 7.9744 -3.0584 -0.919 -0.311 -0.240 209 209 207 0 0
7.9891 7.7481 -3.0382 -0.630 0.027 0.776 219 219 219 0 0
0.9203 10.3449 -3.1446 -0.826 -0.365 0.429 227 223 220 0 0
1.1794 10.3087 -3.1497 -0.316 -0.748 0.583 220 216 213 0 0
1.2511 10.5340 -3.1843 -0.898 -0.236 -0.371 219 215 214 0 0
1.9274 8.5452 -2.9298 -0.044 -0.919 -0.391 126 80 65 0 0
1.9426 8.5457 -2.9305 -0.028 -0.988 -0.149 136 90 75 0 0
2.6020 8.9720 -3.0167 0.323 -0.849 -0.417 118 71 57 0 0
2.6447 9.0109 -3.0239 0.223 -0.975 -0.010 121 74 57 0 0
2.8379 9.1119 -3.0458 0.432 -0.874 -0.224 113 71 58 0 0
2.8775 9.1333 -3.0504 0.454 -0.791 -0.410 114 72 58 0 0
2.8966 9.1412 -3.0523 0.394 -0.724 -0.566 107 64 50 0 0
2.9165 9.1518 -3.0545 0.140 -0.842 -0.520 112 69 54 0 0
2.9449 9.1932 -3.0615 0.190 -0.724 -0.664 113 69 56 0 0
2.7690 6.7404 -2.7078 -0.415 -0.542 0.731 226 206 178 0 0
2.7801 6.7327 -2.7072 -0.415 -0.542 0.731 227 207 177 0 0
2.9254 6.6753 -2.7048 -0.173 -0.695 0.698 227 206 177 0 0
3.1726 6.5915 -2.7027 -0.506 -0.585 0.634 224 202 173 0 0
3.3748 6.5328 -2.7024 -0.316 -0.551 0.772 221 200 169 0 0
4.0475 6.2693 -2.6916 -0.389 -0.609 0.691 225 204 175 0 0
4.1193 6.2373 -2.6899 -0.308 -0.670 0.676 231 211 185 0 0
4.1438 6.2276 -2.6895 -0.429 -0.629 0.649 227 208 180 0 0
4.1552 6.2213 -2.6890 -0.458 -0.697 0.551 216 197 167 0 0
4.1667 6.2151 -2.6886 -0.445 -0.759 0.476 223 203 172 0 0
4.1804 6.2129 -2.6888 -0.272 -0.749 0.604 228 207 176 0 0
4.2546 6.1853 -2.6879 -0.176 -0.798 0.576 223 202 174 0 0
4.2645 6.1762 -2.6870 -0.316 -0.829 0.461 226 206 178 0 0
4.4274 6.0940 -2.6818 -0.256 -0.625 0.737 226 207 177 0 0
4.4398 6.0895 -2.6816 -0.259 -0.642 0.722 229 208 179 0 0
4.4517 6.0842 -2.6813 -0.394 -0.693 0.604 227 206 177 0 0
4.4584 6.0702 -2.6796 -0.298 -0.692 0.658 224 205 175 0 0
4.4711 6.0661 -2.6795 -0.653 -0.502 0.568 226 207 177 0 0
4.8780 5.8657 -2.6672 -0.149 -0.798 0.583 225 205 176 0 0
5.0568 5.9442 -2.6854 0.347 -0.903 -0.253 212 201 188 0 0
5.0765 5.9498 -2.6869 0.161 -0.946 -0.280 216 215 208 0 0
6.7678 7.9939 -3.0425 -0.554 -0.490 0.673 210 210 209 0 0
6.7609 7.9559 -3.0368 -0.481 -0.733 0.482 210 210 210 0 0
6.7912 7.9690 -3.0399 -0.662 -0.684 -0.307 209 209 209 0 0
6.8082 7.9638 -3.0398 -0.628 -0.705 -0.330 208 208 208 0 0
7.0089 7.9525 -3.0461 -0.720 -0.656 0.226 205 205 203 0 0
7.3113 7.9583 -3.0588 -0.726 -0.214 0.654 204 204 202 0 0
7.6314 7.8977 -3.0629 -0.732 -0.587 -0.347 210 210 208 0 0
8.2768 7.8931 -3.0876 0.305 -0.840 -0.450 223 223 222 0 0
0.7683 10.5077 -3.1789 0.063 -0.422 0.904 230 228 226 0 0
1.1487 10.3307 -3.1688 -0.794 -0.577 0.190 223 218 215 0 0
1.2537 10.5572 -3.2054 -0.898 -0.236 -0.371 220 216 214 0 0
1.8400 8.5582 -2.9433 -0.514 -0.719 -0.468 139 90 75 0 0
1.8994 8.5549 -2.9452 -0.383 -0.839 -0.386 128 82 68 0 0
1.9614 8.5641 -2.9490 -0.216 -0.789 -0.576 136 88 76 0 0
2.3336 8.7906 -2.9963 0.464 -0.877 -0.120 130 83 67 0 0
2.3518 8.8008 -2.9984 0.473 -0.873 -0.117 132 85 69 0 0
2.6045 8.9808 -3.0342 0.296 -0.791 -0.536 122 76 60 0 0
2.8423 9.1274 -3.0647 0.354 -0.791 -0.498 112 70 56 0 0
2.8811 9.1458 -3.0689 0.394 -0.724 -0.566 107 65 51 0 0
2.9016 9.1585 -3.0715 0.412 -0.708 -0.574 95 52 38 0 0
2.9288 9.1957 -3.0779 0.199 -0.768 -0.609 114 70 57 0 0
2.4799 6.9050 -2.7328 -0.504 -0.582 0.639 215 194 163 0 0
2.6075 6.7888 -2.7213 -0.133 -0.766 0.629 224 201 169 0 0
2.8097 6.6982 -2.7165 -0.481 -0.550 0.683 224 202 169 0 0
2.8223 6.6947 -2.7165 -0.365 -0.606 0.706 224 204 174 0 0
3.1371 6.6076 -2.7166 -0.738 -0.480 0.474 223 204 174 0 0
3.1461 6.5947 -2.7152 -0.568 -0.567 0.596 225 206 176 0 0
3.1592 6.5924 -2.7154 -0.158 -0.700 0.696 225 206 176 0 0
3.1711 6.5869 -2.7150 -0.451 -0.515 0.729 226 205 176 0 0
3.3993 6.5228 -2.7150 -0.322 -0.639 0.698 228 207 177 0 0
3.7803 6.3788 -2.7097 0.057 -0.816 0.576 226 207 177 0 0
3.8139 6.3580 -2.7080 -0.205 -0.605 0.769 225 206 175 0 0
3.8926 6.3108 -2.7045 -0.518 -0.544 0.660 226 207 177 0 0
4.0425 6.2594 -2.7031 -0.389 -0.609 0.691 225 204 174 0 0
4.1051 6.2379 -2.7025 -0.360 -0.576 0.734 228 207 180 0 0
4.1890 6.1742 -2.6968 -0.468 -0.816 0.340 226 206 176 0 0
4.2824 6.1545 -2.6977 -0.648 -0.627 0.434 223 204 174 0 0
4.3362 6.1178 -2.6946 -0.470 -0.524 0.710 225 204 175 0 0
4.6118 5.9741 -2.6851 -0.480 -0.729 0.487 225 208 182 0 0
4.6227 5.9672 -2.6846 -0.480 -0.729 0.487 227 210 184 0 0
4.8731 5.8580 -2.6790 -0.149 -0.798 0.583 226 205 175 0 0
5.0693 5.9618 -2.7017 0.422 -0.830 -0.365 215 209 197 0 0
7.6887 9.5276 -3.3156 -0.219 -0.512 0.831 214 214 214 0 0
6.7605 7.9834 -3.0579 -0.589 -0.497 0.637 211 211 209 0 0
6.7659 7.9622 -3.0551 -0.268 -0.745 0.611 211 211 211 0 0
6.7413 7.9002 -3.0453 -0.830 -0.518 -0.208 211 211 211 0 0
6.8152 7.9729 -3.0586 -0.163 -0.961 -0.224 211 211 211 0 0
6.9708 7.7917 -3.0390 -0.675 -0.544 0.497 205 205 205 0 0
7.2205 8.0621 -3.0876 -0.503 -0.858 -0.104 205 205 205 0 0
7.2945 7.9638 -3.0765 -0.846 -0.193 0.496 207 207 205 0 0
7.2070 7.8255 -3.0532 -0.329 -0.723 -0.608 206 206 205 0 0
7.1275 7.6980 -3.0319 0.598 -0.647 -0.474 206 206 205 0 0
7.2574 7.8355 -3.0567 0.583 -0.637 -0.503 206 206 204 0 0
7.9412 8.2437 -3.1423 -0.747 -0.071 -0.661 211 211 210 0 0
8.0436 8.2569 -3.1483 -0.604 0.026 -0.796 214 214 214 0 0
1.0164 10.5235 -3.2085 0.325 -0.452 0.830 226 222 219 0 0
1.8282 8.5741 -2.9602 -0.202 -0.815 -0.543 159 111 95 0 0
1.8420 8.5675 -2.9599 -0.514 -0.719 -0.468 131 83 67 0 0
1.9014 8.5642 -2.9618 -0.235 -0.901 -0.365 131 85 72 0 0
1.9492 8.5779 -2.9657 -0.166 -0.799 -0.578 129 82 68 0 0
1.9639 8.5754 -2.9659 -0.212 -0.779 -0.590 131 83 69 0 0
2.0313 8.6094 -2.9736 -0.230 -0.940 -0.252 132 85 72 0 0
2.3371 8.8048 -3.0142 0.277 -0.852 -0.444 135 87 72 0 0
2.8666 9.1538 -3.0860 0.321 -0.769 -0.552 114 72 58 0 0
2.8853 9.1602 -3.0877 0.406 -0.753 -0.518 112 70 56 0 0
2.9059 9.1731 -3.0904 0.406 -0.753 -0.518 110 66 53 0 0
2.9274 9.1893 -3.0936 0.271 -0.718 -0.641 107 63 51 0 0
2.7959 6.6971 -2.7288 -0.588 -0.535 0.606 226 203 171 0 0
2.8070 6.6896 -2.7281 -0.354 -0.640 0.682 223 200 168 0 0
2.8184 6.6829 -2.7276 -0.253 -0.716 0.651 225 202 172 0 0
2.8352 6.6916 -2.7296 -0.361 -0.530 0.767 228 207 178 0 0
2.9852 6.6479 -2.7294 -0.034 -0.684 0.729 226 205 176 0 0
3.1563 6.5844 -2.7271 -0.345 -0.897 0.277 225 206 176 0 0
3.1680 6.5785 -2.7268 -0.397 -0.579 0.713 225 204 175 0 0
3.1780 6.5683 -2.7257 -0.640 -0.536 0.550 225 204 175 0 0
3.3105 6.5135 -2.7232 -0.130 -0.790 0.599 229 208 177 0 0
3.3648 6.5078 -2.7246 -0.348 -0.600 0.720 227 205 175 0 0
3.5524 6.4475 -2.7235 -0.392 -0.827 0.403 228 208 181 0 0
3.5772 6.4387 -2.7232 -0.234 -0.791 0.566 224 204 177 0 0
3.6043 6.4352 -2.7238 -0.363 -0.798 0.481 227 207 180 0 0
3.7755 6.3684 -2.7211 0.036 -0.915 0.401 227 208 178 0 0
3.8787 6.3117 -2.7171 -0.542 -0.552 0.634 224 204 176 0 0
3.8880 6.3011 -2.7160 -0.552 -0.561 0.617 225 206 176 0 0
4.6148 5.9542 -2.6954 -0.397 -0.896 -0.200 224 207 181 0 0
4.6342 5.9608 -2.6972 -0.646 -0.726 0.235 228 211 185 0 0
4.8682 5.8504 -2.6907 -0.232 -0.788 0.570 218 199 168 0 0
4.8816 5.8475 -2.6909 -0.141 -0.822 0.552 214 194 161 0 0
5.0793 5.9757 -2.7174 0.419 -0.782 -0.463 216 213 204 0 0
6.8215 7.9810 -3.0773 -0.266 -0.840 -0.474 211 211 211 0 0
7.0473 8.2599 -3.1267 -0.769 -0.219 0.600 210 210 209 0 0
7.2550 7.9130 -3.0851 0.586 -0.782 0.212 208 208 207 0 0
7.5053 8.0649 -3.1172 0.454 -0.889 0.053 208 208 208 0 0
8.1117 8.4765 -3.2011 0.202 -0.527 0.825 213 213 211 0 0
7.9708 7.4791 -3.0516 -0.071 -0.397 0.915 225 225 225 0 0
0.8471 10.4537 -3.2088 -0.936 -0.330 -0.124 230 226 223 0 0
1.0112 10.4536 -3.2155 0.285 -0.434 0.855 226 223 219 0 0
1.0515 10.3409 -3.2008 -0.318 -0.666 0.675 225 222 218 0 0
1.9028 8.5703 -2.9779 -0.235 -0.901 -0.365 146 100 87 0 0
2.0338 8.6206 -2.9906 -0.238 -0.818 -0.523 113 70 54 0 0
2.6867 9.0428 -3.0790 0.452 -0.886 -0.106 112 67 50 0 0
2.8699 9.1650 -3.1044 0.315 -0.821 -0.476 111 69 54 0 0
2.8899 9.1762 -3.1068 0.465 -0.779 -0.421 109 67 54 0 0
2.9108 9.1902 -3.1097 0.465 -0.779 -0.421 115 72 60 0 0
2.6789 6.7135 -2.7393 0.072 -0.829 0.555 222 199 165 0 0
2.6917 6.7109 -2.7395 -0.339 -0.820 0.461 224 204 171 0 0
2.8034 6.6783 -2.7393 -0.384 -0.618 0.686 224 201 170 0 0
2.8161 6.6754 -2.7395 -0.235 -0.788 0.570 225 202 173 0 0
3.2441 6.5226 -2.7348 -0.245 -0.615 0.749 225 204 177 0 0
3.2566 6.5188 -2.7348 -0.133 -0.710 0.691 226 205 179 0 0
3.2696 6.5163 -2.7349 -0.133 -0.710 0.691 226 205 179 0 0
3.2826 6.5137 -2.7351 -0.133 -0.710 0.691 226 205 176 0 0
3.5603 6.4326 -2.7347 -0.208 -0.684 0.700 227 207 180 0 0
3.7396 6.3537 -2.7306 0.076 -0.724 0.685 230 211 181 0 0
3.8829 6.2905 -2.7273 -0.312 -0.747 0.587 225 207 177 0 0
3.8950 6.2856 -2.7271 -0.312 -0.747 0.587 222 203 173 0 0
3.9088 6.2839 -2.7274 -0.570 -0.508 0.646 225 206 176 0 0
3.9371 6.2821 -2.7283 -0.314 -0.600 0.735 228 207 179 0 0
3.9517 6.2534 -2.7247 -0.002 -0.682 0.731 227 208 178 0 0
4.0919 6.2124 -2.7245 -0.279 -0.694 0.663 226 207 177 0 0
4.1024 6.2045 -2.7238 -0.477 -0.544 0.690 226 206 178 0 0
4.1261 6.1937 -2.7232 -0.605 -0.504 0.617 228 211 183 0 0
4.8509 5.8471 -2.7026 -0.219 -0.743 0.632 217 201 168 0 0
4.8806 5.8456 -2.7036 -0.048 -0.945 0.325 206 185 152 0 0
5.0677 5.9816 -2.7311 0.491 -0.734 -0.469 207 198 183 0 0
6.8086 8.0198 -3.0997 -0.519 -0.842 0.148 213 213 213 0 0
7.0511 8.2646 -3.1454 -0.386 -0.349 0.854 211 211 210 0 0
6.8835 7.8676 -3.0806 -0.719 -0.385 0.579 210 210 210 0 0
6.8885 7.8191 -3.0738 -0.742 -0.505 0.441 209 209 209 0 0
6.8013 7.6492 -3.0454 -0.432 -0.827 0.361 209 209 209 0 0
7.0932 7.7869 -3.0775 0.402 -0.846 -0.351 208 208 208 0 0
7.3415 7.9952 -3.1181 0.352 -0.663 0.660 208 208 208 0 0
8.1872 8.3438 -3.2037 -0.904 0.145 -0.402 216 216 216 0 0
8.4871 8.6409 -3.2593 0.434 -0.894 -0.113 216 216 216 0 0
0.8528 10.5378 -3.2386 -0.025 -0.601 0.799 230 227 222 0 0
0.8624 10.4338 -3.2237 -0.244 -0.966 0.086 231 227 223 0 0
0.9717 10.3629 -3.2179 -0.816 -0.395 0.422 227 224 220 0 0
1.3254 10.7521 -3.2899 -0.756 -0.151 -0.636 221 215 214 0 0
1.9375 8.5932 -2.9979 -0.139 -0.860 -0.490 136 88 75 0 0
1.9538 8.5994 -2.9995 -0.201 -0.925 -0.322 128 80 66 0 0
1.9684 8.5960 -2.9996 -0.331 -0.870 -0.365 141 93 79 0 0
2.0357 8.6293 -3.0073 -0.165 -0.847 -0.505 129 84 70 0 0
2.6289 9.0091 -3.0879 0.364 -0.856 -0.367 121 77 60 0 0
2.6876 9.0452 -3.0957 0.452 -0.886 -0.106 125 79 63 0 0
2.8122 9.1380 -3.1146 0.401 -0.889 -0.219 111 70 55 0 0
2.8312 9.1459 -3.1165 0.364 -0.928 -0.074 108 68 53 0 0
2.8489 9.1487 -3.1177 0.520 -0.843 -0.134 117 75 60 0 0
2.8698 9.1636 -3.1207 0.340 -0.842 -0.418 114 72 58 0 0
3.0415 9.2879 -3.1462 -0.015 -0.735 -0.678 103 62 49 0 0
2.6229 6.7068 -2.7490 -0.121 -0.855 0.504 228 207 177 0 0
2.6356 6.7042 -2.7491 0.119 -0.943 0.310 222 201 170 0 0
2.6474 6.6989 -2.7488 -0.104 -0.888 0.449 222 200 168 0 0
2.6622 6.7031 -2.7501 0.153 -0.859 0.488 223 199 166 0 0
2.6756 6.7026 -2.7506 -0.029 -0.872 0.489 223 199 166 0 0
2.8447 6.6389 -2.7483 -0.282 -0.626 0.727 227 206 177 0 0
3.2399 6.5117 -2.7461 -0.152 -0.620 0.770 226 207 178 0 0
3.6867 6.3634 -2.7429 -0.307 -0.619 0.723 226 206 179 0 0
3.7773 6.3115 -2.7390 -0.352 -0.599 0.719 226 205 175 0 0
3.8154 6.3005 -2.7390 -0.069 -0.654 0.753 229 208 181 0 0
3.8578 6.2980 -2.7404 -0.561 -0.720 0.409 226 206 179 0 0
3.8690 6.2913 -2.7399 -0.513 -0.641 0.571 227 207 178 0 0
3.8790 6.2822 -2.7390 -0.561 -0.720 0.409 227 209 179 0 0
3.8919 6.2790 -2.7391 -0.074 -0.985 0.155 227 208 178 0 0
3.9037 6.2734 -2.7387 -0.630 -0.580 0.517 227 207 179 0 0
4.0864 6.2017 -2.7358 -0.314 -0.613 0.725 228 209 179 0 0
4.1612 6.1492 -2.7312 -0.506 -0.554 0.661 227 207 180 0 0
4.1679 6.1346 -2.7293 -0.134 -0.687 0.714 227 207 178 0 0
4.5253 5.9797 -2.7215 -0.118 -0.799 0.589 226 205 175 0 0
4.6777 5.9090 -2.7174 -0.347 -0.628 0.696 228 208 179 0 0
4.7413 5.8662 -2.7138 -0.318 -0.610 0.726 223 202 173 0 0
6.8037 7.9556 -3.1074 0.118 -0.947 -0.299 213 213 213 0 0
6.7748 7.6675 -3.0638 -0.750 -0.582 0.315 210 210 209 0 0
6.7854 7.6546 -3.0623 -0.750 -0.582 0.315 210 210 208 0 0
6.7833 7.6250 -3.0579 -0.821 -0.558 -0.118 210 210 208 0 0
6.9257 7.6774 -3.0716 -0.823 -0.567 -0.031 209 209 209 0 0
7.1414 7.8482 -3.1057 0.593 -0.722 -0.357 209 209 209 0 0
7.3578 7.9879 -3.1353 0.334 -0.849 -0.410 209 209 209 0 0
0.8361 10.5293 -3.2540 -0.074 -0.501 0.862 231 228 224 0 0
0.8628 10.4353 -3.2412 -0.684 -0.719 0.119 231 228 223 0 0
1.9556 8.6074 -3.0159 -0.255 -0.933 -0.252 129 82 67 0 0
1.9701 8.6034 -3.0160 -0.255 -0.933 -0.252 123 77 61 0 0
2.7906 9.1188 -3.1273 0.225 -0.785 -0.577 119 77 60 0 0
2.8102 9.1295 -3.1297 0.036 -0.837 -0.546 111 69 53 0 0
2.8310 9.1442 -3.1328 0.144 -0.773 -0.618 117 77 62 0 0
2.8485 9.1462 -3.1338 0.483 -0.817 -0.316 119 77 63 0 0
2.8754 9.1832 -3.1405 0.520 -0.854 -0.005 118 76 62 0 0
2.8992 9.2084 -3.1452 0.363 -0.877 0.315 106 67 53 0 0
2.5437 6.7542 -2.7656 -0.413 -0.860 0.301 217 194 160 0 0
2.5554 6.7486 -2.7652 -0.413 -0.860 0.301 212 188 152 0 0
2.6584 6.6906 -2.7610 -0.122 -0.720 0.683 225 202 170 0 0
2.6833 6.6838 -2.7610 -0.112 -0.662 0.741 221 200 167 0 0
2.7092 6.6803 -2.7616 -0.199 -0.718 0.667 223 204 172 0 0
2.7210 6.6749 -2.7613 -0.269 -0.659 0.702 224 205 175 0 0
2.7313 6.6650 -2.7603 -0.401 -0.557 0.727 224 204 174 0 0
2.7931 6.6467 -2.7602 -0.358 -0.566 0.742 222 201 170 0 0
2.8161 6.6346 -2.7593 -0.255 -0.687 0.681 226 205 176 0 0
2.8311 6.6382 -2.7605 -0.164 -0.657 0.736 225 204 175 0 0
2.8410 6.6277 -2.7594 -0.282 -0.626 0.727 226 205 176 0 0
2.8894 6.6097 -2.7587 -0.423 -0.633 0.648 226 205 176 0 0
2.9030 6.6092 -2.7593 0.034 -0.747 0.664 226 205 176 0 0
2.9169 6.6097 -2.7599 0.044 -0.788 0.614 225 201 173 0 0
2.9306 6.6096 -2.7605 0.040 -0.789 0.613 224 200 173 0 0
2.9557 6.6031 -2.7606 -0.587 -0.555 0.590 226 204 175 0 0
3.9540 6.2286 -2.7473 -0.029 -0.701 0.712 228 207 178 0 0
4.0801 6.1895 -2.7468 -0.147 -0.749 0.646 226 207 177 0 0
4.0934 6.1868 -2.7470 -0.147 -0.749 0.646 225 207 178 0 0
4.1512 6.1308 -2.7411 -0.517 -0.515 0.684 225 205 178 0 0
4.1570 6.1145 -2.7389 -0.152 -0.817 0.556 225 205 176 0 0
4.1743 6.1191 -2.7403 -0.169 -0.700 0.694 225 204 174 0 0
5.1238 6.1083 -2.7790 0.710 -0.637 -0.301 201 185 161 0 0
7.4149 8.9141 -3.2929 0.647 -0.564 0.513 214 214 212 0 0
6.9890 8.0358 -3.1444 -0.031 -0.311 0.950 212 212 212 0 0
6.9353 7.6894 -3.0906 -0.791 -0.567 0.229 210 210 210 0 0
7.2729 7.9343 -3.1413 0.557 -0.822 -0.120 210 210 210 0 0
7.3196 7.9663 -3.1481 0.416 -0.811 0.412 209 211 210 0 0
7.4876 8.0141 -3.1623 -0.067 -0.697 -0.714 212 212 212 0 0
7.5221 8.0297 -3.1661 -0.467 -0.690 -0.553 212 212 212 0 0
7.5359 8.0197 -3.1652 -0.467 -0.690 -0.553 213 213 213 0 0
7.5536 8.0145 -3.1652 -0.128 -0.617 -0.777 212 213 213 0 0
8.2521 8.7019 -3.2969 0.575 -0.787 0.222 212 214 211 0 0
8.3231 8.7591 -3.3084 0.626 -0.755 0.196 214 214 214 0 0
7.5461 7.7144 -3.1203 -0.521 -0.853 0.026 214 214 214 0 0
0.8626 10.4279 -3.2573 -0.691 -0.683 -0.237 231 227 224 0 0
0.9118 10.4305 -3.2598 -0.051 -0.978 -0.201 230 226 225 0 0
0.9848 10.3129 -3.2453 -0.862 -0.320 0.393 228 224 221 0 0
0.9985 10.2809 -3.2411 -0.862 -0.320 0.393 228 225 220 0 0
1.1043 10.3718 -3.2593 0.348 -0.430 0.833 224 220 217 0 0
1.6623 9.0345 -3.0826 -0.219 -0.883 -0.415 154 108 93 0 0
1.9416 8.6118 -3.0312 -0.203 -0.909 -0.364 145 98 84 0 0
1.9576 8.6160 -3.0326 -0.064 -0.924 -0.377 126 80 64 0 0
1.9726 8.6152 -3.0331 -0.064 -0.924 -0.377 130 84 68 0 0
2.8077 9.1187 -3.1445 0.022 -1.000 0.000 116 74 60 0 0
2.8356 9.1604 -3.1520 0.144 -0.773 -0.618 110 70 56 0 0
2.8511 9.1547 -3.1518 0.483 -0.817 -0.316 112 70 56 0 0
2.8760 9.1841 -3.1573 0.489 -0.870 -0.065 114 72 59 0 0
2.8960 9.1951 -3.1598 0.484 -0.870 -0.090 102 63 50 0 0
2.5555 6.7480 -2.7781 -0.335 -0.867 0.369 215 192 155 0 0
2.6309 6.6883 -2.7723 -0.113 -0.857 0.502 225 205 175 0 0
2.6442 6.6874 -2.7728 -0.011 -0.870 0.492 226 205 175 0 0
2.6570 6.6855 -2.7731 -0.104 -0.888 0.449 227 204 173 0 0
2.6708 6.6862 -2.7737 -0.070 -0.803 0.591 224 202 172 0 0
2.7042 6.6645 -2.7719 -0.292 -0.626 0.723 222 203 173 0 0
2.7177 6.6643 -2.7725 -0.269 -0.659 0.702 224 204 175 0 0
2.8126 6.6235 -2.7704 -0.209 -0.595 0.776 226 204 173 0 0
2.8492 6.6114 -2.7702 -0.282 -0.626 0.727 222 201 172 0 0
2.8611 6.6063 -2.7700 -0.282 -0.626 0.727 224 203 174 0 0
2.8695 6.5916 -2.7681 -0.486 -0.444 0.753 225 204 177 0 0
2.9527 6.5941 -2.7721 -0.587 -0.555 0.590 226 204 175 0 0
3.1198 6.5243 -2.7688 -0.247 -0.616 0.748 226 206 179 0 0
3.4749 6.3996 -2.7653 -0.123 -0.781 0.612 226 205 174 0 0
3.4896 6.4006 -2.7661 0.090 -0.737 0.670 224 203 172 0 0
3.9774 6.2168 -2.7595 0.033 -0.917 0.398 225 205 175 0 0
4.0737 6.1772 -2.7577 -0.141 -0.827 0.545 224 205 175 0 0
4.1407 6.1112 -2.7507 -0.200 -0.622 0.757 225 205 178 0 0
4.1535 6.1077 -2.7507 -0.109 -0.645 0.756 226 206 177 0 0
4.3457 6.0293 -2.7472 -0.295 -0.791 0.536 226 206 177 0 0
4.3843 6.0187 -2.7473 -0.021 -0.724 0.690 223 204 175 0 0
4.5150 5.9377 -2.7408 -0.355 -0.750 0.558 227 206 179 0 0
4.5290 5.9362 -2.7411 -0.185 -0.869 0.459 228 209 181 0 0
4.5421 5.9329 -2.7412 -0.244 -0.859 0.449 228 208 180 0 0
4.5983 5.9024 -2.7390 -0.148 -0.890 0.430 225 208 180 0 0
4.6116 5.8997 -2.7392 -0.188 -0.817 0.546 223 206 179 0 0
7.4375 8.9132 -3.3127 0.656 -0.558 0.509 214 214 213 0 0
6.9361 7.7168 -3.1117 -0.865 -0.450 -0.222 211 211 209 0 0
6.9441 7.7004 -3.1096 -0.865 -0.450 -0.222 211 211 209 0 0
7.4662 8.0141 -3.1791 0.037 -0.558 -0.829 212 212 212 0 0
8.3498 8.7618 -3.3292 0.576 -0.715 0.397 215 215 215 0 0
7.5092 7.6956 -3.1332 -0.728 -0.371 -0.577 215 215 215 0 0
7.5214 7.6844 -3.1320 -0.371 -0.924 -0.098 216 215 216 0 0
8.4586 8.4943 -3.2938 0.638 -0.721 0.269 219 219 219 0 0
0.8928 10.3875 -3.2697 -0.325 -0.664 0.673 231 227 226 0 0
0.9118 10.4262 -3.2764 -0.469 -0.578 0.668 231 227 226 0 0
0.9406 10.3717 -3.2694 -0.677 -0.455 0.578 229 225 222 0 0
0.9716 10.3498 -3.2674 -0.703 -0.286 0.651 230 226 223 0 0
1.2319 9.9895 -3.2242 -0.572 -0.769 -0.286 222 217 213 0 0
1.2459 9.9689 -3.2217 0.169 -0.986 -0.013 221 217 214 0 0
1.3295 10.1428 -3.2517 -0.846 -0.329 0.420 221 215 211 0 0
1.6655 9.0535 -3.1013 -0.427 -0.696 -0.578 160 113 98 0 0
1.9289 8.6234 -3.0477 -0.196 -0.849 -0.491 143 98 85 0 0
2.2782 8.8189 -3.0925 -0.012 -0.980 -0.200 126 78 64 0 0
2.8222 9.1728 -3.1698 0.142 -0.771 -0.621 109 68 54 0 0
2.8376 9.1666 -3.1696 0.210 -0.832 -0.514 103 64 50 0 0
2.8974 9.1993 -3.1771 0.510 -0.852 -0.116 98 60 48 0 0
2.9395 9.2282 -3.1833 0.564 -0.806 0.179 112 71 58 0 0
2.6428 6.6825 -2.7849 -0.044 -0.874 0.483 225 204 175 0 0
2.6560 6.6817 -2.7853 -0.145 -0.820 0.553 226 203 174 0 0
2.6687 6.6790 -2.7855 -0.425 -0.704 0.568 227 205 176 0 0
2.6814 6.6765 -2.7856 -0.070 -0.803 0.591 224 205 175 0 0
2.7960 6.6144 -2.7812 -0.202 -0.627 0.752 225 202 171 0 0
2.8084 6.6109 -2.7813 -0.209 -0.595 0.776 224 201 170 0 0
2.8173 6.5973 -2.7796 -0.220 -0.604 0.766 224 202 171 0 0
2.8337 6.6053 -2.7815 -0.282 -0.626 0.727 221 200 171 0 0
2.8457 6.6008 -2.7813 -0.317 -0.644 0.697 226 205 176 0 0
2.9102 6.5899 -2.7825 -0.011 -0.685 0.729 226 205 176 0 0
2.9803 6.5563 -2.7805 -0.541 -0.532 0.651 224 203 172 0 0
3.3722 6.4228 -2.7773 -0.022 -0.791 0.612 225 204 174 0 0
3.4949 6.3801 -2.7762 -0.587 -0.661 0.468 228 208 176 0 0
3.9615 6.2138 -2.7714 -0.056 -0.844 0.533 225 204 175 0 0
3.9748 6.2114 -2.7716 -0.133 -0.956 0.261 223 204 173 0 0
3.9863 6.2055 -2.7712 -0.314 -0.813 0.491 223 203 171 0 0
4.0999 6.1168 -2.7627 -0.154 -0.701 0.696 225 206 177 0 0
4.1121 6.1122 -2.7626 -0.246 -0.629 0.737 227 207 180 0 0
4.1352 6.1008 -2.7619 -0.142 -0.648 0.749 226 206 179 0 0
4.4770 5.9487 -2.7537 -0.662 -0.696 0.278 226 207 177 0 0
4.4887 5.9434 -2.7534 -0.624 -0.558 0.547 228 209 181 0 0
4.5112 5.9312 -2.7526 -0.229 -0.948 0.219 230 210 183 0 0
4.5238 5.9273 -2.7525 -0.304 -0.810 0.502 230 210 184 0 0
4.5389 5.9274 -2.7532 -0.250 -0.794 0.554 228 208 181 0 0
4.5467 5.9158 -2.7518 -0.790 -0.592 0.161 227 207 180 0 0
4.5613 5.9151 -2.7523 -0.549 -0.587 0.596 228 208 181 0 0
4.5952 5.8971 -2.7510 -0.148 -0.890 0.430 225 208 179 0 0
4.6065 5.8912 -2.7506 -0.261 -0.671 0.694 226 208 181 0 0
4.6352 5.8888 -2.7515 -0.368 -0.760 0.535 225 205 178 0 0
4.7756 5.8018 -2.7445 -0.258 -0.651 0.714 221 200 169 0 0
6.6887 7.7971 -3.1301 0.591 -0.778 0.215 215 215 214 0 0
6.9333 7.7396 -3.1320 -0.978 -0.191 0.080 212 212 210 0 0
7.0780 7.8194 -3.1504 0.425 -0.704 -0.569 212 212 212 0 0
7.1036 7.8253 -3.1524 -0.841 -0.458 -0.289 211 211 211 0 0
7.1071 7.8028 -3.1492 -0.627 -0.507 -0.592 212 212 212 0 0
7.1428 7.8215 -3.1535 0.043 -0.860 -0.508 212 212 212 0 0
7.4581 8.1133 -3.2115 0.241 -0.553 -0.798 212 213 213 0 0
7.5264 7.6899 -3.1503 -0.438 -0.403 -0.804 216 216 216 0 0
7.5840 7.7330 -3.1594 -0.689 0.051 -0.723 216 216 216 0 0
8.3776 8.5103 -3.3117 -0.133 -0.370 0.919 218 218 218 0 0
8.3555 8.4017 -3.2943 0.656 -0.710 0.255 218 219 219 0 0
8.4402 8.4724 -3.3087 0.675 -0.717 0.172 219 219 219 0 0
0.8607 10.3903 -3.2859 0.308 -0.830 0.466 230 229 225 0 0
0.9580 10.3821 -3.2889 -0.127 -0.969 -0.214 230 226 223 0 0
1.1993 10.1486 -3.2639 0.106 -0.887 -0.449 223 219 215 0 0
1.2334 10.0012 -3.2428 -0.717 -0.510 -0.475 223 218 214 0 0
1.2631 9.9761 -3.2403 -0.910 -0.393 0.136 222 218 215 0 0
1.9459 8.6319 -3.0650 -0.371 -0.879 -0.298 133 87 73 0 0
2.3719 8.8808 -3.1219 0.467 -0.831 -0.302 137 88 73 0 0
2.4868 8.9588 -3.1389 0.199 -0.976 0.090 124 78 63 0 0
2.6029 9.0328 -3.1553 0.296 -0.909 -0.295 123 79 65 0 0
2.8236 9.1769 -3.1871 0.109 -0.852 -0.512 109 69 55 0 0
2.8408 9.1775 -3.1880 0.253 -0.829 -0.499 108 68 55 0 0
2.9410 9.2325 -3.2008 0.225 -0.947 -0.229 108 68 58 0 0
2.9639 9.2534 -3.2050 0.366 -0.740 -0.564 110 70 58 0 0
2.9885 9.2799 -3.2101 0.424 -0.824 -0.377 104 64 53 0 0
2.6171 6.6857 -2.7971 -0.172 -0.671 0.721 223 203 171 0 0
2.8123 6.5823 -2.7899 -0.342 -0.580 0.739 223 200 169 0 0
2.8237 6.5761 -2.7895 -0.342 -0.580 0.739 224 203 174 0 0
3.4158 6.3928 -2.7876 -0.448 -0.526 0.723 225 204 173 0 0
3.9575 6.2058 -2.7830 0.073 -0.898 0.433 224 203 173 0 0
4.0812 6.1089 -2.7736 -0.175 -0.787 0.592 226 206 176 0 0
4.0941 6.1056 -2.7737 -0.173 -0.750 0.638 226 207 177 0 0
4.1270 6.0855 -2.7721 -0.175 -0.713 0.678 228 207 180 0 0
4.6292 5.8554 -2.7591 -0.306 -0.511 0.803 224 205 175 0 0
4.8160 5.7934 -2.7579 0.209 -0.954 0.214 204 183 150 0 0
6.6363 7.7529 -3.1379 0.611 -0.750 0.252 215 215 215 0 0
6.6825 7.7882 -3.1454 0.591 -0.778 0.215 215 215 215 0 0
6.9663 7.9756 -3.1865 -0.639 -0.496 -0.588 214 214 214 0 0
6.9622 7.8866 -3.1728 -0.113 -0.490 0.864 213 214 211 0 0
6.9679 7.8665 -3.1699 -0.083 -0.585 0.807 212 213 210 0 0
7.0587 7.8210 -3.1670 0.101 -0.406 -0.908 213 213 213 0 0
7.1237 7.8236 -3.1703 -0.259 -0.503 -0.825 213 213 213 0 0
7.1220 7.7675 -3.1616 0.349 -0.870 -0.348 213 213 213 0 0
7.4215 8.1218 -3.2290 -0.024 -0.428 -0.903 213 213 213 0 0
7.5084 8.1764 -3.2412 0.268 -0.592 -0.760 213 214 212 0 0
7.5710 7.6148 -3.1581 -0.645 -0.655 0.392 219 219 219 0 0
1.2060 10.0484 -3.2657 -0.176 -0.903 -0.392 225 218 215 0 0
1.2339 10.0035 -3.2600 -0.733 -0.619 -0.282 224 218 214 0 0
1.2480 9.9837 -3.2576 -0.845 -0.527 -0.091 221 218 214 0 0
1.2629 9.9711 -3.2563 -0.910 -0.393 0.136 221 218 214 0 0
1.3590 10.1070 -3.2816 -0.829 -0.346 0.439 219 216 212 0 0
1.4113 10.2762 -3.3101 -0.772 -0.252 -0.583 219 215 212 0 0
1.9471 8.6368 -3.0811 -0.371 -0.879 -0.298 125 79 65 0 0
1.9781 8.6397 -3.0829 -0.054 -0.860 -0.508 142 94 79 0 0
2.6041 9.0366 -3.1722 0.351 -0.917 -0.189 119 75 61 0 0
2.6252 9.0551 -3.1760 0.393 -0.796 -0.461 126 83 70 0 0
2.7475 9.1431 -3.1951 0.363 -0.808 -0.465 119 80 66 0 0
2.8281 9.1927 -3.2063 0.309 -0.919 -0.246 111 73 58 0 0
2.8442 9.1892 -3.2065 0.148 -0.792 -0.592 109 69 57 0 0
2.9677 9.2661 -3.2239 0.330 -0.691 -0.643 100 62 53 0 0
2.9902 9.2848 -3.2278 0.398 -0.723 -0.565 116 78 67 0 0
2.7032 7.8108 -2.9875 0.098 -0.292 -0.951 199 182 160 0 0
2.7128 7.7921 -2.9850 0.380 -0.362 -0.851 210 187 158 0 0
2.5802 6.6957 -2.8099 -0.595 -0.549 0.586 213 189 153 0 0
2.6651 6.6254 -2.8028 -0.094 -0.678 0.729 223 204 174 0 0
2.6772 6.6214 -2.8028 -0.058 -0.666 0.744 223 201 172 0 0
2.6996 6.6077 -2.8017 -0.362 -0.662 0.656 225 202 171 0 0
2.8092 6.5728 -2.8012 -0.220 -0.604 0.766 226 204 173 0 0
2.8196 6.5636 -2.8002 -0.259 -0.526 0.810 225 205 174 0 0
2.8322 6.5610 -2.8004 -0.133 -0.645 0.753 224 205 176 0 0
2.8570 6.5544 -2.8005 -0.397 -0.569 0.720 226 208 180 0 0
2.8703 6.5536 -2.8009 -0.166 -0.658 0.734 224 205 177 0 0
2.9827 6.5246 -2.8015 -0.286 -0.722 0.630 225 205 174 0 0
3.2238 6.4349 -2.7985 -0.592 -0.444 0.673 227 205 176 0 0
3.3994 6.3868 -2.7989 -0.345 -0.633 0.693 224 201 170 0 0
3.5153 6.3301 -2.7954 -0.141 -0.622 0.770 224 203 175 0 0
6.6359 7.7518 -3.1546 0.704 -0.707 0.073 216 216 216 0 0
6.7130 7.8292 -3.1700 0.690 -0.724 0.012 216 216 216 0 0
6.7376 7.8348 -3.1719 0.631 -0.775 0.018 216 216 216 0 0
6.9429 8.0001 -3.2066 -0.337 -0.824 -0.454 214 214 213 0 0
6.9753 7.9872 -3.2061 -0.639 -0.496 -0.588 214 214 214 0 0
6.9834 7.9699 -3.2038 -0.811 -0.487 -0.324 213 214 212 0 0
7.0412 7.7439 -3.1715 -0.473 -0.485 -0.735 213 214 213 0 0
7.0417 7.7178 -3.1675 -0.268 -0.667 -0.695 213 214 214 0 0
7.1161 7.7864 -3.1814 0.184 -0.740 -0.647 214 214 214 0 0
7.0272 7.3372 -3.1081 0.271 -0.947 -0.175 215 216 215 0 0
7.8489 7.4619 -3.1642 -0.580 -0.590 0.562 226 226 225 0 0
1.1779 10.0898 -3.2877 -0.621 -0.762 0.185 224 219 216 0 0
1.1909 10.0559 -3.2831 -0.218 -0.948 -0.230 223 219 216 0 0
1.2064 10.0486 -3.2826 -0.173 -0.977 0.121 224 219 215 0 0
1.2221 10.0443 -3.2827 -0.325 -0.945 -0.016 223 219 214 0 0
1.2350 10.0110 -3.2781 -0.790 -0.614 -0.014 224 219 215 0 0
1.2486 9.9858 -3.2748 -0.845 -0.527 -0.091 224 219 215 0 0
1.2634 9.9732 -3.2735 -0.921 -0.380 -0.087 223 218 214 0 0
1.2762 9.9412 -3.2691 -0.921 -0.380 -0.087 222 217 213 0 0
1.3148 9.8515 -3.2569 -0.399 -0.912 -0.089 221 218 213 0 0
1.3481 10.0060 -3.2824 -0.520 -0.523 -0.675 220 217 212 0 0
1.3733 10.0847 -3.2958 -0.810 -0.545 0.216 221 216 212 0 0
1.7118 9.0478 -3.1497 -0.691 -0.577 -0.435 159 111 97 0 0
1.9173 8.6381 -3.0952 -0.152 -0.939 -0.309 146 100 85 0 0
1.9331 8.6417 -3.0965 -0.215 -0.942 -0.257 141 93 79 0 0
2.7510 9.1553 -3.2136 0.363 -0.808 -0.465 120 80 69 0 0
2.8321 9.2068 -3.2253 0.351 -0.919 -0.180 118 80 66 0 0
2.8488 9.2056 -3.2259 0.413 -0.875 -0.252 112 75 61 0 0
2.9741 9.2882 -3.2444 0.330 -0.691 -0.643 109 72 63 0 0
2.7460 7.9052 -3.0187 0.326 -0.334 -0.884 211 186 159 0 0
2.7587 7.8965 -3.0179 0.450 -0.378 -0.809 213 189 160 0 0
2.6887 6.6146 -2.8150 -0.056 -0.770 0.636 221 200 169 0 0
2.9797 6.5158 -2.8129 -0.286 -0.722 0.630 227 208 178 0 0
3.2522 6.4020 -2.8075 -0.264 -0.812 0.520 225 204 172 0 0
3.2630 6.3945 -2.8068 -0.118 -0.761 0.638 227 204 172 0 0
3.6209 6.2816 -2.8055 -0.177 -0.649 0.740 220 199 170 0 0
3.6431 6.2682 -2.8044 -0.615 -0.441 0.653 225 206 176 0 0
4.2306 6.0077 -2.7905 -0.176 -0.638 0.750 227 207 180 0 0
4.4054 5.9278 -2.7860 -0.128 -0.696 0.707 226 206 179 0 0
4.6748 5.8086 -2.7797 -0.569 -0.653 0.500 223 206 178 0 0
6.9681 8.0052 -3.2259 -0.281 -0.746 -0.604 215 215 213 0 0
6.9531 7.8460 -3.2005 0.199 -0.891 0.408 215 215 213 0 0
7.0842 7.7719 -3.1949 -0.162 -0.600 -0.783 213 215 214 0 0
7.1440 7.7946 -3.2011 0.408 -0.736 -0.541 216 216 216 0 0
7.1881 7.8239 -3.2077 0.408 -0.736 -0.541 215 215 215 0 0
7.5004 8.1931 -3.2794 -0.963 -0.124 -0.240 214 216 215 0 0
7.5029 8.1684 -3.2756 -0.936 -0.243 -0.256 214 216 215 0 0
7.6789 8.2499 -3.2963 -0.817 -0.335 -0.470 214 216 215 0 0
7.0193 7.3269 -3.1226 -0.736 -0.674 0.061 217 217 217 0 0
7.5149 7.5982 -3.1874 -0.506 -0.785 0.358 217 219 218 0 0
7.5290 7.5895 -3.1867 -0.506 -0.785 0.358 217 219 218 0 0
0.9725 10.1342 -3.3022 -0.025 -0.802 0.597 230 226 225 0 0
1.1499 10.1337 -3.3103 -0.508 -0.540 0.671 225 221 219 0 0
1.1782 10.0897 -3.3047 -0.417 -0.904 0.097 225 221 218 0 0
1.1939 10.0838 -3.3044 -0.756 -0.649 0.088 223 219 216 0 0
1.2059 10.0413 -3.2983 0.011 -0.910 -0.414 225 220 216 0 0
1.2213 10.0336 -3.2978 -0.619 -0.779 0.096 227 219 216 0 0
1.2348 10.0063 -3.2941 -0.791 -0.612 -0.016 227 219 216 0 0
1.2504 10.0009 -3.2940 -0.582 -0.761 0.286 226 218 215 0 0
1.2633 9.9696 -3.2897 -0.841 -0.538 0.054 224 218 215 0 0
1.2756 9.9326 -3.2844 -0.857 -0.506 0.097 223 218 215 0 0
1.3225 10.0680 -3.3079 0.073 -0.946 -0.316 221 216 214 0 0
1.3383 10.0623 -3.3077 -0.440 -0.896 -0.052 222 217 213 0 0
1.8661 8.6886 -3.1160 -0.389 -0.799 -0.459 155 109 93 0 0
1.8805 8.6846 -3.1161 -0.331 -0.827 -0.454 146 99 85 0 0
1.8944 8.6775 -3.1156 -0.444 -0.829 -0.340 129 83 69 0 0
1.9038 8.6458 -3.1110 -0.308 -0.869 -0.387 144 98 84 0 0
1.9185 8.6432 -3.1113 -0.152 -0.939 -0.309 157 110 96 0 0
2.4008 8.9337 -3.1792 0.409 -0.883 -0.229 123 78 63 0 0
2.4205 8.9491 -3.1825 0.400 -0.882 -0.250 125 79 64 0 0
2.8512 9.2134 -3.2439 0.450 -0.798 -0.402 102 67 55 0 0
2.9131 9.2529 -3.2529 0.323 -0.717 -0.618 109 73 59 0 0
3.0988 9.3591 -3.2782 -0.665 -0.378 0.644 186 178 170 0 0
3.1097 9.3356 -3.2750 -0.786 -0.416 0.458 188 180 172 0 0
3.1235 9.3229 -3.2736 -0.877 -0.413 0.247 193 182 171 0 0
2.5646 6.6870 -2.8335 -0.300 -0.943 0.148 215 192 159 0 0
2.6228 6.6175 -2.8253 -0.595 -0.643 0.482 224 200 168 0 0
2.9634 6.5081 -2.8237 -0.304 -0.694 0.653 225 206 176 0 0
2.9752 6.5032 -2.8235 -0.304 -0.694 0.653 227 207 177 0 0
2.9872 6.4988 -2.8234 -0.311 -0.742 0.594 227 206 177 0 0
3.0015 6.5005 -2.8243 -0.287 -0.919 0.271 225 204 175 0 0
3.0138 6.4966 -2.8243 -0.287 -0.919 0.271 227 206 177 0 0
3.2021 6.4145 -2.8200 0.020 -0.862 0.507 225 202 171 0 0
3.2371 6.3984 -2.8191 -0.073 -0.732 0.678 227 206 175 0 0
3.4018 6.3590 -2.8205 -0.385 -0.618 0.685 225 204 175 0 0
3.6982 6.2339 -2.8144 -0.548 -0.515 0.659 225 204 175 0 0
4.2929 5.9622 -2.7991 -0.165 -0.687 0.708 226 206 174 0 0
4.3204 5.9588 -2.7998 -0.012 -0.791 0.612 226 205 174 0 0
5.0499 6.0447 -2.8469 0.747 -0.654 -0.119 205 189 164 0 0
7.1028 7.8766 -3.2293 0.561 -0.826 0.052 216 216 214 0 0
7.2323 7.9890 -3.2530 0.455 -0.657 0.602 214 216 215 0 0
7.2662 8.0049 -3.2570 0.438 -0.715 0.546 215 216 216 0 0
7.2253 7.8979 -3.2383 0.297 -0.706 -0.643 216 216 216 0 0
7.4944 8.2130 -3.3002 -0.886 -0.460 -0.057 215 215 215 0 0
7.5030 8.1960 -3.2980 -0.886 -0.460 -0.057 215 215 215 0 0
7.5779 8.2627 -3.3119 -0.921 -0.383 0.072 216 216 216 0 0
7.5951 8.2563 -3.3117 -0.870 -0.258 -0.420 216 216 216 0 0
7.5930 8.2256 -3.3067 -0.772 -0.491 -0.404 217 217 217 0 0
7.6041 8.2116 -3.3051 -0.675 -0.550 -0.491 216 216 216 0 0
