ply
format ascii 1.0
element vertex 827
property float x
property float y
property float z
property float nx
property float ny
property float nz
property uchar diffuse_red
property uchar diffuse_green
property uchar diffuse_blue
property uchar class
property uchar detection
end_header
3.1311 9.1226 -2.7181 0.023 -0.835 -0.550 105 64 53 0 0
3.1501 9.1241 -2.7209 -0.112 -0.680 -0.724 101 60 48 0 0
3.1690 9.1252 -2.7237 -0.039 -0.650 -0.759 117 76 63 0 0
3.1910 9.1326 -2.7273 -0.110 -0.869 -0.483 100 60 45 0 0
3.2961 9.2341 -2.7477 0.333 -0.813 -0.477 109 66 53 0 0
3.3184 9.2413 -2.7513 0.454 -0.836 -0.309 97 56 42 0 0
3.3453 9.2579 -2.7560 0.459 -0.796 -0.394 94 55 40 0 0
2.6373 7.0630 -2.5382 -0.501 -0.630 0.594 233 214 184 0 0
2.6481 7.0548 -2.5394 -0.498 -0.571 0.652 230 211 181 0 0
3.2390 6.7533 -2.6080 -0.146 -0.758 0.636 230 210 183 0 0
3.2590 6.7343 -2.6098 -0.402 -0.763 0.507 229 209 182 0 0
3.3577 6.6872 -2.6215 -0.518 -0.491 0.701 227 206 177 0 0
3.7771 6.4365 -2.6683 0.037 -0.810 0.586 231 211 184 0 0
3.9088 6.3424 -2.6821 -0.078 -0.778 0.623 231 210 180 0 0
4.1549 6.1981 -2.7097 -0.616 -0.528 0.585 227 210 182 0 0
4.3012 6.0812 -2.7245 -0.349 -0.567 0.746 226 207 178 0 0
4.5116 5.9573 -2.7480 -0.958 -0.237 0.159 232 212 186 0 0
4.6136 5.8918 -2.7592 -0.100 -0.822 0.560 230 210 185 0 0
4.7418 5.7781 -2.7715 -0.310 -0.659 0.685 222 201 171 0 0
4.8569 5.7448 -2.7862 -0.835 -0.213 0.508 219 219 216 0 0
4.8888 5.7579 -2.7915 -0.149 -0.595 0.790 219 219 217 0 0
8.4937 8.3718 -3.4464 0.101 -0.587 -0.803 227 228 227 0 0
0.6624 11.5967 -2.5138 -0.988 -0.005 0.153 237 236 232 0 0
0.7104 11.6754 -2.5250 -0.968 0.051 -0.246 235 234 230 0 0
1.5155 8.7502 -2.4820 -0.698 -0.685 0.210 191 147 129 0 0
1.6098 8.6234 -2.4886 -0.511 -0.794 0.329 184 132 111 0 0
1.6942 8.5598 -2.4974 -0.710 -0.684 0.169 166 116 94 0 0
1.7476 8.4954 -2.5015 -0.586 -0.757 0.288 170 115 95 0 0
1.7600 8.4877 -2.5029 -0.322 -0.937 0.138 165 110 90 0 0
2.5032 8.7089 -2.6220 0.356 -0.811 -0.465 116 69 53 0 0
2.5251 8.7206 -2.6258 0.356 -0.811 -0.465 119 71 56 0 0
2.5441 8.7256 -2.6288 0.216 -0.873 -0.438 116 70 55 0 0
3.0841 9.1043 -2.7272 0.348 -0.792 -0.502 105 59 46 0 0
3.0980 9.0951 -2.7287 0.424 -0.903 0.074 105 62 49 0 0
3.1353 9.1351 -2.7362 -0.013 -0.718 -0.696 109 67 54 0 0
3.1585 9.1452 -2.7401 -0.045 -0.631 -0.774 113 71 58 0 0
3.1779 9.1472 -2.7430 -0.039 -0.650 -0.759 110 68 54 0 0
3.1974 9.1494 -2.7459 -0.039 -0.650 -0.759 108 66 50 0 0
3.2286 9.1757 -2.7518 0.421 -0.716 -0.557 118 75 58 0 0
3.2470 9.1753 -2.7545 0.534 -0.777 -0.332 110 65 49 0 0
3.2989 9.2434 -2.7656 0.404 -0.835 -0.374 110 66 51 0 0
2.7556 7.8994 -2.6143 -0.926 0.377 0.009 150 118 95 0 0
2.4973 7.1462 -2.5362 -0.302 -0.875 0.378 219 196 161 0 0
2.5101 7.1417 -2.5378 -0.318 -0.846 0.428 220 196 162 0 0
3.1259 6.7795 -2.6068 -0.587 -0.554 0.591 230 210 183 0 0
3.1352 6.7689 -2.6076 -0.587 -0.554 0.591 229 209 182 0 0
3.2537 6.7285 -2.6224 -0.579 -0.789 -0.204 228 208 181 0 0
3.2637 6.7190 -2.6234 -0.472 -0.739 0.480 227 207 181 0 0
3.2747 6.7112 -2.6245 -0.472 -0.739 0.480 227 207 180 0 0
3.3606 6.6453 -2.6333 -0.539 -0.437 0.720 227 206 175 0 0
3.3863 6.6111 -2.6352 -0.335 -0.650 0.682 229 209 182 0 0
3.4132 6.6028 -2.6386 -0.314 -0.599 0.737 232 212 185 0 0
3.5369 6.5444 -2.6532 -0.332 -0.657 0.677 227 206 177 0 0
3.8380 6.3629 -2.6867 -0.314 -0.691 0.651 231 211 184 0 0
3.9272 6.3243 -2.6975 -0.256 -0.570 0.781 230 211 182 0 0
3.9388 6.3173 -2.6988 -0.256 -0.570 0.781 232 214 187 0 0
4.4304 5.9685 -2.7506 -0.387 -0.893 0.230 227 210 182 0 0
4.4447 5.9645 -2.7525 -0.321 -0.945 0.057 225 206 179 0 0
4.5043 5.9316 -2.7593 -0.673 -0.438 0.596 229 212 186 0 0
4.4993 5.9069 -2.7572 -0.461 -0.731 0.503 229 212 186 0 0
4.5519 5.9052 -2.7647 -0.306 -0.739 0.600 228 209 182 0 0
4.5956 5.8938 -2.7703 -0.155 -0.926 0.345 227 208 181 0 0
4.8317 5.7958 -2.7990 0.052 -0.865 0.499 199 180 152 0 0
4.8495 5.7950 -2.8016 -0.297 -0.689 0.661 203 192 174 0 0
4.8420 5.7318 -2.7970 -0.950 -0.191 0.247 220 220 218 0 0
5.9250 6.4505 -2.9921 0.482 -0.744 0.462 222 222 221 0 0
0.7072 11.7619 -2.5476 -0.936 -0.003 -0.351 236 235 233 0 0
0.7192 11.7336 -2.5477 -0.968 0.051 -0.246 236 235 232 0 0
1.4091 9.0467 -2.4980 -0.896 -0.391 -0.210 175 124 105 0 0
1.4553 8.8994 -2.4965 -0.872 -0.436 -0.221 191 141 123 0 0
1.5999 8.6434 -2.5032 -0.342 -0.909 0.237 184 133 113 0 0
1.8599 8.4302 -2.5290 -0.348 -0.832 0.432 188 139 120 0 0
1.9596 8.4080 -2.5422 -0.301 -0.830 0.470 172 121 102 0 0
3.0789 9.0968 -2.7427 0.218 -0.834 -0.507 113 67 54 0 0
3.1140 9.1324 -2.7498 0.102 -0.790 -0.605 107 63 52 0 0
3.1356 9.1394 -2.7533 -0.148 -0.818 -0.556 108 66 53 0 0
3.1679 9.1684 -2.7596 -0.045 -0.631 -0.774 113 71 58 0 0
3.1785 9.1521 -2.7602 -0.347 -0.721 -0.600 108 66 52 0 0
3.2019 9.1625 -2.7642 0.046 -0.768 -0.639 109 66 50 0 0
3.2361 9.1948 -2.7709 0.355 -0.755 -0.552 110 67 50 0 0
3.2756 9.2377 -2.7790 0.430 -0.811 -0.397 109 63 47 0 0
3.3017 9.2528 -2.7837 0.404 -0.835 -0.374 103 57 42 0 0
3.3569 9.2887 -2.7936 0.485 -0.773 -0.408 97 55 41 0 0
2.4974 7.1491 -2.5500 -0.715 -0.585 0.382 214 190 156 0 0
3.2484 6.7228 -2.6350 -0.404 -0.763 0.505 228 208 182 0 0
3.2588 6.7139 -2.6360 -0.472 -0.739 0.480 230 210 183 0 0
3.3652 6.6063 -2.6455 -0.445 -0.495 0.746 229 209 182 0 0
3.4653 6.5619 -2.6575 -0.314 -0.454 0.834 226 205 176 0 0
3.4736 6.5503 -2.6580 -0.408 -0.424 0.809 225 204 175 0 0
3.6873 6.4331 -2.6825 -0.431 -0.606 0.669 225 206 178 0 0
3.7111 6.4201 -2.6852 -0.260 -0.684 0.682 228 208 181 0 0
3.8454 6.3307 -2.6997 -0.562 -0.678 0.474 228 208 181 0 0
3.8525 6.3180 -2.7000 -0.734 -0.436 0.521 230 211 182 0 0
4.4305 5.9705 -2.7643 -0.324 -0.672 0.665 227 208 181 0 0
4.4194 5.9386 -2.7610 -0.471 -0.564 0.678 225 205 178 0 0
4.4931 5.9020 -2.7696 -0.504 -0.836 0.216 230 210 183 0 0
4.5070 5.8976 -2.7714 -0.218 -0.937 0.272 229 209 182 0 0
4.5194 5.8916 -2.7728 -0.345 -0.776 0.528 230 210 183 0 0
4.5418 5.8963 -2.7763 -0.387 -0.659 0.645 226 206 179 0 0
4.6362 5.8047 -2.7849 -0.245 -0.716 0.654 226 206 179 0 0
4.6998 5.7762 -2.7925 -0.052 -0.957 0.286 225 206 176 0 0
4.8238 5.7897 -2.8113 0.049 -0.928 0.370 198 182 158 0 0
5.9808 6.4643 -3.0164 0.428 -0.745 0.512 224 224 222 0 0
6.9094 7.1785 -3.1907 0.207 -0.725 0.657 225 224 224 0 0
0.6640 11.7208 -2.5573 -0.804 0.031 0.594 236 235 233 0 0
0.6740 11.6811 -2.5565 -0.748 -0.065 0.661 236 235 233 0 0
0.7254 11.7772 -2.5694 -0.972 0.048 -0.230 236 235 233 0 0
1.2015 9.6853 -2.5195 -0.738 -0.445 -0.507 167 118 99 0 0
1.4097 9.0537 -2.5138 -0.896 -0.391 -0.210 187 136 117 0 0
3.1208 9.1504 -2.7685 0.076 -0.771 -0.632 99 56 45 0 0
3.1394 9.1509 -2.7713 -0.148 -0.818 -0.556 112 70 58 0 0
3.1728 9.1824 -2.7779 -0.370 -0.635 -0.678 110 68 56 0 0
3.1856 9.1704 -2.7791 -0.030 -0.787 -0.616 113 71 57 0 0
3.2269 9.2179 -2.7878 0.561 -0.785 -0.262 108 65 51 0 0
3.2529 9.2332 -2.7925 0.562 -0.717 -0.413 113 70 54 0 0
3.2815 9.2535 -2.7978 0.528 -0.721 -0.449 115 70 55 0 0
3.3044 9.2620 -2.8017 0.406 -0.851 -0.334 109 64 49 0 0
2.5015 7.1306 -2.5631 -0.477 -0.616 0.627 218 194 160 0 0
2.9661 6.8330 -2.6138 -0.508 -0.523 0.685 228 211 183 0 0
3.1395 6.7301 -2.6332 -0.250 -0.644 0.723 229 208 181 0 0
3.6792 6.4242 -2.6944 -0.575 -0.507 0.642 227 208 178 0 0
3.7134 6.4028 -2.6982 -0.507 -0.434 0.745 227 207 180 0 0
3.8406 6.3266 -2.7123 -0.719 -0.585 0.375 233 213 186 0 0
3.8481 6.3144 -2.7127 -0.743 -0.422 0.519 230 210 183 0 0
3.8638 6.3127 -2.7149 -0.323 -0.509 0.798 228 208 180 0 0
4.3491 5.9808 -2.7667 -0.727 -0.595 0.344 228 208 182 0 0
4.3572 5.9700 -2.7673 -0.761 -0.626 0.173 228 208 183 0 0
4.3742 5.9692 -2.7697 -0.652 -0.733 0.194 231 211 186 0 0
4.3811 5.9571 -2.7700 -0.551 -0.807 0.213 230 210 183 0 0
4.3917 5.9491 -2.7711 -0.559 -0.770 0.308 229 209 182 0 0
4.4033 5.9423 -2.7724 -0.499 -0.694 0.519 228 208 181 0 0
4.5095 5.8635 -2.7834 -0.783 -0.412 0.466 227 206 179 0 0
4.8205 5.7880 -2.8244 0.018 -0.934 0.356 203 191 169 0 0
0.5771 11.7197 -2.5627 -0.665 -0.284 0.691 238 237 235 0 0
0.5991 11.6498 -2.5618 -0.506 -0.345 0.790 237 236 234 0 0
0.6981 11.7299 -2.5810 -0.994 -0.007 -0.106 235 234 232 0 0
1.8511 8.4144 -2.5564 -0.254 -0.863 0.438 149 100 80 0 0
1.8796 8.4084 -2.5602 -0.208 -0.855 0.474 173 122 103 0 0
1.8948 8.4080 -2.5624 0.051 -0.932 0.359 179 128 110 0 0
1.9228 8.4007 -2.5661 0.127 -0.968 0.216 157 104 86 0 0
3.1432 9.1625 -2.7893 -0.148 -0.818 -0.556 112 71 60 0 0
3.1772 9.1951 -2.7962 -0.065 -0.924 -0.377 102 62 51 0 0
3.2286 9.2249 -2.8055 0.561 -0.785 -0.262 107 67 54 0 0
3.2584 9.2482 -2.8112 0.561 -0.785 -0.262 109 69 56 0 0
3.2784 9.2509 -2.8143 0.551 -0.783 -0.289 100 59 45 0 0
3.0920 6.7327 -2.6400 -0.460 -0.472 0.752 229 208 179 0 0
3.5520 6.4566 -2.6913 -0.196 -0.916 0.351 227 210 182 0 0
3.5755 6.4664 -2.6953 -0.054 -0.796 0.603 230 212 182 0 0
3.6017 6.4569 -2.6986 -0.138 -0.775 0.616 233 211 183 0 0
3.6543 6.4153 -2.7038 -0.255 -0.666 0.701 228 208 181 0 0
3.6931 6.4001 -2.7086 -0.486 -0.639 0.596 229 209 180 0 0
3.7030 6.3910 -2.7095 -0.484 -0.559 0.673 232 211 184 0 0
4.0145 6.1828 -2.7430 -0.360 -0.655 0.664 227 206 178 0 0
4.3767 5.9540 -2.7827 -0.408 -0.821 0.399 229 209 181 0 0
4.3890 5.9480 -2.7842 -0.551 -0.807 0.213 230 210 183 0 0
4.3993 5.9397 -2.7852 -0.446 -0.619 0.646 229 209 184 0 0
4.4975 5.8716 -2.7956 -0.693 -0.391 0.605 227 207 180 0 0
4.5041 5.8595 -2.7959 -0.693 -0.391 0.605 226 206 179 0 0
4.7771 5.7834 -2.8314 0.127 -0.991 0.052 207 184 154 0 0
4.7961 5.7839 -2.8342 0.009 -0.995 0.101 204 186 159 0 0
4.8141 5.7833 -2.8368 0.003 -0.977 0.214 209 200 183 0 0
4.8240 5.7746 -2.8378 -0.609 -0.423 0.671 222 221 213 0 0
4.8313 5.7633 -2.8382 -0.519 -0.580 0.628 222 222 219 0 0
4.8353 5.7488 -2.8379 -0.138 -0.596 0.791 222 222 220 0 0
0.5933 11.6260 -2.5777 -0.589 -0.385 0.710 237 236 234 0 0
1.7285 8.4585 -2.5557 -0.792 -0.607 0.067 182 132 111 0 0
1.7390 8.4454 -2.5565 -0.450 -0.891 0.063 175 124 103 0 0
3.1553 9.1916 -2.8097 -0.179 -0.783 -0.596 105 64 53 0 0
3.1801 9.2050 -2.8141 -0.236 -0.811 -0.536 110 70 60 0 0
3.2011 9.2102 -2.8175 0.137 -0.819 -0.557 102 62 52 0 0
3.2258 9.2228 -2.8219 0.181 -0.694 -0.697 104 64 53 0 0
3.2524 9.2394 -2.8268 0.444 -0.757 -0.480 106 66 55 0 0
3.2779 9.2535 -2.8315 0.411 -0.743 -0.528 94 53 42 0 0
3.3379 9.2993 -2.8430 0.440 -0.758 -0.481 100 60 47 0 0
3.3667 9.3195 -2.8485 0.440 -0.758 -0.481 94 54 42 0 0
2.6337 6.9855 -2.6011 -0.574 -0.657 0.489 225 206 176 0 0
2.7263 6.8781 -2.6083 -0.773 -0.346 0.532 230 210 183 0 0
2.7407 6.8766 -2.6104 -0.245 -0.932 0.267 230 211 181 0 0
2.8502 6.8527 -2.6251 -0.423 -0.492 0.761 229 210 180 0 0
3.0838 6.7220 -2.6517 -0.460 -0.472 0.752 228 207 178 0 0
3.4104 6.5365 -2.6887 -0.348 -0.608 0.714 232 212 183 0 0
3.5510 6.4573 -2.7047 -0.491 -0.871 -0.009 228 211 183 0 0
3.5627 6.4507 -2.7060 -0.491 -0.871 -0.009 228 211 183 0 0
3.5759 6.4462 -2.7077 -0.294 -0.955 0.046 231 212 183 0 0
3.5887 6.4411 -2.7093 -0.211 -0.954 0.211 230 209 180 0 0
3.6606 6.4033 -2.7176 -0.265 -0.619 0.739 227 208 179 0 0
3.6723 6.3967 -2.7189 -0.265 -0.619 0.739 227 208 178 0 0
3.9017 6.2570 -2.7444 -0.377 -0.546 0.749 232 212 185 0 0
4.1391 6.0855 -2.7691 -0.369 -0.548 0.751 229 209 183 0 0
4.3224 5.9546 -2.7883 0.075 -0.772 0.632 227 208 179 0 0
4.7576 5.7841 -2.8422 -0.036 -0.972 -0.234 206 183 152 0 0
4.7761 5.7841 -2.8450 -0.036 -0.972 -0.234 204 182 154 0 0
4.7925 5.7820 -2.8472 -0.095 -0.987 -0.127 200 184 162 0 0
4.8097 5.7807 -2.8497 -0.095 -0.987 -0.127 214 208 194 0 0
4.8270 5.7793 -2.8522 -0.095 -0.987 -0.127 224 223 217 0 0
4.8367 5.7704 -2.8531 -0.222 -0.973 0.057 223 223 220 0 0
4.8224 5.7376 -2.8490 -0.174 -0.581 0.795 223 223 221 0 0
0.5792 11.5530 -2.5892 -0.352 -0.178 0.919 236 235 233 0 0
0.6645 11.4656 -2.5964 -0.909 -0.361 -0.209 232 231 228 0 0
1.4954 8.8524 -2.5600 -0.696 -0.718 0.001 178 129 111 0 0
3.1171 9.1537 -2.8186 0.401 -0.904 -0.149 110 68 52 0 0
3.1628 9.2110 -2.8289 0.034 -0.878 -0.478 107 67 54 0 0
3.1824 9.2135 -2.8319 0.034 -0.878 -0.478 108 68 57 0 0
3.2057 9.2233 -2.8360 0.221 -0.824 -0.521 109 69 58 0 0
3.2326 9.2407 -2.8410 0.549 -0.780 -0.300 102 62 51 0 0
3.2625 9.2640 -2.8469 0.549 -0.780 -0.300 102 62 50 0 0
3.2860 9.2738 -2.8510 0.422 -0.738 -0.527 91 52 40 0 0
3.3458 9.3192 -2.8626 0.489 -0.854 -0.177 99 59 47 0 0
3.3729 9.3357 -2.8676 0.489 -0.854 -0.177 92 52 40 0 0
2.6738 7.6565 -2.6615 -0.870 0.334 -0.362 206 178 144 0 0
2.5034 7.0272 -2.5978 -0.291 -0.710 0.641 222 199 165 0 0
2.5305 7.0215 -2.6015 -0.262 -0.566 0.782 223 200 167 0 0
2.5375 7.0064 -2.6016 -0.492 -0.567 0.661 227 205 174 0 0
2.5489 6.9996 -2.6029 -0.384 -0.527 0.758 226 205 176 0 0
2.5574 6.9872 -2.6034 -0.584 -0.578 0.570 225 204 175 0 0
2.7247 6.8779 -2.6215 -0.489 -0.599 0.634 230 210 182 0 0
2.7377 6.8737 -2.6232 -0.245 -0.932 0.267 229 210 181 0 0
2.9541 6.7688 -2.6488 0.035 -0.757 0.653 230 210 183 0 0
2.9713 6.7713 -2.6515 -0.025 -0.809 0.588 230 210 183 0 0
2.9981 6.7639 -2.6550 -0.314 -0.718 0.622 231 210 183 0 0
3.2032 6.6381 -2.6777 -0.103 -0.714 0.692 229 209 182 0 0
3.2172 6.6351 -2.6796 -0.240 -0.690 0.683 225 206 178 0 0
3.2286 6.6281 -2.6809 -0.284 -0.597 0.750 224 207 181 0 0
3.5385 6.4422 -2.7155 -0.031 -0.826 0.563 230 213 187 0 0
3.8869 6.2403 -2.7547 -0.172 -0.657 0.734 233 213 186 0 0
4.0976 6.0793 -2.7761 -0.299 -0.831 0.470 226 208 180 0 0
4.1085 6.0717 -2.7773 -0.592 -0.707 0.387 229 209 183 0 0
4.1220 6.0673 -2.7790 -0.042 -0.900 0.434 228 208 181 0 0
4.1393 6.0673 -2.7816 0.039 -0.771 0.636 228 208 181 0 0
4.2081 6.0460 -2.7905 -0.161 -0.775 0.611 228 211 183 0 0
4.5163 5.8187 -2.8222 -0.340 -0.633 0.695 228 209 182 0 0
4.7807 5.7905 -2.8597 -0.099 -0.896 -0.432 197 178 153 0 0
4.7955 5.7867 -2.8616 -0.416 -0.818 -0.397 200 187 170 0 0
4.8089 5.7815 -2.8633 -0.221 -0.895 -0.387 219 214 204 0 0
4.8235 5.7776 -2.8652 -0.494 -0.767 -0.409 223 223 219 0 0
4.8245 5.7600 -2.8643 -0.805 -0.593 0.016 223 224 221 0 0
4.8114 5.7284 -2.8604 -0.381 -0.551 0.743 222 224 219 0 0
0.7475 11.6519 -2.6383 -0.950 0.049 -0.308 225 222 219 0 0
0.7754 11.0882 -2.6073 -0.708 -0.669 -0.226 165 107 87 0 0
1.9261 8.3805 -2.6098 -0.168 -0.804 0.570 163 111 90 0 0
2.0274 8.4415 -2.6287 0.189 -0.965 -0.180 129 82 66 0 0
2.9596 9.0534 -2.8057 0.113 -0.891 -0.440 109 65 54 0 0
3.1588 9.2064 -2.8449 0.354 -0.891 -0.285 110 71 55 0 0
3.1832 9.2188 -2.8493 0.251 -0.832 -0.494 106 67 52 0 0
3.2100 9.2360 -2.8544 0.373 -0.769 -0.520 107 68 53 0 0
3.2365 9.2524 -2.8593 0.478 -0.826 -0.299 107 68 53 0 0
3.2657 9.2742 -2.8651 0.532 -0.791 -0.303 100 62 47 0 0
3.3964 9.3485 -2.8892 0.212 -0.959 -0.188 98 58 46 0 0
2.5551 6.9857 -2.6164 -0.303 -0.490 0.817 224 203 174 0 0
2.6588 6.9260 -2.6281 -0.271 -0.653 0.707 227 208 178 0 0
2.7074 6.8768 -2.6323 -0.285 -0.670 0.685 229 210 180 0 0
2.7205 6.8729 -2.6340 -0.366 -0.742 0.561 229 210 180 0 0
2.7534 6.8770 -2.6392 0.257 -0.919 0.298 225 207 180 0 0
3.2199 6.6171 -2.6924 -0.139 -0.618 0.774 228 210 183 0 0
3.2608 6.5823 -2.6964 -0.458 -0.536 0.709 228 208 181 0 0
3.5289 6.4309 -2.7268 -0.108 -0.851 0.514 230 213 186 0 0
3.5732 6.4239 -2.7330 -0.122 -0.870 0.478 232 212 184 0 0
3.7056 6.3341 -2.7471 -0.235 -0.722 0.651 228 208 181 0 0
3.7866 6.2649 -2.7549 -0.660 -0.683 0.314 227 207 180 0 0
3.9949 6.1646 -2.7796 -0.603 -0.527 0.598 229 208 178 0 0
4.0184 6.1306 -2.7810 -0.676 -0.514 0.527 230 209 182 0 0
4.0912 6.0736 -2.7883 -0.315 -0.774 0.550 225 206 179 0 0
4.1026 6.0667 -2.7896 -0.430 -0.753 0.499 225 207 179 0 0
4.4596 5.8363 -2.8284 -0.358 -0.741 0.568 228 208 181 0 0
4.5805 5.7555 -2.8413 -0.378 -0.703 0.603 227 205 177 0 0
4.7804 5.7920 -2.8734 -0.022 -0.851 -0.525 194 178 155 0 0
4.8003 5.7933 -2.8764 -0.022 -0.851 -0.525 205 195 181 0 0
4.8187 5.7932 -2.8792 -0.054 -0.835 -0.547 223 220 213 0 0
4.8380 5.7938 -2.8821 -0.054 -0.835 -0.547 223 224 221 0 0
1.0573 10.2831 -2.6157 -0.926 -0.371 -0.072 181 132 115 0 0
1.0670 10.2562 -2.6154 -0.918 -0.380 -0.114 164 115 100 0 0
1.8046 8.3872 -2.6068 -0.302 -0.896 0.324 188 145 128 0 0
1.9093 8.3807 -2.6220 -0.025 -0.988 0.151 155 104 86 0 0
1.9265 8.3853 -2.6249 -0.064 -0.986 -0.152 134 83 65 0 0
2.0275 8.4454 -2.6439 0.188 -0.898 -0.398 129 82 66 0 0
2.0470 8.4553 -2.6474 0.192 -0.869 -0.457 134 87 71 0 0
2.1326 8.5116 -2.6638 0.293 -0.951 -0.101 128 81 64 0 0
2.8350 8.9792 -2.7988 0.371 -0.830 -0.416 115 71 55 0 0
3.1654 9.2239 -2.8639 0.398 -0.886 -0.236 101 62 48 0 0
3.1876 9.2316 -2.8677 0.280 -0.885 -0.371 99 58 45 0 0
3.2080 9.2356 -2.8710 0.402 -0.847 -0.348 111 70 57 0 0
3.2384 9.2599 -2.8771 0.478 -0.826 -0.299 106 66 54 0 0
3.2655 9.2774 -2.8823 0.514 -0.806 -0.294 99 61 49 0 0
3.2895 9.2883 -2.8866 0.569 -0.800 -0.191 99 60 47 0 0
3.3450 9.3249 -2.8973 0.308 -0.860 -0.406 94 55 40 0 0
3.3716 9.3406 -2.9022 0.545 -0.827 -0.139 94 54 41 0 0
3.3902 9.3398 -2.9050 0.209 -0.848 -0.488 93 54 42 0 0
2.7126 7.7390 -2.7014 -0.855 0.335 -0.395 207 178 144 0 0
3.1224 6.6405 -2.6928 -0.697 -0.540 0.472 231 211 184 0 0
3.4765 6.4284 -2.7323 -0.137 -0.622 0.771 229 209 181 0 0
3.6443 6.3653 -2.7534 -0.150 -0.684 0.714 229 209 182 0 0
3.7863 6.2666 -2.7684 -0.670 -0.435 0.602 230 210 183 0 0
3.7929 6.2535 -2.7686 -0.677 -0.546 0.494 229 212 184 0 0
3.8404 6.2281 -2.7740 -0.105 -0.725 0.681 231 211 184 0 0
3.8629 6.2139 -2.7765 -0.006 -0.743 0.669 231 211 184 0 0
4.0871 6.0706 -2.8010 -0.302 -0.724 0.621 228 209 182 0 0
4.0969 6.0619 -2.8019 -0.430 -0.753 0.499 227 210 182 0 0
4.1088 6.0555 -2.8033 -0.155 -0.827 0.541 231 214 186 0 0
4.1200 6.0484 -2.8045 -0.217 -0.813 0.540 233 216 190 0 0
4.1339 6.0443 -2.8063 -0.234 -0.809 0.539 228 209 183 0 0
4.1836 6.0013 -2.8110 -0.306 -0.641 0.704 229 212 186 0 0
4.1992 5.9792 -2.8119 -0.525 -0.570 0.632 225 209 183 0 0
4.2359 5.9614 -2.8163 -0.260 -0.869 0.422 230 212 184 0 0
4.2504 5.9581 -2.8182 -0.340 -0.869 0.359 229 209 181 0 0
4.3369 5.8976 -2.8273 -0.523 -0.555 0.647 226 209 182 0 0
4.7843 5.7977 -2.8880 0.127 -0.838 -0.531 197 182 163 0 0
4.8092 5.8041 -2.8921 0.127 -0.838 -0.531 210 204 190 0 0
4.8291 5.8054 -2.8952 0.047 -0.813 -0.580 224 223 215 0 0
4.8370 5.7946 -2.8957 -0.271 -0.618 -0.738 223 224 221 0 0
1.3212 9.5251 -2.6227 -0.748 -0.518 -0.415 172 125 109 0 0
1.7763 8.3969 -2.6178 -0.404 -0.816 0.413 178 135 115 0 0
1.7884 8.3884 -2.6191 -0.097 -0.978 0.184 199 158 140 0 0
1.8011 8.3816 -2.6206 -0.217 -0.867 0.449 187 146 129 0 0
1.9269 8.3903 -2.6401 0.017 -0.982 -0.186 125 77 59 0 0
2.4112 8.7187 -2.7344 0.008 -0.801 -0.599 116 69 54 0 0
2.4339 8.7330 -2.7387 0.212 -0.808 -0.550 116 70 55 0 0
3.1659 9.2287 -2.8812 0.398 -0.886 -0.236 105 65 52 0 0
3.1903 9.2409 -2.8857 0.415 -0.779 -0.469 104 64 52 0 0
3.2426 9.2725 -2.8956 0.490 -0.729 -0.477 103 64 52 0 0
3.2732 9.2971 -2.9018 0.490 -0.729 -0.477 94 56 44 0 0
3.3018 9.3174 -2.9075 0.516 -0.727 -0.453 99 61 47 0 0
3.3281 9.3326 -2.9124 0.483 -0.843 -0.237 93 54 38 0 0
3.3831 9.3676 -2.9230 0.186 -0.981 0.060 96 58 41 0 0
3.3943 9.3516 -2.9236 0.189 -0.821 -0.539 91 54 38 0 0
2.5643 6.9243 -2.6407 -0.473 -0.449 0.758 229 209 179 0 0
2.7725 6.7823 -2.6628 -0.303 -0.682 0.666 229 209 181 0 0
2.9659 6.6933 -2.6861 -0.193 -0.767 0.612 226 205 177 0 0
3.0017 6.6756 -2.6903 -0.245 -0.647 0.722 227 206 179 0 0
3.0651 6.6518 -2.6983 -0.277 -0.732 0.622 230 210 182 0 0
3.1150 6.6314 -2.7045 -0.651 -0.521 0.553 226 205 177 0 0
3.1842 6.5915 -2.7124 -0.083 -0.665 0.742 227 206 178 0 0
3.2214 6.5756 -2.7169 -0.272 -0.538 0.798 230 210 183 0 0
3.2354 6.5726 -2.7188 -0.160 -0.636 0.755 229 209 182 0 0
3.2486 6.5684 -2.7205 -0.531 -0.485 0.694 231 210 183 0 0
3.2575 6.5577 -2.7212 -0.531 -0.485 0.694 231 211 183 0 0
3.5568 6.3830 -2.7549 -0.397 -0.503 0.768 227 207 180 0 0
3.6945 6.2796 -2.7689 -0.219 -0.595 0.774 230 212 184 0 0
3.7797 6.2601 -2.7805 -0.477 -0.644 0.598 231 211 184 0 0
3.7922 6.2545 -2.7820 -0.778 -0.352 0.520 233 214 188 0 0
3.7975 6.2398 -2.7818 -0.529 -0.820 0.219 232 213 186 0 0
3.8045 6.2272 -2.7821 -0.717 -0.587 0.375 234 214 187 0 0
3.8467 6.2168 -2.7877 -0.103 -0.945 0.312 228 209 183 0 0
3.9756 6.1449 -2.8025 -0.498 -0.651 0.573 223 202 172 0 0
4.0668 6.0689 -2.8113 -0.465 -0.759 0.457 231 213 186 0 0
4.0795 6.0636 -2.8128 -0.302 -0.724 0.621 228 211 183 0 0
4.1017 6.0490 -2.8152 -0.155 -0.827 0.541 229 212 185 0 0
4.1140 6.0432 -2.8167 -0.300 -0.762 0.574 232 215 189 0 0
4.2172 5.9618 -2.8269 -0.260 -0.869 0.422 229 210 184 0 0
4.2318 5.9587 -2.8289 -0.261 -0.790 0.555 227 210 182 0 0
4.2445 5.9532 -2.8305 -0.392 -0.844 0.367 227 209 180 0 0
4.2573 5.9480 -2.8321 -0.059 -0.876 0.479 229 209 180 0 0
4.4673 5.8099 -2.8547 -0.237 -0.661 0.712 226 208 180 0 0
4.4836 5.7892 -2.8558 -0.401 -0.584 0.706 226 209 182 0 0
4.8584 5.8178 -2.9141 -0.023 -0.701 -0.712 223 225 223 0 0
4.8788 5.8195 -2.9173 -0.040 -0.693 -0.720 224 224 222 0 0
4.8995 5.8215 -2.9206 0.144 -0.820 -0.554 225 225 223 0 0
0.6305 11.3124 -2.6527 -0.365 -0.528 0.767 232 228 225 0 0
1.3241 9.5412 -2.6401 -0.847 -0.414 -0.333 171 124 108 0 0
1.6349 8.5140 -2.6189 -0.758 -0.651 -0.027 178 129 111 0 0
1.9253 8.3899 -2.6546 0.028 -0.992 -0.119 123 77 59 0 0
2.4150 8.7316 -2.7515 0.008 -0.801 -0.599 108 62 47 0 0
2.4358 8.7414 -2.7553 0.215 -0.825 -0.522 117 71 56 0 0
2.8023 8.9923 -2.8274 0.077 -0.987 0.143 103 57 42 0 0
3.1691 9.2391 -2.8994 0.332 -0.786 -0.521 107 66 52 0 0
3.1936 9.2515 -2.9039 0.398 -0.768 -0.501 109 69 57 0 0
3.2201 9.2680 -2.9090 0.371 -0.802 -0.468 101 61 49 0 0
3.3314 9.3430 -2.9308 0.278 -0.685 -0.673 96 57 41 0 0
3.3749 9.3545 -2.9382 0.387 -0.791 -0.474 97 58 41 0 0
3.3993 9.3655 -2.9426 0.202 -0.716 -0.668 96 59 41 0 0
2.5774 6.8957 -2.6541 -0.294 -0.572 0.766 227 206 177 0 0
2.5850 6.8822 -2.6544 -0.296 -0.623 0.724 227 204 176 0 0
2.5961 6.8750 -2.6556 -0.255 -0.648 0.717 229 206 178 0 0
2.6067 6.8669 -2.6566 0.022 -0.881 0.472 228 206 177 0 0
2.6799 6.8357 -2.6656 -0.190 -0.662 0.725 227 206 177 0 0
2.7437 6.7879 -2.6721 -0.155 -0.744 0.650 228 208 181 0 0
2.7684 6.7777 -2.6752 -0.507 -0.527 0.682 230 209 181 0 0
2.7750 6.7630 -2.6752 -0.507 -0.861 -0.030 228 207 180 0 0
2.7870 6.7573 -2.6767 -0.084 -0.956 0.282 230 210 183 0 0
2.8007 6.7546 -2.6785 -0.113 -0.961 0.251 227 207 180 0 0
2.8331 6.7317 -2.6819 -0.341 -0.631 0.697 230 210 183 0 0
2.9200 6.6713 -2.6911 -0.438 -0.462 0.771 232 212 182 0 0
2.9819 6.6712 -2.7004 -0.223 -0.703 0.675 222 201 172 0 0
3.0180 6.6541 -2.7048 -0.321 -0.589 0.742 226 206 180 0 0
3.0433 6.6445 -2.7080 -0.320 -0.760 0.565 227 207 180 0 0
3.0591 6.6447 -2.7104 -0.198 -0.649 0.735 227 208 180 0 0
3.2112 6.5623 -2.7279 -0.390 -0.519 0.761 231 211 184 0 0
3.3996 6.4618 -2.7498 -0.509 -0.463 0.725 230 211 182 0 0
3.4525 6.3989 -2.7536 0.065 -0.927 0.368 228 207 177 0 0
3.4669 6.3964 -2.7556 -0.278 -0.734 0.619 227 206 177 0 0
3.4790 6.3906 -2.7571 -0.278 -0.734 0.619 227 206 177 0 0
3.4903 6.3835 -2.7583 -0.317 -0.782 0.537 224 203 175 0 0
3.4994 6.3736 -2.7590 -0.595 -0.772 0.223 225 204 177 0 0
3.5139 6.3711 -2.7611 -0.262 -0.941 0.215 227 207 180 0 0
3.5402 6.3624 -2.7645 -0.144 -0.946 0.289 230 210 183 0 0
3.5554 6.3607 -2.7666 0.066 -0.940 0.334 231 211 184 0 0
3.6440 6.3245 -2.7777 -0.597 -0.456 0.660 228 211 183 0 0
3.7905 6.2328 -2.7938 -0.551 -0.682 0.480 230 210 183 0 0
4.0393 6.0585 -2.8198 -0.097 -0.738 0.668 229 212 184 0 0
4.1770 5.9575 -2.8340 -0.308 -0.644 0.700 229 209 181 0 0
4.2030 5.9474 -2.8373 -0.157 -0.685 0.711 227 207 180 0 0
4.2493 5.9407 -2.8438 -0.014 -0.821 0.571 228 208 179 0 0
4.5179 5.7518 -2.8719 -0.182 -0.766 0.617 227 207 178 0 0
5.2732 6.2561 -3.0198 0.573 -0.728 -0.376 224 224 219 0 0
4.8737 5.8349 -2.9313 -0.063 -0.601 -0.797 224 225 224 0 0
4.8935 5.8360 -2.9344 0.016 -0.648 -0.762 225 225 223 0 0
1.4038 9.2802 -2.6504 -0.866 -0.468 -0.178 185 134 115 0 0
2.4187 8.7441 -2.7685 0.141 -0.836 -0.530 113 68 53 0 0
2.4392 8.7530 -2.7723 0.215 -0.825 -0.522 103 60 44 0 0
3.2551 9.3058 -2.9339 0.526 -0.737 -0.424 101 61 49 0 0
3.2865 9.3320 -2.9405 0.518 -0.755 -0.402 100 62 49 0 0
3.3129 9.3476 -2.9456 0.437 -0.737 -0.516 94 56 42 0 0
3.3373 9.3589 -2.9500 0.525 -0.814 -0.250 95 56 41 0 0
3.3691 9.3851 -2.9567 0.216 -0.772 -0.598 98 59 43 0 0
2.5992 6.8559 -2.6681 -0.194 -0.788 0.585 227 206 177 0 0
2.7317 6.7695 -2.6824 -0.304 -0.644 0.702 228 208 181 0 0
2.7446 6.7654 -2.6841 -0.335 -0.702 0.629 230 210 183 0 0
3.0379 6.6383 -2.7201 -0.186 -0.840 0.510 224 205 176 0 0
3.1420 6.5800 -2.7320 -0.072 -0.702 0.709 229 208 181 0 0
3.1789 6.5638 -2.7365 -0.182 -0.915 0.361 227 206 179 0 0
3.2045 6.5544 -2.7398 -0.339 -0.630 0.699 227 206 179 0 0
3.2772 6.4965 -2.7469 -0.275 -0.585 0.763 227 207 180 0 0
3.3152 6.5053 -2.7533 -0.815 -0.483 0.320 229 210 180 0 0
3.3348 6.4635 -2.7535 -0.579 -0.597 0.555 229 209 181 0 0
3.3467 6.4576 -2.7549 -0.235 -0.685 0.689 229 209 182 0 0
3.3685 6.4658 -2.7587 -0.511 -0.509 0.693 229 211 183 0 0
3.4001 6.4416 -2.7619 -0.212 -0.707 0.674 232 213 185 0 0
3.5220 6.3619 -2.7751 -0.001 -0.856 0.516 228 208 181 0 0
3.5500 6.3553 -2.7789 0.045 -0.878 0.476 227 207 180 0 0
3.5589 6.3451 -2.7795 -0.137 -0.906 0.401 230 210 183 0 0
3.6818 6.2669 -2.7930 -0.057 -0.876 0.479 228 211 183 0 0
3.7990 6.2029 -2.8065 0.023 -0.976 0.217 227 207 180 0 0
3.8633 6.1779 -2.8146 -0.561 -0.526 0.639 227 206 176 0 0
3.8728 6.1687 -2.8154 -0.590 -0.476 0.652 227 206 177 0 0
3.8974 6.1571 -2.8183 -0.343 -0.595 0.727 228 209 179 0 0
4.0160 6.0529 -2.8293 -0.289 -0.732 0.617 227 210 182 0 0
4.0539 6.0370 -2.8340 -0.246 -0.709 0.661 228 210 183 0 0
4.8752 5.9141 -2.9507 0.549 -0.737 -0.394 204 188 167 0 0
4.8941 5.8572 -2.9497 -0.063 -0.601 -0.797 225 226 224 0 0
0.4646 11.2239 -2.6565 -0.638 -0.591 -0.494 236 235 233 0 0
2.0764 8.5054 -2.7153 0.154 -0.907 -0.392 125 79 63 0 0
3.2632 9.3262 -2.9537 0.500 -0.721 -0.480 104 65 52 0 0
3.2920 9.3471 -2.9596 0.519 -0.733 -0.440 106 68 55 0 0
3.3366 9.3612 -2.9673 0.534 -0.822 -0.197 96 57 43 0 0
2.7248 6.7601 -2.6940 -0.304 -0.644 0.702 229 209 181 0 0
2.7388 6.7580 -2.6960 -0.206 -0.685 0.699 229 209 180 0 0
2.8850 6.6693 -2.7122 -0.436 -0.600 0.670 225 206 176 0 0
3.1336 6.5693 -2.7434 -0.083 -0.757 0.648 224 204 177 0 0
3.1782 6.5409 -2.7482 -0.068 -0.731 0.679 227 206 179 0 0
3.1971 6.5455 -2.7514 -0.339 -0.630 0.699 229 208 181 0 0
3.3690 6.4455 -2.7708 -0.431 -0.530 0.730 227 209 181 0 0
3.3788 6.4363 -2.7717 -0.431 -0.530 0.730 227 207 178 0 0
3.3913 6.4312 -2.7733 -0.254 -0.613 0.748 226 207 177 0 0
3.5153 6.3547 -2.7869 -0.001 -0.856 0.516 230 211 181 0 0
3.5414 6.3457 -2.7903 -0.088 -0.828 0.554 226 207 177 0 0
3.8090 6.1749 -2.8195 -0.251 -0.816 0.521 226 206 177 0 0
3.9040 6.1045 -2.8291 0.079 -0.813 0.577 230 210 183 0 0
3.9872 6.0612 -2.8389 -0.316 -0.709 0.631 225 207 181 0 0
3.9989 6.0548 -2.8402 -0.323 -0.769 0.552 226 209 183 0 0
4.0085 6.0459 -2.8411 -0.289 -0.732 0.617 226 209 182 0 0
4.0350 6.0367 -2.8445 -0.331 -0.752 0.569 228 210 182 0 0
4.4906 5.7266 -2.8928 -0.179 -0.668 0.722 223 202 171 0 0
4.9294 5.8754 -2.9702 -0.041 -0.755 -0.655 226 226 224 0 0
1.6861 8.4571 -2.6670 -0.734 -0.549 -0.400 161 109 88 0 0
2.4240 8.7644 -2.8022 0.207 -0.918 -0.338 113 67 52 0 0
2.4460 8.7769 -2.8064 0.292 -0.888 -0.354 117 72 57 0 0
2.4904 8.8024 -2.8151 0.277 -0.835 -0.475 120 72 58 0 0
3.2179 9.3136 -2.9630 0.047 -0.960 -0.276 111 67 51 0 0
3.2661 9.3362 -2.9720 0.517 -0.767 -0.381 103 63 49 0 0
3.3395 9.3708 -2.9857 0.537 -0.816 -0.215 103 63 51 0 0
2.4737 6.9898 -2.6848 -0.966 -0.196 0.166 218 195 163 0 0
2.8392 6.6976 -2.7204 -0.120 -0.730 0.672 228 209 179 0 0
2.8760 6.6568 -2.7232 -0.235 -0.859 0.454 229 210 180 0 0
3.1231 6.5553 -2.7541 -0.213 -0.676 0.706 229 209 183 0 0
3.2111 6.4973 -2.7636 -0.514 -0.427 0.744 230 210 183 0 0
3.2465 6.4791 -2.7677 -0.385 -0.513 0.768 226 206 179 0 0
3.7013 6.2097 -2.8187 -0.358 -0.883 0.303 230 211 181 0 0
3.7613 6.2014 -2.8274 -0.462 -0.558 0.689 230 210 183 0 0
3.7715 6.1930 -2.8283 -0.051 -0.782 0.621 229 210 181 0 0
3.7873 6.1919 -2.8307 -0.127 -0.989 -0.074 227 208 178 0 0
3.7965 6.1823 -2.8314 -0.661 -0.671 0.335 230 210 183 0 0
4.0909 5.9631 -2.8613 -0.175 -0.599 0.782 226 208 180 0 0
4.3369 5.8100 -2.8884 -0.363 -0.607 0.707 228 208 181 0 0
4.3553 5.7918 -2.8899 -0.173 -0.763 0.623 227 208 181 0 0
0.4362 11.2675 -2.6901 -0.772 -0.585 -0.248 236 235 233 0 0
0.4802 11.2392 -2.6949 -0.795 -0.560 -0.235 235 234 232 0 0
0.5051 11.2902 -2.7024 -0.012 -0.919 -0.394 234 233 231 0 0
0.5132 11.2415 -2.7001 -0.004 -0.922 -0.387 233 232 230 0 0
0.5274 11.2296 -2.7015 -0.765 -0.621 0.173 232 231 229 0 0
0.5423 11.2212 -2.7032 -0.517 -0.849 0.112 232 230 228 0 0
0.7975 11.3471 -2.7517 -0.828 -0.202 -0.524 218 215 212 0 0
1.1831 10.0476 -2.7180 -0.768 -0.611 -0.192 192 142 127 0 0
1.3571 9.5126 -2.7066 -0.904 -0.360 -0.230 179 132 114 0 0
2.4257 8.7720 -2.8187 0.248 -0.892 -0.378 108 63 48 0 0
2.4474 8.7839 -2.8229 0.292 -0.888 -0.354 115 70 54 0 0
3.2121 9.3052 -2.9786 -0.105 -0.912 -0.396 105 61 45 0 0
3.2369 9.3181 -2.9834 0.385 -0.803 -0.455 106 64 49 0 0
3.2701 9.3481 -2.9906 0.517 -0.767 -0.381 105 65 51 0 0
3.3950 9.4493 -3.0172 0.528 -0.801 -0.284 86 46 34 0 0
3.4687 9.4044 -3.0254 -0.692 -0.046 -0.720 101 74 61 0 0
2.7376 6.7346 -2.7207 -0.206 -0.751 0.628 229 209 181 0 0
2.7491 6.7284 -2.7220 -0.351 -0.700 0.622 228 208 181 0 0
2.8728 6.6539 -2.7358 -0.204 -0.893 0.401 228 209 179 0 0
2.8848 6.6484 -2.7372 -0.283 -0.793 0.539 226 206 177 0 0
3.0471 6.5612 -2.7561 -0.338 -0.590 0.733 229 210 182 0 0
3.2154 6.4822 -2.7764 -0.485 -0.532 0.694 229 208 180 0 0
3.2224 6.4691 -2.7766 -0.481 -0.689 0.542 229 209 183 0 0
3.2400 6.4716 -2.7795 -0.127 -0.790 0.599 229 209 183 0 0
3.2519 6.4422 -2.7792 -0.556 -0.701 0.447 229 210 181 0 0
3.2619 6.4337 -2.7802 -0.556 -0.701 0.447 230 211 181 0 0
3.2694 6.4214 -2.7805 -0.881 -0.335 0.333 229 209 181 0 0
3.5326 6.3155 -2.8136 -0.318 -0.714 0.624 230 210 183 0 0
3.6976 6.2069 -2.8313 -0.358 -0.883 0.303 230 211 181 0 0
3.7927 6.1795 -2.8440 -0.397 -0.812 0.428 227 208 179 0 0
3.8012 6.1690 -2.8446 -0.683 -0.683 0.257 229 209 183 0 0
3.8119 6.1614 -2.8457 -0.542 -0.710 0.449 227 207 180 0 0
3.9210 6.0877 -2.8573 0.104 -0.949 0.296 229 209 180 0 0
4.1373 5.9193 -2.8787 -0.450 -0.644 0.619 226 207 181 0 0
4.1490 5.9129 -2.8800 -0.335 -0.715 0.613 225 205 179 0 0
4.4618 5.7185 -2.9144 -0.137 -0.735 0.664 218 196 164 0 0
0.4449 11.3305 -2.7135 -0.241 -0.967 -0.075 236 235 233 0 0
0.4806 11.2509 -2.7132 -0.712 -0.575 -0.403 235 234 232 0 0
0.5020 11.2811 -2.7188 -0.199 -0.975 -0.098 234 233 231 0 0
0.5175 11.2766 -2.7208 0.187 -0.931 -0.313 233 232 230 0 0
0.7735 11.4065 -2.7701 -0.679 -0.350 -0.645 221 217 214 0 0
0.7771 11.3368 -2.7656 -0.745 -0.239 -0.622 222 218 215 0 0
0.8056 11.3102 -2.7681 -0.618 -0.431 -0.658 219 215 212 0 0
1.3580 9.5210 -2.7231 -0.904 -0.360 -0.230 174 125 104 0 0
1.9175 8.4293 -2.7303 0.048 -0.974 -0.222 131 87 71 0 0
2.5208 8.8415 -2.8543 0.389 -0.837 -0.385 123 77 62 0 0
3.4522 9.4913 -3.0466 0.477 -0.786 -0.394 94 53 40 0 0
3.4686 9.4467 -3.0459 -0.872 -0.133 -0.471 111 90 78 0 0
2.5034 6.9947 -2.7165 -0.828 -0.468 -0.308 217 194 162 0 0
2.5020 6.9639 -2.7141 -0.544 -0.831 0.116 219 196 164 0 0
2.8792 6.6416 -2.7491 -0.357 -0.753 0.553 225 205 177 0 0
3.0421 6.5557 -2.7682 -0.213 -0.710 0.671 230 210 182 0 0
3.0537 6.5495 -2.7695 -0.240 -0.586 0.774 231 211 184 0 0
3.1949 6.4774 -2.7862 -0.514 -0.376 0.771 227 208 178 0 0
3.2085 6.4741 -2.7881 -0.191 -0.664 0.723 227 208 178 0 0
3.2171 6.4634 -2.7886 -0.481 -0.689 0.542 230 211 182 0 0
3.2548 6.4253 -2.7917 -0.340 -0.719 0.607 227 208 178 0 0
3.4057 6.3438 -2.8092 -0.752 -0.406 0.519 227 208 180 0 0
3.4145 6.3335 -2.8098 -0.435 -0.587 0.683 227 207 180 0 0
3.4268 6.3282 -2.8114 -0.304 -0.616 0.727 224 204 177 0 0
3.5126 6.3125 -2.8236 -0.237 -0.676 0.698 227 207 180 0 0
3.5257 6.3082 -2.8253 -0.320 -0.735 0.598 229 209 182 0 0
3.7040 6.1957 -2.8448 -0.164 -0.826 0.539 229 210 181 0 0
4.4505 5.7083 -2.9252 -0.004 -0.885 0.466 220 197 166 0 0
4.4526 5.6918 -2.9243 -0.073 -0.963 0.261 219 196 163 0 0
4.4619 5.6830 -2.9252 -0.176 -0.955 0.237 213 191 154 0 0
4.4791 5.6824 -2.9278 -0.169 -0.914 0.369 202 180 145 0 0
4.4928 5.6782 -2.9296 -0.019 -0.998 0.052 202 179 145 0 0
0.4680 11.2823 -2.7310 -0.863 -0.502 0.057 234 233 231 0 0
0.7551 11.4974 -2.7919 -0.859 -0.232 -0.457 225 222 217 0 0
0.7670 11.4706 -2.7918 -0.832 -0.213 -0.513 224 220 217 0 0
0.7776 11.4369 -2.7909 -0.679 -0.350 -0.645 223 219 216 0 0
0.7920 11.3357 -2.7857 -0.760 -0.225 -0.609 222 218 214 0 0
1.0026 10.6671 -2.7688 -0.736 -0.611 -0.291 169 131 114 0 0
1.9189 8.4370 -2.7460 0.005 -0.903 -0.430 126 80 64 0 0
2.1825 8.6270 -2.8013 0.270 -0.962 0.025 128 83 68 0 0
2.8608 9.0660 -2.9400 0.301 -0.884 -0.358 113 69 57 0 0
2.8871 9.0847 -2.9455 0.323 -0.906 -0.275 110 65 52 0 0
3.2526 9.3582 -3.0231 0.525 -0.838 -0.148 98 59 43 0 0
3.3768 9.4587 -3.0500 0.312 -0.696 -0.647 95 57 43 0 0
3.4059 9.4791 -3.0560 0.390 -0.719 -0.576 98 61 45 0 0
3.4288 9.4867 -3.0602 0.468 -0.834 -0.292 108 64 51 0 0
3.4567 9.5043 -3.0658 0.445 -0.846 -0.292 98 59 48 0 0
3.4841 9.5208 -3.0714 0.300 -0.939 -0.170 113 90 78 0 0
3.4704 9.4540 -3.0642 -0.860 -0.505 0.081 166 156 143 0 0
3.4822 9.4389 -3.0650 -0.703 -0.623 -0.345 181 173 160 0 0
3.4973 9.4306 -3.0667 -0.681 -0.568 -0.463 191 173 155 0 0
3.4893 9.3762 -3.0614 -0.778 -0.224 -0.587 190 161 134 0 0
2.5625 6.8023 -2.7248 -0.113 -0.696 0.709 227 205 175 0 0
3.0441 6.5368 -2.7804 -0.328 -0.536 0.778 229 210 183 0 0
3.0543 6.5285 -2.7813 -0.359 -0.560 0.746 230 212 184 0 0
3.1489 6.4816 -2.7926 0.018 -0.849 0.528 229 209 182 0 0
3.1774 6.4771 -2.7967 -0.025 -0.835 0.550 229 208 179 0 0
3.2129 6.4594 -2.8010 -0.561 -0.538 0.629 227 206 177 0 0
3.2186 6.4442 -2.8007 -0.171 -0.761 0.626 225 205 177 0 0
3.2455 6.4139 -2.8027 -0.478 -0.668 0.571 226 207 177 0 0
3.4072 6.3254 -2.8214 -0.435 -0.587 0.683 227 207 180 0 0
3.5632 6.2726 -2.8418 -0.484 -0.471 0.738 230 211 181 0 0
3.6360 6.2166 -2.8490 -0.574 -0.575 0.583 227 207 180 0 0
3.6838 6.1930 -2.8548 -0.207 -0.749 0.629 227 208 178 0 0
3.6970 6.1886 -2.8565 -0.194 -0.722 0.664 227 206 177 0 0
4.0292 5.9565 -2.8911 -0.225 -0.609 0.760 228 208 181 0 0
4.1127 5.8945 -2.8996 -0.248 -0.787 0.565 229 212 186 0 0
4.1253 5.8894 -2.9012 -0.248 -0.787 0.565 228 211 185 0 0
4.3697 5.7367 -2.9280 -0.254 -0.709 0.658 227 208 178 0 0
4.3818 5.7308 -2.9294 -0.274 -0.646 0.712 230 209 181 0 0
4.3998 5.7125 -2.9309 -0.259 -0.617 0.744 229 208 179 0 0
4.4131 5.7079 -2.9326 -0.273 -0.613 0.742 226 205 174 0 0
4.4373 5.6961 -2.9355 -0.023 -0.818 0.574 213 190 156 0 0
4.4604 5.6831 -2.9382 -0.257 -0.962 -0.094 208 183 147 0 0
4.4948 5.6820 -2.9435 -0.090 -0.985 0.147 202 178 144 0 0
5.2656 6.2598 -3.1070 0.431 -0.792 -0.432 226 226 224 0 0
0.4551 11.3125 -2.7488 -0.824 -0.565 -0.032 235 234 232 0 0
0.7683 11.4863 -2.8112 -0.859 -0.232 -0.457 224 221 217 0 0
0.7780 11.4478 -2.8098 -0.859 -0.232 -0.457 224 220 217 0 0
0.7876 11.4094 -2.8084 -0.859 -0.232 -0.457 223 219 215 0 0
0.8318 11.4625 -2.8194 -0.752 -0.068 -0.656 222 218 213 0 0
0.8031 11.0584 -2.7842 -0.666 -0.717 -0.205 220 215 212 0 0
1.7878 8.4186 -2.7388 -0.411 -0.749 -0.520 157 110 95 0 0
1.8008 8.4125 -2.7404 -0.411 -0.749 -0.520 150 102 88 0 0
1.9202 8.4445 -2.7616 0.005 -0.903 -0.430 130 83 67 0 0
2.1808 8.6265 -2.8163 0.264 -0.959 0.107 121 78 62 0 0
2.5236 8.8558 -2.8876 0.450 -0.837 -0.313 120 72 60 0 0
3.3398 9.4253 -3.0590 0.423 -0.779 -0.463 97 56 44 0 0
3.3700 9.4485 -3.0655 0.494 -0.802 -0.335 96 56 44 0 0
3.4038 9.4786 -3.0731 0.434 -0.869 -0.238 101 60 47 0 0
3.4302 9.4934 -3.0784 0.450 -0.865 -0.223 97 61 49 0 0
3.4566 9.5079 -3.0837 0.302 -0.953 0.007 108 84 72 0 0
3.4671 9.4900 -3.0839 -0.401 -0.103 0.910 165 151 141 0 0
3.4641 9.4450 -3.0801 -0.435 -0.050 0.899 182 174 163 0 0
3.4753 9.4288 -3.0806 -0.359 -0.217 0.908 185 176 165 0 0
3.5151 9.4698 -3.0900 0.249 -0.968 -0.023 194 176 159 0 0
3.5471 9.4951 -3.0969 0.419 -0.832 -0.364 192 164 137 0 0
2.5078 6.8410 -2.7324 -0.634 -0.739 0.227 220 196 161 0 0
2.5158 6.8283 -2.7327 -0.529 -0.739 0.417 218 194 158 0 0
2.5359 6.8106 -2.7345 -0.521 -0.507 0.687 223 200 166 0 0
3.0192 6.5243 -2.7887 -0.430 -0.537 0.726 227 210 181 0 0
3.0400 6.5084 -2.7908 -0.054 -0.629 0.775 226 209 181 0 0
3.0519 6.5028 -2.7922 -0.136 -0.685 0.716 224 205 178 0 0
3.0830 6.4787 -2.7953 -0.162 -0.634 0.757 227 208 180 0 0
3.3617 6.3540 -2.8296 -0.541 -0.419 0.730 225 205 178 0 0
3.8687 6.0498 -2.8862 -0.232 -0.690 0.685 228 208 181 0 0
3.8825 6.0462 -2.8882 -0.247 -0.748 0.616 230 210 182 0 0
3.9174 6.0068 -2.8906 -0.162 -0.724 0.670 227 207 180 0 0
4.3477 5.7337 -2.9376 -0.152 -0.800 0.580 226 207 177 0 0
4.3602 5.7283 -2.9391 -0.266 -0.740 0.618 226 206 177 0 0
4.3733 5.7235 -2.9408 -0.352 -0.625 0.696 224 203 174 0 0
4.3841 5.7162 -2.9420 -0.352 -0.625 0.696 225 204 175 0 0
4.3919 5.7058 -2.9424 -0.426 -0.535 0.729 225 203 172 0 0
4.4025 5.6984 -2.9435 -0.298 -0.596 0.746 222 200 167 0 0
4.4413 5.6834 -2.9484 0.058 -0.956 0.287 203 177 142 0 0
4.4912 5.6800 -2.9560 -0.067 -0.996 -0.060 199 175 141 0 0
0.3285 10.9340 -2.7171 -0.746 -0.044 0.665 237 236 234 0 0
0.4248 11.3360 -2.7633 -0.316 -0.849 0.425 236 235 233 0 0
0.4402 11.3310 -2.7654 -0.219 -0.966 0.141 235 234 232 0 0
0.6873 11.9981 -2.8559 -0.986 0.097 0.137 232 228 225 0 0
1.8036 8.4242 -2.7565 -0.458 -0.685 -0.566 141 93 78 0 0
1.8164 8.4174 -2.7580 -0.506 -0.660 -0.555 131 83 68 0 0
2.1784 8.6245 -2.8311 0.282 -0.934 0.221 118 75 59 0 0
2.2016 8.6419 -2.8361 0.393 -0.920 -0.015 129 84 68 0 0
3.2836 9.3910 -3.0649 0.467 -0.759 -0.454 102 63 51 0 0
3.3209 9.4293 -3.0737 0.459 -0.697 -0.551 101 62 49 0 0
3.3454 9.4407 -3.0785 0.462 -0.796 -0.390 101 62 50 0 0
3.3985 9.5107 -3.0922 -0.018 -0.755 0.655 99 61 50 0 0
3.4154 9.5061 -3.0946 -0.037 -0.774 0.632 97 61 51 0 0
3.4316 9.4999 -3.0966 -0.034 -0.757 0.652 99 76 64 0 0
3.4392 9.4762 -3.0960 -0.460 -0.043 0.887 157 147 135 0 0
3.4486 9.4561 -3.0959 -0.401 -0.103 0.910 181 171 162 0 0
3.4634 9.4086 -3.0946 -0.386 -0.143 0.911 188 177 165 0 0
3.4995 9.4422 -3.1029 0.149 -0.828 0.541 194 177 159 0 0
2.5479 6.7809 -2.7473 -0.488 -0.736 0.469 224 203 171 0 0
2.5586 6.7734 -2.7484 -0.396 -0.668 0.630 223 200 168 0 0
2.8952 6.5498 -2.7843 -0.466 -0.737 0.489 228 209 179 0 0
2.9101 6.5491 -2.7866 -0.444 -0.723 0.530 225 206 176 0 0
2.9437 6.5539 -2.7923 -0.665 -0.382 0.642 225 204 175 0 0
2.9796 6.5373 -2.7967 -0.013 -0.742 0.671 225 204 177 0 0
3.1853 6.4226 -2.8203 -0.317 -0.582 0.749 227 207 177 0 0
4.1322 5.8617 -2.9266 -0.274 -0.765 0.583 229 209 182 0 0
4.4749 5.6833 -2.9670 -0.256 -0.964 -0.070 200 177 143 0 0
4.9088 5.9995 -3.0599 0.532 -0.742 -0.407 204 191 172 0 0
0.7607 10.8598 -2.7968 -0.151 -0.946 0.287 224 216 213 0 0
0.9342 10.9060 -2.8280 -0.921 -0.296 -0.255 215 208 205 0 0
1.6025 8.8174 -2.7702 -0.527 -0.793 -0.305 158 110 96 0 0
2.1724 8.6134 -2.8447 0.202 -0.922 0.331 127 83 67 0 0
2.8576 9.1097 -2.9924 0.064 -0.861 -0.504 109 68 56 0 0
3.0344 9.2205 -3.0292 -0.062 -0.749 -0.659 104 62 49 0 0
3.2889 9.4058 -3.0841 0.467 -0.759 -0.454 100 62 49 0 0
3.3331 9.4585 -3.0953 0.499 -0.752 -0.431 106 68 55 0 0
3.3641 9.4831 -3.1021 0.556 -0.782 -0.283 98 61 48 0 0
3.4198 9.4403 -3.1076 -0.423 -0.069 0.903 180 171 161 0 0
3.4286 9.4193 -3.1074 -0.387 -0.094 0.917 185 175 165 0 0
3.4460 9.3771 -3.1068 -0.361 -0.147 0.921 189 180 167 0 0
2.5197 6.8133 -2.7585 -0.857 -0.512 0.058 208 185 151 0 0
2.5274 6.8003 -2.7587 -0.857 -0.512 0.058 214 191 157 0 0
2.6040 6.7239 -2.7649 -0.516 -0.625 0.586 228 208 179 0 0
2.6136 6.7144 -2.7656 -0.587 -0.549 0.595 230 211 181 0 0
2.6247 6.7076 -2.7669 -0.435 -0.621 0.653 229 210 180 0 0
2.6786 6.6710 -2.7726 0.165 -0.858 0.485 226 205 176 0 0
2.8703 6.5613 -2.7944 -0.445 -0.662 0.603 228 211 182 0 0
2.8905 6.5446 -2.7963 -0.443 -0.748 0.495 227 208 178 0 0
3.3698 6.3017 -2.8533 -0.649 -0.445 0.617 228 211 183 0 0
3.5330 6.2160 -2.8725 -0.429 -0.519 0.739 227 208 178 0 0
3.6794 6.1291 -2.8889 -0.088 -0.722 0.686 228 208 181 0 0
4.1251 5.8554 -2.9382 -0.274 -0.765 0.583 225 206 177 0 0
4.1508 5.8261 -2.9400 -0.623 -0.370 0.689 225 206 176 0 0
4.1549 5.8113 -2.9395 -0.582 -0.667 0.465 225 206 177 0 0
4.4733 5.6833 -2.9800 -0.279 -0.960 -0.007 195 174 141 0 0
0.6233 11.3624 -2.8322 -0.997 0.044 0.068 231 227 224 0 0
0.8672 11.5825 -2.8887 -0.741 -0.245 -0.625 224 218 215 0 0
1.6828 8.6512 -2.7848 -0.839 -0.501 -0.214 163 116 100 0 0
1.8202 8.4357 -2.7896 -0.654 -0.657 -0.375 133 86 71 0 0
2.1227 8.6133 -2.8520 0.221 -0.915 -0.339 131 84 69 0 0
2.1410 8.6190 -2.8554 0.221 -0.915 -0.339 133 85 72 0 0
2.2131 8.6784 -2.8716 0.326 -0.945 -0.018 132 85 71 0 0
3.0398 9.2360 -3.0481 -0.046 -0.780 -0.624 111 70 56 0 0
3.2972 9.4270 -3.1044 0.574 -0.798 -0.183 96 59 47 0 0
3.3352 9.4665 -3.1137 0.561 -0.786 -0.260 97 62 48 0 0
3.3690 9.4971 -3.1215 -0.226 -0.378 0.898 93 60 49 0 0
3.3855 9.4917 -3.1237 -0.351 -0.101 0.931 108 81 72 0 0
3.3869 9.4552 -3.1210 -0.390 -0.107 0.914 165 154 143 0 0
3.3942 9.4310 -3.1202 -0.372 -0.107 0.922 183 173 164 0 0
3.4022 9.4082 -3.1197 -0.372 -0.107 0.922 188 175 166 0 0
3.4619 9.4516 -3.1327 -0.054 -0.794 0.605 189 179 167 0 0
2.6088 6.7083 -2.7775 -0.519 -0.515 0.683 228 208 176 0 0
3.3250 6.3307 -2.8617 -0.293 -0.781 0.552 229 210 181 0 0
3.7728 6.0400 -2.9099 -0.140 -0.715 0.685 229 210 185 0 0
3.7857 6.0354 -2.9116 -0.191 -0.703 0.685 228 211 185 0 0
4.5670 5.6896 -3.0087 -0.216 -0.854 -0.473 200 185 162 0 0
0.6163 11.2395 -2.8388 -0.978 -0.116 0.174 230 226 223 0 0
0.8991 11.9370 -2.9408 -0.769 0.039 -0.638 225 221 218 0 0
1.4460 9.4215 -2.8243 -0.785 -0.440 -0.436 163 116 100 0 0
2.1229 8.6177 -2.8677 0.313 -0.931 -0.188 125 79 64 0 0
3.0472 9.2558 -3.0678 0.167 -0.982 -0.089 98 58 44 0 0
3.0691 9.2634 -3.0719 0.139 -0.938 -0.318 107 69 57 0 0
3.0894 9.2676 -3.0755 0.139 -0.938 -0.318 114 76 65 0 0
3.3503 9.5016 -3.1363 -0.032 -0.646 0.763 101 67 55 0 0
3.3574 9.4767 -3.1354 -0.438 -0.102 0.893 101 72 64 0 0
3.3690 9.4221 -3.1329 -0.363 -0.132 0.922 184 176 166 0 0
3.3769 9.3992 -3.1323 -0.294 -0.153 0.943 185 176 167 0 0
3.3863 9.3797 -3.1322 -0.309 -0.157 0.938 188 178 168 0 0
2.6518 6.6295 -2.7911 -0.443 -0.754 0.484 227 206 179 0 0
3.1538 6.4055 -2.8535 -0.578 -0.641 0.506 230 213 185 0 0
3.1633 6.3963 -2.8543 -0.578 -0.641 0.506 231 211 184 0 0
3.1702 6.3833 -2.8543 -0.675 -0.504 0.539 228 208 181 0 0
3.1822 6.3779 -2.8558 -0.770 -0.429 0.473 227 208 180 0 0
3.1955 6.3744 -2.8577 -0.366 -0.674 0.642 228 209 181 0 0
3.2065 6.3673 -2.8588 -0.366 -0.674 0.642 228 208 180 0 0
3.2130 6.3539 -2.8588 -0.223 -0.771 0.597 226 206 178 0 0
3.3701 6.2838 -2.8783 -0.253 -0.712 0.655 230 210 183 0 0
3.3918 6.2695 -2.8806 -0.176 -0.720 0.671 231 211 184 0 0
3.3940 6.2503 -2.8794 -0.034 -0.685 0.727 230 210 183 0 0
3.4489 6.2375 -2.8872 -0.459 -0.596 0.659 227 210 182 0 0
3.4580 6.2279 -2.8879 -0.434 -0.683 0.587 226 209 181 0 0
3.7784 6.0282 -2.9230 -0.207 -0.656 0.726 231 212 185 0 0
3.8476 6.0110 -2.9328 0.044 -0.824 0.565 228 208 181 0 0
3.8485 5.9916 -2.9313 -0.388 -0.655 0.648 227 207 180 0 0
3.8600 5.9853 -2.9327 -0.396 -0.801 0.449 228 208 181 0 0
3.8702 5.9774 -2.9337 -0.560 -0.675 0.480 228 208 181 0 0
3.8781 5.9666 -2.9340 -0.405 -0.901 0.159 229 209 182 0 0
3.8979 5.9704 -2.9375 -0.754 -0.643 -0.135 228 209 183 0 0
3.9014 5.9342 -2.9352 -0.497 -0.740 0.454 227 208 180 0 0
3.9115 5.9262 -2.9361 -0.356 -0.694 0.626 229 210 182 0 0
3.9230 5.9199 -2.9375 -0.284 -0.720 0.633 230 210 183 0 0
4.1354 5.8123 -2.9628 -0.576 -0.397 0.715 228 209 179 0 0
4.3209 5.6743 -2.9814 -0.324 -0.725 0.607 220 199 166 0 0
4.3432 5.6609 -2.9838 -0.133 -0.928 0.348 205 181 146 0 0
0.6101 11.2139 -2.8533 -0.969 -0.112 0.219 231 227 224 0 0
0.9769 11.0512 -2.8990 -0.906 -0.245 -0.346 218 213 209 0 0
2.5862 8.9412 -2.9844 0.406 -0.852 -0.330 121 75 59 0 0
3.0907 9.2740 -3.0932 0.152 -0.935 -0.320 109 71 59 0 0
3.3082 9.4971 -3.1466 0.026 -0.734 0.678 118 75 64 0 0
3.3257 9.4939 -3.1492 -0.140 -0.715 0.685 106 66 55 0 0
3.3416 9.4874 -3.1512 -0.138 -0.629 0.765 110 80 71 0 0
3.3361 9.4364 -3.1461 -0.448 -0.104 0.888 164 144 137 0 0
3.3433 9.4122 -3.1453 -0.448 -0.104 0.888 184 175 166 0 0
3.3509 9.3886 -3.1446 -0.424 -0.105 0.899 187 179 170 0 0
3.3569 9.3621 -3.1433 -0.256 -0.120 0.959 190 179 170 0 0
3.1549 6.3860 -2.8652 -0.672 -0.534 0.513 229 209 183 0 0
3.1632 6.3751 -2.8656 -0.672 -0.534 0.513 227 208 180 0 0
3.1775 6.3732 -2.8678 -0.770 -0.429 0.473 225 205 178 0 0
3.1880 6.3654 -2.8688 -0.260 -0.879 0.399 227 207 180 0 0
3.2084 6.3493 -2.8708 -0.302 -0.669 0.679 226 206 179 0 0
3.2195 6.3425 -2.8720 -0.169 -0.683 0.711 227 208 181 0 0
3.2480 6.3153 -2.8744 -0.049 -0.729 0.683 224 204 177 0 0
3.3243 6.2662 -2.8826 -0.341 -0.697 0.631 228 210 182 0 0
3.4540 6.2025 -2.8983 -0.104 -0.782 0.615 227 210 182 0 0
3.7783 6.0094 -2.9346 -0.369 -0.534 0.761 231 211 184 0 0
3.8664 5.9746 -2.9460 -0.396 -0.801 0.449 229 209 183 0 0
3.8906 5.9634 -2.9490 -0.273 -0.908 0.317 228 208 181 0 0
3.8933 5.9263 -2.9463 -0.356 -0.694 0.626 225 205 178 0 0
3.9038 5.9189 -2.9474 -0.417 -0.634 0.652 226 207 180 0 0
3.9155 5.9129 -2.9488 -0.284 -0.720 0.633 225 208 180 0 0
3.9237 5.9027 -2.9493 -0.805 -0.288 0.518 226 209 180 0 0
4.3231 5.6598 -2.9936 -0.114 -0.964 0.240 199 175 139 0 0
0.6562 11.4806 -2.9006 -0.976 0.008 -0.219 231 227 224 0 0
0.9918 10.8945 -2.9058 -0.944 -0.315 0.102 218 209 209 0 0
1.7641 8.5463 -2.8341 -0.532 -0.816 -0.225 158 108 91 0 0
1.7872 8.5255 -2.8361 -0.732 -0.635 -0.248 146 99 82 0 0
1.9384 8.5160 -2.8598 -0.142 -0.837 -0.529 133 86 70 0 0
1.9545 8.5174 -2.8625 -0.088 -0.842 -0.532 131 84 68 0 0
3.3020 9.4880 -3.1623 -0.111 -0.689 0.717 112 72 64 0 0
3.3177 9.4811 -3.1643 -0.140 -0.715 0.685 103 70 60 0 0
3.3339 9.3574 -3.1565 -0.502 -0.124 0.856 192 181 174 0 0
3.3440 9.3394 -3.1566 -0.367 -0.165 0.915 193 180 172 0 0
2.6882 6.5944 -2.8202 -0.134 -0.684 0.717 227 203 175 0 0
2.7010 6.5907 -2.8219 -0.275 -0.635 0.722 225 203 174 0 0
2.7252 6.5810 -2.8251 -0.300 -0.665 0.684 225 204 175 0 0
2.8085 6.5192 -2.8334 -0.567 -0.431 0.702 229 210 181 0 0
2.9043 6.4779 -2.8454 -0.297 -0.719 0.628 227 210 178 0 0
3.1499 6.3808 -2.8771 -0.672 -0.534 0.513 227 207 182 0 0
3.1894 6.3465 -2.8806 -0.139 -0.775 0.617 229 209 182 0 0
3.1951 6.3320 -2.8803 -0.104 -0.710 0.697 229 209 182 0 0
3.3731 6.2253 -2.9002 -0.231 -0.775 0.589 231 211 184 0 0
3.4182 6.1994 -2.9054 -0.448 -0.603 0.659 228 211 183 0 0
3.4467 6.1946 -2.9096 -0.104 -0.782 0.615 229 209 182 0 0
3.8849 5.9585 -2.9608 -0.377 -0.762 0.527 229 209 182 0 0
3.8969 5.9125 -2.9589 -0.337 -0.693 0.637 226 206 179 0 0
3.9995 5.8159 -2.9674 -0.410 -0.834 0.369 224 205 175 0 0
4.0102 5.8088 -2.9685 0.012 -0.894 0.449 221 204 176 0 0
4.1834 5.7163 -2.9888 -0.422 -0.773 0.475 227 207 180 0 0
4.2020 5.7178 -2.9920 -0.174 -0.666 0.726 223 203 176 0 0
4.3183 5.6564 -3.0057 -0.064 -0.992 0.111 204 180 142 0 0
0.9967 10.8479 -2.9201 -0.841 -0.540 -0.045 218 212 211 0 0
1.0412 10.7494 -2.9189 -0.903 -0.421 -0.081 216 208 206 0 0
1.0537 10.7310 -2.9194 -0.866 -0.435 -0.245 215 207 206 0 0
1.0649 10.7077 -2.9193 -0.897 -0.408 -0.172 209 202 199 0 0
1.8643 8.4879 -2.8603 -0.248 -0.917 -0.314 143 94 79 0 0
1.8818 8.4933 -2.8636 -0.160 -0.871 -0.464 131 83 68 0 0
1.9426 8.5310 -2.8768 -0.025 -0.991 -0.132 133 84 69 0 0
2.0978 8.6060 -2.9084 0.216 -0.902 -0.375 131 84 71 0 0
2.2895 8.7617 -2.9529 0.404 -0.865 -0.298 119 73 59 0 0
2.5682 8.9469 -3.0141 0.373 -0.770 -0.518 117 73 57 0 0
3.2935 9.4740 -3.1771 -0.128 -0.698 0.705 99 75 65 0 0
3.3219 9.3365 -3.1700 -0.500 -0.183 0.847 192 182 173 0 0
3.3732 9.3253 -3.1774 -0.131 -0.808 0.575 194 183 173 0 0
2.8028 6.5121 -2.8449 -0.623 -0.461 0.632 226 207 176 0 0
2.8119 6.5023 -2.8455 -0.493 -0.598 0.631 223 204 175 0 0
3.5884 6.0844 -2.9364 -0.429 -0.512 0.744 224 203 176 0 0
3.6390 6.0656 -2.9430 -0.169 -0.738 0.653 226 206 180 0 0
3.7114 6.0120 -2.9502 -0.504 -0.514 0.695 227 208 177 0 0
3.7304 6.0152 -2.9536 -0.155 -0.880 0.450 228 209 179 0 0
3.7416 6.0087 -2.9549 -0.283 -0.824 0.491 227 208 179 0 0
3.8897 5.9057 -2.9702 -0.337 -0.693 0.637 230 210 184 0 0
3.9156 5.8768 -2.9720 -0.846 -0.312 0.433 227 208 178 0 0
