ply
format ascii 1.0
element vertex 822
property float x
property float y
property float z
property float nx
property float ny
property float nz
property uchar diffuse_red
property uchar diffuse_green
property uchar diffuse_blue
property uchar class
property uchar detection
end_header
2.6151 7.4416 -2.9582 -0.988 0.046 -0.148 205 177 142 0 0
2.6108 7.4228 -2.9609 -0.843 -0.221 -0.490 205 176 142 0 0
2.5898 7.2515 -2.9947 -0.937 -0.130 -0.325 208 183 152 0 0
2.5901 7.2361 -2.9988 -0.978 0.082 -0.193 208 184 151 0 0
2.5890 7.1887 -3.0103 -0.975 -0.191 -0.113 207 183 147 0 0
2.6068 6.9693 -3.0746 -0.977 -0.187 -0.099 206 182 146 0 0
2.6098 6.9559 -3.0795 -0.977 -0.187 -0.099 205 181 145 0 0
2.6129 6.9426 -3.0843 -0.971 -0.150 -0.184 206 182 148 0 0
2.6421 6.8239 -3.1283 -0.953 -0.192 -0.234 202 178 142 0 0
2.6471 6.8118 -3.1337 -0.893 -0.353 -0.280 204 180 145 0 0
2.8000 6.5542 -3.2711 -0.846 -0.426 -0.322 197 173 140 0 0
0.8285 10.8764 -1.2609 -0.179 -0.971 0.161 174 152 144 0 0
0.8386 10.8698 -1.2673 -0.545 -0.688 0.479 163 119 107 0 0
0.8429 10.8548 -1.2732 -0.609 -0.435 0.663 168 119 101 0 0
0.8484 10.8414 -1.2791 -0.883 0.035 0.467 190 138 118 0 0
0.8092 10.6813 -1.3014 -0.502 -0.044 0.864 177 129 109 0 0
0.7978 10.6447 -1.3053 -0.675 0.121 0.728 187 139 118 0 0
0.8207 10.4715 -1.3601 -0.392 -0.592 0.704 191 151 133 0 0
0.8253 10.4575 -1.3658 -0.422 -0.435 0.795 189 149 131 0 0
0.8292 10.4425 -1.3715 -0.448 -0.403 0.798 197 159 140 0 0
0.9469 10.2577 -1.4738 -0.283 -0.511 0.812 186 144 127 0 0
0.9545 10.2477 -1.4800 -0.201 -0.601 0.774 157 114 97 0 0
1.0060 10.1751 -1.5226 -0.497 -0.377 0.782 187 146 128 0 0
1.0080 10.1579 -1.5280 -0.391 -0.539 0.746 197 158 139 0 0
1.2387 9.7406 -1.7426 -0.455 -0.451 0.768 167 120 102 0 0
1.4584 9.3482 -1.9457 -0.272 -0.618 0.737 177 128 106 0 0
1.5124 9.2399 -1.9986 -0.352 -0.635 0.688 174 116 94 0 0
1.5779 9.1254 -2.0586 -0.267 -0.716 0.645 193 141 119 0 0
1.5896 9.1191 -2.0657 -0.413 -0.505 0.758 173 121 100 0 0
1.6122 9.0876 -2.0843 -0.809 -0.267 0.524 172 121 99 0 0
1.6173 9.0567 -2.0946 -0.529 -0.420 0.738 171 120 99 0 0
1.6292 9.0326 -2.1063 -0.301 -0.541 0.785 190 142 120 0 0
1.7102 8.8795 -2.1833 -0.310 -0.551 0.775 175 122 99 0 0
1.7163 8.8676 -2.1892 -0.465 -0.408 0.786 168 111 89 0 0
1.7620 8.7872 -2.2312 -0.168 -0.721 0.673 170 120 98 0 0
1.7695 8.7766 -2.2374 -0.612 -0.443 0.655 183 132 112 0 0
1.7669 8.7567 -2.2413 -0.502 -0.470 0.726 174 123 104 0 0
1.8432 8.6345 -2.3082 -0.419 -0.387 0.822 178 126 103 0 0
3.5905 9.0071 -3.0361 0.093 -0.785 -0.612 212 205 197 0 0
3.6187 8.9894 -3.0539 0.032 -0.816 -0.578 210 204 197 0 0
3.6634 9.0035 -3.0714 0.032 -0.816 -0.578 179 173 160 0 0
3.1098 8.4583 -2.9493 -0.714 0.677 0.177 149 115 78 0 0
3.0260 8.3786 -2.9301 -0.771 0.598 0.221 155 121 84 0 0
2.9963 8.3388 -2.9262 -0.771 0.598 0.221 159 124 85 0 0
2.9668 8.2994 -2.9223 -0.771 0.598 0.221 163 128 88 0 0
2.9266 8.2523 -2.9154 -0.903 0.429 0.005 168 133 93 0 0
2.8909 8.1912 -2.9141 -0.837 0.543 0.067 174 140 101 0 0
2.8730 8.1433 -2.9178 -0.906 0.419 0.049 169 136 97 0 0
2.8679 8.1222 -2.9208 -0.859 0.497 0.121 177 144 105 0 0
2.7898 8.0147 -2.9113 -0.886 0.409 0.219 187 155 116 0 0
2.7816 7.9918 -2.9133 -0.895 0.433 0.105 186 153 114 0 0
2.7475 7.9167 -2.9163 -0.910 0.409 0.063 188 156 117 0 0
2.7337 7.8734 -2.9208 -0.897 0.436 0.080 195 162 124 0 0
2.7004 7.7833 -2.9280 -0.943 0.331 -0.022 196 165 127 0 0
2.6498 7.6334 -2.9423 -0.893 -0.243 -0.379 203 175 138 0 0
2.6540 7.6199 -2.9477 -0.926 -0.058 -0.372 202 173 137 0 0
2.6535 7.6033 -2.9517 -0.983 0.147 -0.107 205 176 142 0 0
2.6455 7.5817 -2.9534 -0.971 0.238 -0.018 198 170 133 0 0
2.6191 7.4996 -2.9619 -0.987 0.123 0.100 202 173 137 0 0
2.6140 7.4802 -2.9644 -0.999 -0.030 -0.014 207 179 145 0 0
2.5854 7.2558 -3.0079 -0.948 -0.065 -0.311 208 183 151 0 0
2.5901 7.2120 -3.0213 -0.984 -0.128 -0.125 205 181 145 0 0
2.5819 7.1913 -3.0226 -0.834 -0.526 0.165 204 180 144 0 0
2.5881 7.1333 -3.0403 -0.979 -0.007 -0.204 207 184 151 0 0
2.5969 7.1078 -3.0509 -0.938 -0.280 -0.206 205 181 146 0 0
2.5895 7.0879 -3.0525 -0.911 -0.235 -0.340 203 179 145 0 0
2.5970 7.0618 -3.0627 -0.936 -0.107 -0.334 204 180 144 0 0
2.6680 6.8004 -3.1625 -0.829 -0.447 -0.335 204 180 146 0 0
2.6763 6.7902 -3.1690 -0.811 -0.473 -0.344 208 183 152 0 0
2.7152 6.6926 -3.2121 -0.977 -0.180 -0.118 204 181 149 0 0
2.7646 6.6305 -3.2512 -0.860 -0.339 -0.382 198 176 142 0 0
2.7949 6.5875 -3.2763 -0.944 -0.256 -0.208 198 172 139 0 0
0.7360 10.8599 -1.2381 -0.696 -0.544 0.469 243 242 240 0 0
0.7438 10.8502 -1.2442 0.109 -0.897 0.428 241 241 239 0 0
0.8114 10.8630 -1.2729 -0.241 -0.449 0.860 163 127 120 0 0
0.8142 10.8459 -1.2786 -0.302 -0.314 0.900 186 135 122 0 0
0.8111 10.8205 -1.2836 -0.409 -0.132 0.903 171 122 103 0 0
0.8038 10.7890 -1.2881 -0.488 -0.017 0.873 179 128 107 0 0
0.7968 10.7581 -1.2926 -0.488 -0.017 0.873 176 125 104 0 0
0.7935 10.7324 -1.2975 -0.352 -0.193 0.916 185 135 113 0 0
0.7931 10.7111 -1.3027 -0.259 -0.259 0.931 191 141 122 0 0
0.7910 10.6873 -1.3078 -0.363 -0.110 0.925 195 145 127 0 0
0.7900 10.6652 -1.3129 -0.513 -0.032 0.858 183 135 116 0 0
0.7825 10.6341 -1.3173 -0.703 0.159 0.693 156 108 88 0 0
0.8074 10.4639 -1.3721 -0.369 -0.458 0.809 170 126 108 0 0
0.8114 10.4490 -1.3778 -0.426 -0.420 0.801 184 140 123 0 0
0.8147 10.4333 -1.3833 -0.480 -0.333 0.811 186 144 126 0 0
0.8618 10.3759 -1.4201 -0.243 -0.619 0.747 177 134 117 0 0
0.8692 10.3656 -1.4262 -0.243 -0.619 0.747 177 134 117 0 0
0.8874 10.3698 -1.4337 -0.418 -0.592 0.689 174 132 114 0 0
0.9288 10.2643 -1.4800 -0.325 -0.416 0.849 201 160 142 0 0
0.9329 10.2496 -1.4856 -0.325 -0.416 0.849 174 131 114 0 0
0.9391 10.2379 -1.4915 -0.245 -0.510 0.825 178 133 116 0 0
0.9880 10.1820 -1.5288 -0.544 -0.364 0.756 193 153 134 0 0
0.9910 10.1661 -1.5342 -0.544 -0.364 0.756 199 158 140 0 0
0.9941 10.1502 -1.5397 -0.544 -0.364 0.756 194 153 133 0 0
0.9971 10.1345 -1.5451 -0.326 -0.514 0.794 191 150 130 0 0
1.0491 10.0429 -1.5929 -0.383 -0.579 0.720 184 142 124 0 0
1.0581 9.9957 -1.6091 -0.439 -0.428 0.790 182 138 119 0 0
1.0741 9.9959 -1.6166 -0.477 -0.548 0.687 188 142 124 0 0
1.0795 9.9831 -1.6224 -0.507 -0.479 0.717 193 146 128 0 0
1.0863 9.9721 -1.6284 -0.262 -0.756 0.599 197 150 131 0 0
1.0938 9.9619 -1.6345 -0.322 -0.666 0.673 194 147 129 0 0
1.3023 9.5772 -1.8304 -0.278 -0.635 0.721 172 129 110 0 0
1.3082 9.5650 -1.8363 -0.196 -0.760 0.619 178 136 118 0 0
1.3845 9.4258 -1.9076 -0.459 -0.323 0.828 179 129 108 0 0
1.4321 9.3294 -1.9544 -0.296 -0.512 0.806 170 121 99 0 0
1.4660 9.2736 -1.9846 -0.473 -0.423 0.773 178 125 104 0 0
1.5660 9.0862 -2.0793 -0.254 -0.584 0.771 182 131 110 0 0
1.5880 9.0543 -2.0977 -0.316 -0.525 0.790 182 132 112 0 0
1.5945 9.0429 -2.1037 -0.341 -0.508 0.791 183 132 112 0 0
1.6201 9.0145 -2.1230 -0.210 -0.759 0.616 201 152 130 0 0
1.6320 8.9548 -2.1437 -0.470 -0.542 0.697 183 128 106 0 0
1.6434 8.9304 -2.1553 -0.347 -0.653 0.673 182 127 106 0 0
1.7039 8.8644 -2.2006 -0.530 -0.461 0.712 185 129 107 0 0
1.7076 8.8503 -2.2059 -0.574 -0.416 0.706 175 119 96 0 0
1.7113 8.8361 -2.2112 -0.574 -0.416 0.706 182 125 103 0 0
1.7170 8.8240 -2.2170 -0.530 -0.461 0.712 192 136 114 0 0
2.0502 8.4604 -2.4665 -0.083 -0.880 0.468 180 130 108 0 0
2.0641 8.4549 -2.4744 -0.190 -0.790 0.583 179 129 106 0 0
3.6196 8.9992 -3.0713 0.102 -0.839 -0.534 210 204 197 0 0
3.6700 9.0177 -3.0905 0.113 -0.839 -0.532 178 172 159 0 0
3.1187 8.4734 -2.9679 -0.716 0.668 0.205 149 115 79 0 0
3.0087 8.3562 -2.9456 -0.764 0.617 0.190 160 125 87 0 0
2.9762 8.3145 -2.9408 -0.764 0.617 0.190 166 131 93 0 0
2.9328 8.2650 -2.9328 -0.888 0.457 -0.049 166 131 93 0 0
2.9196 8.2378 -2.9335 -0.837 0.543 0.067 164 129 91 0 0
2.8675 8.1301 -2.9362 -0.875 0.456 0.160 176 144 105 0 0
2.7845 8.0018 -2.9295 -0.895 0.433 0.105 191 159 120 0 0
2.7105 7.8314 -2.9376 -0.957 0.288 -0.043 197 165 127 0 0
2.7016 7.8085 -2.9392 -0.943 0.331 0.025 195 163 125 0 0
2.6939 7.7865 -2.9411 -0.943 0.331 0.025 197 165 126 0 0
2.6538 7.6437 -2.9584 -0.893 -0.243 -0.379 206 178 141 0 0
2.6583 7.6303 -2.9639 -0.998 0.052 -0.043 199 170 136 0 0
2.6570 7.6131 -2.9676 -0.998 0.060 -0.012 204 175 141 0 0
2.6482 7.5910 -2.9691 -0.958 0.249 0.141 204 176 141 0 0
2.6181 7.5062 -2.9763 -0.998 0.017 0.054 204 176 140 0 0
2.6176 7.4898 -2.9802 -0.998 0.017 0.054 204 175 141 0 0
2.5734 7.2086 -3.0306 -0.839 -0.237 0.490 210 186 151 0 0
2.5745 7.1937 -3.0348 -0.634 -0.772 -0.039 208 184 149 0 0
2.6043 7.1193 -3.0678 -0.867 -0.258 -0.426 207 182 149 0 0
2.6081 7.0448 -3.0885 -0.936 -0.107 -0.334 207 183 147 0 0
2.6699 6.8082 -3.1775 -0.829 -0.447 -0.335 202 177 145 0 0
2.6786 6.7981 -3.1842 -0.760 -0.509 -0.403 203 178 147 0 0
2.7261 6.6903 -3.2339 -0.986 -0.145 -0.087 203 179 147 0 0
0.7501 10.9128 -1.2480 -0.233 -0.907 -0.352 242 242 240 0 0
0.7278 10.8592 -1.2510 -0.696 -0.544 0.469 241 241 239 0 0
0.7303 10.8417 -1.2566 -0.277 -0.843 0.461 241 241 239 0 0
0.7958 10.8518 -1.2851 -0.210 -0.392 0.896 175 140 129 0 0
0.7946 10.8289 -1.2903 -0.313 -0.226 0.922 170 124 109 0 0
0.7885 10.7991 -1.2949 -0.406 -0.097 0.909 172 125 107 0 0
0.7843 10.7721 -1.2997 -0.526 0.059 0.849 187 138 116 0 0
0.7733 10.7148 -1.3090 -0.352 -0.193 0.916 189 141 119 0 0
0.7613 10.5945 -1.3337 -0.467 -0.060 0.882 183 137 118 0 0
0.7591 10.5095 -1.3540 -0.299 -0.515 0.803 189 146 129 0 0
0.7701 10.4840 -1.3657 -0.263 -0.602 0.754 194 152 136 0 0
0.7800 10.4774 -1.3721 -0.281 -0.607 0.743 174 132 115 0 0
0.9243 10.2288 -1.5032 -0.346 -0.441 0.828 159 114 96 0 0
0.9622 10.1788 -1.5337 -0.147 -0.726 0.672 194 155 138 0 0
0.9798 10.1422 -1.5513 -0.515 -0.299 0.803 206 164 144 0 0
1.0362 10.0368 -1.6046 -0.383 -0.579 0.720 199 157 136 0 0
1.0334 10.0138 -1.6091 -0.386 -0.363 0.848 195 152 133 0 0
1.0422 9.9859 -1.6203 -0.345 -0.443 0.828 187 142 124 0 0
1.0622 9.9911 -1.6285 -0.482 -0.489 0.727 194 148 132 0 0
1.0671 9.9778 -1.6342 -0.482 -0.489 0.727 196 150 131 0 0
1.0732 9.9659 -1.6401 -0.442 -0.652 0.616 190 143 123 0 0
1.1148 9.9005 -1.6763 -0.198 -0.680 0.706 161 115 98 0 0
1.2804 9.5807 -1.8355 -0.440 -0.474 0.763 190 150 132 0 0
1.2881 9.5706 -1.8417 -0.346 -0.775 0.529 182 142 125 0 0
1.2964 9.5612 -1.8480 -0.228 -0.912 0.341 206 164 148 0 0
1.3053 9.5525 -1.8544 -0.156 -0.897 0.414 179 133 118 0 0
1.4662 9.2282 -2.0125 -0.199 -0.665 0.720 185 131 110 0 0
1.6201 8.9519 -2.1552 -0.337 -0.560 0.757 181 127 106 0 0
1.6295 8.9255 -2.1663 -0.529 -0.431 0.731 198 145 124 0 0
1.6665 8.8904 -2.1927 -0.272 -0.590 0.761 187 134 113 0 0
1.6975 8.8317 -2.2222 -0.507 -0.387 0.770 188 136 113 0 0
1.7147 8.7951 -2.2395 -0.403 -0.508 0.761 138 86 64 0 0
1.7174 8.7801 -2.2446 -0.453 -0.509 0.732 179 127 105 0 0
1.8027 8.6494 -2.3180 -0.442 -0.389 0.808 196 141 120 0 0
1.8855 8.5159 -2.3910 -0.491 -0.778 0.391 195 148 130 0 0
1.8951 8.5071 -2.3977 -0.481 -0.760 0.436 177 130 109 0 0
1.9040 8.4977 -2.4043 -0.481 -0.760 0.436 175 129 108 0 0
2.0590 8.4416 -2.4920 -0.319 -0.677 0.663 173 124 101 0 0
2.0870 8.3964 -2.5166 -0.496 -0.278 0.823 143 95 74 0 0
4.2229 9.6987 -3.2003 0.468 -0.878 -0.104 208 199 192 0 0
4.1024 9.5833 -3.1723 0.491 -0.871 -0.015 208 200 192 0 0
3.5738 8.9932 -3.0707 0.102 -0.839 -0.534 212 204 199 0 0
3.6235 9.0113 -3.0897 0.102 -0.839 -0.534 211 204 197 0 0
3.6740 9.0299 -3.1089 0.113 -0.839 -0.532 175 170 157 0 0
3.1903 8.5532 -2.9999 -0.603 0.684 0.411 147 114 80 0 0
3.1010 8.4688 -2.9790 -0.643 0.656 0.394 148 115 80 0 0
3.0454 8.4096 -2.9675 -0.807 0.551 0.211 151 117 81 0 0
3.0066 8.3630 -2.9609 -0.805 0.585 0.099 159 125 87 0 0
2.9816 8.3268 -2.9582 -0.802 0.590 0.093 160 125 87 0 0
2.9549 8.2894 -2.9550 -0.848 0.513 0.133 163 128 90 0 0
2.8757 8.1440 -2.9541 -0.835 0.472 0.283 181 149 113 0 0
2.7562 7.9385 -2.9493 -0.885 0.459 -0.080 188 156 117 0 0
2.7408 7.8939 -2.9533 -0.902 0.431 -0.007 193 161 120 0 0
2.7060 7.8025 -2.9598 -0.961 0.278 0.013 198 164 125 0 0
2.6720 7.6963 -2.9705 -0.973 0.231 -0.006 203 175 138 0 0
2.6654 7.6755 -2.9727 -0.985 0.171 -0.003 200 172 135 0 0
2.6579 7.6539 -2.9745 -0.893 -0.243 -0.379 206 178 141 0 0
2.6616 7.6401 -2.9798 -0.988 0.055 -0.143 202 173 139 0 0
2.6630 7.6247 -2.9843 -0.981 -0.009 -0.194 202 173 139 0 0
2.6546 7.6027 -2.9859 -0.969 0.185 -0.161 211 182 147 0 0
2.6063 7.4577 -2.9996 -0.997 0.019 -0.071 206 177 143 0 0
2.6173 7.4489 -3.0070 -0.987 -0.030 0.161 200 171 137 0 0
2.6006 7.3269 -3.0299 -0.971 0.028 -0.237 203 179 144 0 0
2.5705 7.1983 -3.0481 -0.675 -0.735 0.061 210 186 152 0 0
2.5824 7.1902 -3.0558 -0.886 -0.400 0.236 206 182 148 0 0
2.5867 7.1774 -3.0611 -0.886 -0.400 0.236 208 184 150 0 0
2.5985 7.1691 -3.0687 -0.639 -0.767 0.061 204 180 146 0 0
2.5948 7.1514 -3.0715 -0.778 -0.621 0.096 202 178 144 0 0
2.7112 6.7483 -3.2284 -0.807 -0.590 0.018 202 179 147 0 0
0.6880 10.8333 -1.2551 -0.096 -0.986 -0.138 242 242 240 0 0
0.7202 10.8381 -1.2692 -0.277 -0.843 0.461 241 241 239 0 0
0.7382 10.5115 -1.3599 -0.345 -0.460 0.818 187 144 127 0 0
0.7443 10.4996 -1.3658 -0.299 -0.515 0.803 182 142 124 0 0
0.7500 10.4872 -1.3716 -0.299 -0.515 0.803 192 154 137 0 0
0.7558 10.4748 -1.3775 -0.299 -0.515 0.803 180 142 124 0 0
0.7664 10.4692 -1.3840 -0.281 -0.607 0.743 188 146 130 0 0
0.8941 10.2394 -1.5025 -0.273 -0.502 0.821 180 137 121 0 0
0.9000 10.2273 -1.5083 -0.235 -0.514 0.825 204 160 144 0 0
0.9078 10.2176 -1.5145 -0.310 -0.495 0.811 193 149 133 0 0
0.9154 10.2076 -1.5206 -0.255 -0.548 0.797 197 154 137 0 0
0.9827 10.0970 -1.5804 -0.456 -0.467 0.758 177 133 115 0 0
0.9857 10.0811 -1.5858 -0.526 -0.529 0.666 178 134 116 0 0
0.9911 10.0684 -1.5916 -0.380 -0.645 0.663 199 156 138 0 0
1.0296 9.9802 -1.6321 -0.400 -0.432 0.808 189 143 124 0 0
1.0647 9.9654 -1.6525 -0.326 -0.469 0.821 183 137 119 0 0
1.1626 9.7566 -1.7516 -0.439 -0.589 0.678 192 154 141 0 0
1.3004 9.5376 -1.8722 -0.181 -0.759 0.626 189 142 127 0 0
1.2983 9.4980 -1.8811 -0.493 -0.425 0.759 193 145 125 0 0
1.3035 9.4852 -1.8868 -0.460 -0.422 0.782 195 148 129 0 0
1.3727 9.3944 -1.9426 -0.445 -0.483 0.754 193 142 121 0 0
1.3779 9.3816 -1.9483 -0.439 -0.516 0.735 195 144 123 0 0
1.3832 9.3689 -1.9540 -0.439 -0.516 0.735 193 142 121 0 0
1.4333 9.2573 -2.0058 -0.459 -0.296 0.838 182 133 114 0 0
1.5416 9.0614 -2.1066 -0.342 -0.591 0.730 184 132 111 0 0
1.5484 9.0504 -2.1126 -0.367 -0.581 0.726 193 141 120 0 0
1.5549 9.0389 -2.1186 -0.367 -0.581 0.726 185 133 112 0 0
1.5614 9.0275 -2.1245 -0.339 -0.615 0.712 184 132 111 0 0
1.6706 8.8323 -2.2256 -0.353 -0.546 0.759 180 128 106 0 0
1.6933 8.8010 -2.2442 -0.365 -0.501 0.785 175 122 104 0 0
1.6981 8.7881 -2.2498 -0.395 -0.552 0.734 142 91 72 0 0
1.7040 8.7761 -2.2556 -0.395 -0.552 0.734 178 127 108 0 0
1.7938 8.5978 -2.3431 -0.472 -0.526 0.708 184 137 119 0 0
1.7992 8.5853 -2.3488 -0.472 -0.526 0.708 185 139 120 0 0
1.8851 8.5066 -2.4095 -0.392 -0.742 0.544 166 118 96 0 0
2.0372 8.4486 -2.4964 -0.227 -0.616 0.754 177 126 105 0 0
2.0755 8.4121 -2.5238 -0.073 -0.847 0.526 150 103 82 0 0
4.0708 9.5685 -3.1818 0.495 -0.869 0.024 206 199 191 0 0
3.5694 8.9990 -3.0866 0.155 -0.864 -0.479 210 205 199 0 0
3.6205 9.0183 -3.1061 0.152 -0.860 -0.488 208 204 197 0 0
3.6742 9.0393 -3.1263 0.152 -0.860 -0.488 173 165 153 0 0
3.1928 8.5637 -3.0170 -0.602 0.681 0.417 145 112 78 0 0
3.0995 8.4761 -2.9946 -0.658 0.674 0.336 145 111 74 0 0
3.0442 8.4171 -2.9832 -0.775 0.603 0.190 148 114 77 0 0
3.0002 8.3667 -2.9750 -0.793 0.607 0.060 156 123 87 0 0
2.9897 8.3411 -2.9764 -0.805 0.590 0.065 165 131 94 0 0
2.9591 8.3007 -2.9720 -0.848 0.513 0.133 160 125 87 0 0
2.8747 8.1514 -2.9694 -0.835 0.472 0.283 173 143 105 0 0
2.8088 8.0349 -2.9673 -0.845 0.479 0.237 187 156 118 0 0
2.7651 7.9527 -2.9673 -0.885 0.455 -0.095 193 162 123 0 0
2.7506 7.9255 -2.9672 -0.863 0.480 0.160 186 157 117 0 0
2.7006 7.8065 -2.9733 -0.904 0.355 0.240 191 158 120 0 0
2.6839 7.7617 -2.9767 -0.946 0.301 -0.122 195 164 126 0 0
2.6780 7.7411 -2.9790 -0.920 0.366 0.139 200 170 132 0 0
2.6742 7.7055 -2.9862 -0.973 0.231 -0.006 202 173 139 0 0
2.6670 7.6841 -2.9881 -0.985 0.171 -0.003 202 173 140 0 0
2.6620 7.6642 -2.9907 -0.893 -0.243 -0.379 204 175 141 0 0
2.6652 7.6500 -2.9958 -0.996 0.062 -0.068 200 171 137 0 0
2.6648 7.6334 -2.9999 -0.994 0.037 -0.103 206 177 143 0 0
2.6622 7.6153 -3.0032 -0.969 0.236 -0.069 205 177 142 0 0
2.6140 7.4700 -3.0167 -0.990 0.094 -0.103 201 173 139 0 0
2.6174 7.4563 -3.0218 -0.992 0.007 0.129 205 176 142 0 0
2.6306 7.4328 -3.0340 -0.976 -0.211 -0.059 205 177 142 0 0
2.6210 7.3948 -3.0390 -0.962 -0.084 -0.261 207 183 149 0 0
2.5931 7.1728 -3.0815 -0.707 -0.701 -0.094 206 182 148 0 0
2.7211 6.7305 -3.2536 -0.846 -0.466 -0.259 202 179 145 0 0
2.8185 6.6048 -3.3316 -0.951 -0.266 -0.156 202 178 145 0 0
2.8806 6.5191 -3.3827 -0.770 -0.557 -0.312 198 178 145 0 0
3.0485 6.3823 -3.4969 -0.935 -0.231 -0.270 197 177 146 0 0
0.7366 10.8307 -1.2954 -0.155 -0.509 0.847 186 168 165 0 0
0.7508 10.8092 -1.3076 -0.331 -0.199 0.922 179 154 140 0 0
0.7502 10.7872 -1.3128 -0.318 -0.223 0.921 195 160 143 0 0
0.7402 10.7519 -1.3169 -0.383 -0.084 0.920 193 143 128 0 0
0.7240 10.5022 -1.3717 -0.299 -0.515 0.803 193 151 134 0 0
0.7253 10.4837 -1.3770 -0.250 -0.567 0.785 188 148 130 0 0
0.7345 10.4762 -1.3833 -0.310 -0.454 0.835 191 154 136 0 0
0.7411 10.4651 -1.3892 -0.299 -0.515 0.803 191 152 135 0 0
0.7468 10.4527 -1.3950 -0.299 -0.515 0.803 203 160 143 0 0
0.7770 10.3931 -1.4244 -0.414 -0.501 0.760 179 132 115 0 0
0.8915 10.2065 -1.5258 -0.281 -0.528 0.802 196 149 132 0 0
0.9002 10.1980 -1.5320 -0.255 -0.548 0.797 193 145 128 0 0
0.9197 10.1641 -1.5499 -0.123 -0.608 0.784 172 126 110 0 0
0.9668 10.0868 -1.5917 -0.404 -0.567 0.718 191 145 127 0 0
0.9749 10.0775 -1.5979 -0.571 -0.545 0.614 183 138 119 0 0
0.9846 10.0506 -1.6092 -0.397 -0.601 0.694 204 159 140 0 0
1.0017 9.9943 -1.6316 -0.315 -0.436 0.843 201 155 135 0 0
1.0096 9.9847 -1.6377 -0.331 -0.478 0.814 186 140 120 0 0
1.0152 9.9722 -1.6435 -0.400 -0.432 0.808 177 130 111 0 0
1.0193 9.9580 -1.6490 -0.400 -0.432 0.808 188 141 121 0 0
1.0252 9.9459 -1.6549 -0.404 -0.491 0.772 176 129 110 0 0
1.1966 9.6355 -1.8144 -0.414 -0.490 0.767 170 124 108 0 0
1.2861 9.4937 -1.8927 -0.567 -0.379 0.731 193 145 125 0 0
1.2893 9.4787 -1.8979 -0.567 -0.379 0.731 182 135 115 0 0
1.3175 9.4358 -1.9222 -0.235 -0.632 0.739 193 145 125 0 0
1.4136 9.2639 -2.0111 -0.542 -0.326 0.775 186 136 117 0 0
1.6560 8.8270 -2.2362 -0.379 -0.586 0.716 200 148 126 0 0
1.6621 8.8152 -2.2421 -0.308 -0.541 0.782 195 143 121 0 0
1.6818 8.7812 -2.2600 -0.402 -0.509 0.761 188 136 116 0 0
1.6902 8.7716 -2.2664 -0.395 -0.552 0.734 184 133 112 0 0
2.0505 8.3993 -2.5317 -0.166 -0.729 0.664 149 102 80 0 0
4.0049 9.5478 -3.1764 0.503 -0.851 0.149 207 198 189 0 0
3.7693 9.2612 -3.1357 -0.148 -0.402 0.904 208 204 198 0 0
3.5838 9.0192 -3.1079 0.137 -0.915 -0.380 209 204 198 0 0
3.6294 9.0342 -3.1259 0.101 -0.916 -0.388 206 203 196 0 0
3.6707 9.0459 -3.1427 0.101 -0.916 -0.388 173 165 153 0 0
3.2060 8.5822 -3.0371 -0.642 0.678 0.358 145 113 80 0 0
3.1256 8.5040 -3.0184 -0.696 0.691 0.196 143 110 74 0 0
3.0516 8.4310 -3.0014 -0.791 0.610 0.034 149 116 79 0 0
3.0161 8.3868 -2.9955 -0.788 0.606 0.110 158 125 89 0 0
2.9988 8.3561 -2.9950 -0.797 0.596 0.100 160 127 89 0 0
2.9628 8.3118 -2.9889 -0.815 0.541 0.205 162 127 89 0 0
2.8881 8.1867 -2.9846 -0.888 0.441 0.129 171 141 104 0 0
2.8737 8.1587 -2.9847 -0.835 0.472 0.283 174 144 108 0 0
2.8594 8.1310 -2.9848 -0.855 0.475 0.209 180 150 114 0 0
2.8278 8.0737 -2.9841 -0.858 0.484 0.172 181 152 115 0 0
2.8117 8.0449 -2.9836 -0.858 0.484 0.172 189 159 121 0 0
2.7950 8.0159 -2.9829 -0.884 0.464 0.062 190 159 121 0 0
2.7877 7.9936 -2.9851 -0.903 0.430 0.006 183 150 112 0 0
2.7386 7.9079 -2.9831 -0.881 0.452 0.139 199 166 128 0 0
2.6997 7.8136 -2.9882 -0.937 0.282 0.205 196 164 126 0 0
2.6849 7.7700 -2.9920 -0.938 0.343 -0.052 199 168 130 0 0
2.6804 7.7504 -2.9948 -0.905 0.345 0.251 202 172 135 0 0
2.6742 7.7295 -2.9971 -0.980 0.170 0.108 203 175 138 0 0
2.6706 7.7105 -3.0001 -0.980 0.170 0.108 199 170 134 0 0
2.6689 7.6929 -3.0037 -0.995 0.097 0.008 202 173 139 0 0
2.6666 7.6749 -3.0071 -0.943 -0.124 -0.310 196 167 133 0 0
2.6642 7.6569 -3.0105 -0.982 0.158 -0.100 203 174 140 0 0
2.6627 7.6395 -3.0142 -0.989 0.132 -0.064 204 175 141 0 0
2.6641 7.6241 -3.0187 -0.969 0.185 -0.161 205 177 143 0 0
2.6509 7.5826 -3.0228 -0.958 0.287 -0.009 201 175 138 0 0
2.6388 7.5583 -3.0231 -0.948 0.279 -0.153 198 172 136 0 0
2.6250 7.4846 -3.0350 -1.000 0.014 0.005 206 178 143 0 0
2.6014 7.3260 -3.0635 -0.942 0.001 -0.336 205 181 147 0 0
2.6124 7.1298 -3.1179 -0.943 -0.200 -0.265 204 182 148 0 0
2.6342 6.9741 -3.1673 -0.974 -0.218 -0.056 203 179 143 0 0
2.6375 6.9608 -3.1722 -0.974 -0.218 -0.056 202 178 142 0 0
2.7232 6.7533 -3.2651 -0.947 -0.281 -0.159 205 182 149 0 0
2.7207 6.7369 -3.2680 -0.944 -0.282 -0.169 197 174 141 0 0
2.7279 6.7260 -3.2742 -0.901 -0.428 -0.066 199 176 144 0 0
0.7305 10.8330 -1.3085 -0.327 -0.275 0.904 165 152 147 0 0
0.7330 10.8154 -1.3141 -0.357 -0.239 0.903 165 148 139 0 0
0.7305 10.7909 -1.3190 -0.345 -0.189 0.919 190 178 159 0 0
0.7250 10.7620 -1.3236 -0.383 -0.114 0.917 199 174 155 0 0
0.7180 10.7311 -1.3280 -0.383 -0.084 0.920 199 157 140 0 0
0.7027 10.6469 -1.3417 -0.677 0.109 0.728 191 142 123 0 0
0.7240 10.4723 -1.3955 -0.151 -0.684 0.714 203 164 146 0 0
0.8110 10.2891 -1.4829 -0.268 -0.531 0.804 203 162 145 0 0
0.8746 10.1946 -1.5369 -0.432 -0.371 0.822 184 137 117 0 0
0.8826 10.1853 -1.5431 -0.351 -0.508 0.787 183 133 114 0 0
0.8913 10.1769 -1.5494 -0.187 -0.658 0.730 186 135 118 0 0
0.9436 10.0870 -1.5969 -0.301 -0.478 0.825 194 146 126 0 0
0.9513 10.0771 -1.6030 -0.415 -0.619 0.667 188 140 120 0 0
0.9580 10.0662 -1.6089 -0.415 -0.619 0.667 179 131 111 0 0
0.9790 10.0341 -1.6270 -0.599 -0.472 0.647 173 126 106 0 0
0.9944 9.9756 -1.6490 -0.350 -0.487 0.800 194 145 123 0 0
1.0382 9.9331 -1.6805 -0.354 -0.447 0.822 193 147 131 0 0
1.0573 9.8987 -1.6983 -0.277 -0.631 0.725 177 133 116 0 0
1.0647 9.8692 -1.7092 -0.559 -0.458 0.691 181 135 119 0 0
1.0691 9.8553 -1.7148 -0.559 -0.458 0.691 174 128 112 0 0
1.0735 9.8415 -1.7203 -0.559 -0.458 0.691 184 140 122 0 0
1.0879 9.8206 -1.7324 -0.463 -0.478 0.747 181 140 122 0 0
1.1497 9.7227 -1.7865 -0.559 -0.572 0.600 202 164 149 0 0
1.1956 9.6251 -1.8328 -0.351 -0.684 0.640 195 149 133 0 0
1.2274 9.5677 -1.8624 -0.610 -0.477 0.633 192 146 130 0 0
1.2321 9.5543 -1.8680 -0.610 -0.477 0.633 186 141 125 0 0
1.2411 9.5458 -1.8744 -0.709 -0.392 0.586 175 129 113 0 0
1.2447 9.5312 -1.8798 -0.709 -0.392 0.586 197 151 135 0 0
1.2483 9.5166 -1.8851 -0.709 -0.392 0.586 204 156 140 0 0
1.2497 9.4996 -1.8901 -0.626 -0.523 0.578 206 157 139 0 0
1.4035 9.2622 -2.0229 -0.489 -0.428 0.760 194 143 124 0 0
1.4074 9.2481 -2.0283 -0.600 -0.329 0.729 186 135 117 0 0
1.4355 9.1868 -2.0571 -0.404 -0.581 0.706 178 132 116 0 0
1.4402 9.1737 -2.0627 -0.372 -0.668 0.645 148 101 85 0 0
1.4501 9.1298 -2.0783 -0.481 -0.818 0.314 191 144 128 0 0
1.4613 9.1233 -2.0853 -0.471 -0.766 0.438 170 123 106 0 0
1.4700 9.1143 -2.0918 -0.403 -0.915 0.011 181 132 114 0 0
1.4873 9.0959 -2.1046 -0.575 -0.692 0.436 184 129 111 0 0
1.5663 8.9430 -2.1806 -0.451 -0.536 0.714 194 143 122 0 0
1.6219 8.8382 -2.2334 -0.638 -0.220 0.738 184 133 111 0 0
1.6412 8.8214 -2.2468 -0.462 -0.604 0.649 194 142 120 0 0
1.6770 8.7678 -2.2774 -0.487 -0.580 0.653 206 153 131 0 0
1.6832 8.7560 -2.2833 -0.487 -0.580 0.653 207 153 130 0 0
1.6855 8.7408 -2.2882 -0.587 -0.352 0.729 204 149 125 0 0
1.6978 8.6827 -2.3086 -0.304 -0.910 0.281 186 132 110 0 0
1.9628 8.4531 -2.4928 -0.393 -0.916 0.077 179 129 106 0 0
2.0355 8.3949 -2.5421 -0.121 -0.649 0.751 157 106 85 0 0
2.0380 8.3799 -2.5471 -0.246 -0.346 0.906 144 94 73 0 0
3.5828 9.0276 -3.1248 0.149 -0.938 -0.312 209 204 198 0 0
3.6247 9.0399 -3.1418 0.149 -0.938 -0.312 207 204 196 0 0
3.6678 9.0529 -3.1592 0.137 -0.942 -0.305 169 160 147 0 0
3.1986 8.5853 -3.0514 -0.667 0.676 0.313 149 117 85 0 0
3.1098 8.5008 -3.0299 -0.767 0.624 0.153 147 115 79 0 0
3.0674 8.4511 -3.0220 -0.812 0.582 -0.037 147 115 77 0 0
3.0251 8.4018 -3.0141 -0.795 0.597 0.105 156 123 88 0 0
3.0052 8.3691 -3.0128 -0.811 0.572 0.124 158 124 88 0 0
2.9661 8.3224 -3.0057 -0.817 0.514 0.263 170 136 99 0 0
2.9391 8.2671 -3.0066 -0.821 0.510 0.254 173 140 102 0 0
2.8988 8.2026 -3.0034 -0.822 0.494 0.284 171 141 105 0 0
2.8670 8.1445 -3.0027 -0.905 0.408 0.124 184 154 118 0 0
2.8493 8.1144 -3.0017 -0.880 0.470 0.071 190 162 125 0 0
2.7933 8.0055 -3.0021 -0.903 0.430 0.006 189 158 120 0 0
2.7196 7.8519 -3.0052 -0.973 0.230 -0.000 196 166 130 0 0
2.7117 7.8297 -3.0070 -0.972 0.152 -0.177 197 167 131 0 0
2.6951 7.7681 -3.0144 -0.996 -0.083 0.020 199 169 133 0 0
2.7035 7.7573 -3.0211 -0.976 -0.218 0.012 202 174 137 0 0
2.7053 7.7419 -3.0258 -0.990 -0.027 0.138 198 170 133 0 0
2.6448 7.5698 -3.0399 -0.948 0.279 -0.153 199 172 137 0 0
2.6263 7.4767 -3.0542 -0.992 0.114 -0.059 209 180 146 0 0
2.6292 7.4146 -3.0711 -0.937 -0.146 -0.317 209 183 149 0 0
2.6074 7.3370 -3.0801 -0.942 0.001 -0.336 205 180 145 0 0
2.6176 7.2647 -3.1030 -0.926 -0.139 -0.352 203 178 144 0 0
2.6366 7.2610 -3.1130 -0.931 -0.361 0.054 203 179 145 0 0
2.6063 7.1796 -3.1189 -0.818 -0.510 -0.266 207 183 149 0 0
2.6190 7.1408 -3.1346 -0.986 -0.030 -0.162 209 185 151 0 0
2.6202 7.1261 -3.1389 -0.928 -0.236 -0.288 203 179 145 0 0
2.6244 7.1132 -3.1441 -0.984 -0.063 -0.166 206 182 148 0 0
2.6350 7.1042 -3.1514 -0.898 -0.248 -0.363 209 186 152 0 0
2.6974 6.8507 -3.2446 -0.948 -0.299 -0.110 201 177 143 0 0
2.7070 6.8411 -3.2516 -0.927 -0.346 -0.147 201 177 143 0 0
0.7052 10.8283 -1.3141 -0.085 -0.775 0.626 186 176 174 0 0
0.7140 10.8200 -1.3204 -0.350 -0.262 0.899 140 127 122 0 0
0.7168 10.8030 -1.3259 -0.355 -0.216 0.910 157 143 132 0 0
0.7103 10.7727 -1.3304 -0.430 -0.119 0.895 192 171 155 0 0
0.6883 10.6373 -1.3535 -0.677 0.109 0.728 174 125 105 0 0
0.8494 10.2113 -1.5369 -0.528 -0.220 0.820 169 121 101 0 0
0.8541 10.1977 -1.5425 -0.253 -0.639 0.727 186 138 118 0 0
0.8615 10.1876 -1.5486 -0.349 -0.509 0.787 191 143 123 0 0
0.9191 10.0852 -1.6017 -0.407 -0.544 0.734 173 124 104 0 0
0.9268 10.0756 -1.6079 -0.412 -0.684 0.602 180 132 112 0 0
0.9353 10.0669 -1.6141 -0.289 -0.883 0.370 174 126 106 0 0
0.9470 10.0621 -1.6209 -0.469 -0.636 0.613 185 137 117 0 0
0.9537 10.0512 -1.6269 -0.389 -0.717 0.578 176 129 109 0 0
0.9662 10.0280 -1.6386 -0.453 -0.584 0.674 177 130 110 0 0
0.9783 10.0043 -1.6504 -0.530 -0.341 0.776 184 135 113 0 0
0.9769 9.9831 -1.6549 -0.560 -0.424 0.712 202 151 130 0 0
0.9820 9.9701 -1.6606 -0.573 -0.452 0.684 187 137 115 0 0
0.9873 9.9574 -1.6664 -0.534 -0.447 0.717 187 136 115 0 0
1.0533 9.8652 -1.7210 -0.559 -0.458 0.691 176 129 113 0 0
1.0600 9.8541 -1.7270 -0.708 -0.352 0.613 178 132 116 0 0
1.0631 9.8386 -1.7323 -0.708 -0.352 0.613 188 142 126 0 0
1.0668 9.8240 -1.7377 -0.678 -0.456 0.577 145 100 84 0 0
1.0713 9.8103 -1.7433 -0.678 -0.456 0.577 178 136 118 0 0
1.1403 9.6645 -1.8127 -0.448 -0.640 0.624 205 158 140 0 0
1.1506 9.6577 -1.8194 -0.470 -0.616 0.632 207 159 140 0 0
1.2194 9.5680 -1.8747 -0.434 -0.456 0.777 192 147 129 0 0
1.2350 9.5296 -1.8918 -0.563 -0.258 0.785 176 130 112 0 0
1.2371 9.5133 -1.8968 -0.562 -0.335 0.756 195 147 130 0 0
1.2606 9.4654 -1.9200 -0.372 -0.583 0.722 202 155 137 0 0
1.3559 9.3119 -2.0040 -0.282 -0.707 0.649 185 137 120 0 0
1.3896 9.2566 -2.0340 -0.555 -0.455 0.697 168 116 97 0 0
1.3960 9.2451 -2.0399 -0.491 -0.535 0.687 157 107 89 0 0
1.4068 9.2021 -2.0558 -0.551 -0.519 0.653 192 144 129 0 0
1.4507 9.1213 -2.0970 -0.360 -0.768 0.530 158 109 91 0 0
1.4618 9.1147 -2.1040 -0.387 -0.794 0.469 190 139 120 0 0
1.4681 9.1031 -2.1098 -0.411 -0.788 0.459 191 138 118 0 0
1.4773 9.0946 -2.1164 -0.612 -0.597 0.519 200 144 125 0 0
1.6786 8.7080 -2.3093 -0.877 -0.320 0.359 180 122 98 0 0
1.6808 8.6927 -2.3142 -0.811 -0.411 0.417 179 123 99 0 0
1.6899 8.6837 -2.3208 -0.367 -0.910 0.191 187 131 109 0 0
1.6998 8.6756 -2.3276 -0.553 -0.717 0.424 181 126 105 0 0
2.0160 8.3866 -2.5513 -0.205 -0.486 0.849 156 104 83 0 0
2.0179 8.3711 -2.5561 -0.223 -0.391 0.893 148 96 75 0 0
3.6640 9.0593 -3.1755 0.142 -0.948 -0.283 172 163 150 0 0
3.1798 8.5799 -3.0622 -0.760 0.607 0.234 144 111 80 0 0
3.1106 8.5099 -3.0464 -0.758 0.620 0.203 148 115 81 0 0
3.0819 8.4704 -3.0425 -0.753 0.632 0.182 145 112 75 0 0
3.0349 8.4174 -3.0330 -0.778 0.603 0.177 156 122 87 0 0
3.0091 8.3804 -3.0299 -0.821 0.548 0.161 156 123 87 0 0
2.9814 8.3420 -3.0261 -0.843 0.466 0.267 161 127 91 0 0
2.9689 8.3150 -3.0268 -0.843 0.421 0.334 171 137 100 0 0
2.9377 8.2744 -3.0219 -0.881 0.463 0.100 172 140 102 0 0
2.9216 8.2449 -3.0215 -0.848 0.518 0.112 167 137 100 0 0
2.9003 8.2118 -3.0195 -0.819 0.527 0.228 171 141 105 0 0
2.8646 8.1510 -3.0176 -0.902 0.429 0.056 180 150 114 0 0
2.8497 8.1228 -3.0174 -0.908 0.418 0.021 186 156 120 0 0
2.8339 8.0941 -3.0170 -0.869 0.484 0.103 190 161 124 0 0
2.8057 8.0394 -3.0170 -0.875 0.467 0.129 189 161 124 0 0
2.7900 8.0111 -3.0166 -0.892 0.446 0.071 191 161 123 0 0
2.7215 7.8610 -3.0210 -0.977 0.212 -0.001 190 160 124 0 0
2.6974 7.7774 -3.0302 -0.972 0.220 0.081 199 169 133 0 0
2.7012 7.7634 -3.0355 -0.977 -0.196 -0.083 202 174 137 0 0
2.7038 7.7485 -3.0405 -0.908 0.198 0.370 203 175 138 0 0
2.6714 7.6604 -3.0468 -0.972 0.212 0.096 200 171 137 0 0
2.6623 7.6379 -3.0481 -0.821 0.073 0.567 201 173 138 0 0
2.6337 7.2663 -3.1268 -0.931 -0.361 0.054 207 183 149 0 0
2.6149 7.1920 -3.1363 -0.931 -0.160 -0.329 208 184 150 0 0
2.6201 7.1640 -3.1457 -0.986 -0.030 -0.162 206 182 148 0 0
2.6213 7.1492 -3.1500 -0.986 -0.030 -0.162 208 184 150 0 0
2.6284 7.1381 -3.1562 -0.998 -0.022 0.064 212 188 154 0 0
2.6264 7.1214 -3.1594 -0.994 -0.083 -0.076 205 180 148 0 0
2.6338 7.1104 -3.1656 -0.967 -0.213 -0.138 211 188 155 0 0
2.6423 7.0847 -3.1761 -0.967 -0.156 -0.203 209 186 153 0 0
2.7005 6.8744 -3.2564 -0.933 -0.327 -0.152 203 179 145 0 0
2.7035 6.8610 -3.2612 -0.893 -0.392 -0.221 205 181 147 0 0
2.9010 6.5343 -3.4373 -0.935 -0.305 -0.179 197 173 142 0 0
5.2574 6.6344 -4.5442 -0.500 -0.324 0.803 225 225 223 0 0
5.2997 6.6167 -4.5690 -0.478 -0.857 0.190 226 226 224 0 0
0.6962 10.8052 -1.3320 -0.366 -0.261 0.893 145 132 125 0 0
0.6927 10.7792 -1.3368 -0.464 -0.143 0.874 169 154 142 0 0
0.6931 10.7589 -1.3420 -0.505 -0.086 0.859 192 165 150 0 0
0.6895 10.7328 -1.3468 -0.505 -0.086 0.859 197 159 142 0 0
0.6841 10.7042 -1.3513 -0.504 -0.069 0.861 177 131 114 0 0
0.6742 10.6280 -1.3654 -0.684 0.100 0.723 191 140 120 0 0
0.6658 10.5749 -1.3745 -0.470 -0.170 0.866 183 133 110 0 0
0.6602 10.5464 -1.3789 -0.432 -0.460 0.776 176 126 103 0 0
0.7855 10.2756 -1.5064 -0.484 -0.641 0.596 188 141 125 0 0
0.8986 10.0886 -1.6073 -0.496 -0.527 0.690 175 127 106 0 0
0.9709 9.9662 -1.6725 -0.573 -0.452 0.684 190 140 118 0 0
0.9753 9.9523 -1.6780 -0.573 -0.452 0.684 193 143 122 0 0
1.0483 9.8496 -1.7387 -0.651 -0.389 0.652 173 126 110 0 0
1.0518 9.8347 -1.7441 -0.651 -0.389 0.652 158 111 95 0 0
1.0560 9.8207 -1.7496 -0.587 -0.500 0.637 156 109 93 0 0
1.0610 9.8076 -1.7552 -0.587 -0.500 0.637 179 134 115 0 0
1.1312 9.6634 -1.8248 -0.585 -0.661 0.469 199 150 130 0 0
1.1452 9.6421 -1.8368 -0.414 -0.727 0.547 173 125 103 0 0
1.1477 9.6262 -1.8420 -0.408 -0.578 0.707 187 140 118 0 0
1.2588 9.4357 -1.9428 -0.610 -0.383 0.694 187 137 117 0 0
1.2693 9.4104 -1.9541 -0.420 -0.576 0.701 192 141 122 0 0
1.3875 9.2452 -2.0520 -0.722 -0.250 0.646 185 135 115 0 0
1.4051 9.1730 -2.0784 -0.609 -0.683 0.402 188 139 119 0 0
1.4110 9.1612 -2.0842 -0.659 -0.553 0.511 172 121 102 0 0
1.4431 9.1223 -2.1093 -0.488 -0.808 0.330 198 146 129 0 0
1.4607 9.1045 -2.1222 -0.387 -0.794 0.469 203 147 127 0 0
1.4687 9.0947 -2.1285 -0.511 -0.457 0.727 206 148 129 0 0
1.4699 9.0779 -2.1332 -0.438 -0.484 0.758 198 142 122 0 0
1.5707 8.9116 -2.2231 -0.429 -0.667 0.609 201 149 128 0 0
1.5748 8.8978 -2.2284 -0.684 -0.451 0.573 192 142 119 0 0
1.5782 8.8835 -2.2336 -0.588 -0.567 0.577 190 139 118 0 0
1.6804 8.6833 -2.3325 -0.917 -0.269 0.296 177 121 99 0 0
1.7142 8.6279 -2.3625 -0.585 -0.540 0.604 178 121 100 0 0
1.7634 8.5692 -2.4008 -0.555 -0.762 0.334 166 118 97 0 0
1.7718 8.5596 -2.4073 -0.607 -0.655 0.449 182 131 110 0 0
3.6100 9.0471 -3.1722 0.180 -0.935 -0.304 207 204 196 0 0
3.6550 9.0617 -3.1902 0.180 -0.935 -0.304 180 171 158 0 0
3.1835 8.5913 -3.0797 -0.760 0.607 0.234 142 110 80 0 0
3.1176 8.5237 -3.0647 -0.777 0.609 0.158 149 116 82 0 0
3.0817 8.4787 -3.0585 -0.740 0.633 0.228 145 113 76 0 0
3.0324 8.4240 -3.0483 -0.718 0.609 0.337 151 118 83 0 0
3.0024 8.3838 -3.0439 -0.801 0.510 0.312 158 124 89 0 0
2.9812 8.3502 -3.0420 -0.840 0.462 0.285 164 130 95 0 0
2.9644 8.3200 -3.0414 -0.843 0.466 0.267 163 129 94 0 0
2.9485 8.2905 -3.0410 -0.850 0.465 0.247 173 142 104 0 0
2.9335 8.2618 -3.0409 -0.871 0.450 0.196 170 140 102 0 0
2.8930 8.2147 -3.0331 -0.874 0.472 0.116 175 145 107 0 0
2.8699 8.1629 -3.0348 -0.917 0.396 0.053 178 147 109 0 0
2.8301 8.0821 -3.0356 -0.863 0.485 0.144 195 166 130 0 0
2.7586 7.9625 -3.0308 -0.905 0.410 0.114 190 161 123 0 0
2.7378 7.8801 -3.0412 -0.980 -0.178 0.088 197 167 131 0 0
2.7200 7.8509 -3.0399 -0.991 0.074 -0.112 196 166 130 0 0
2.6986 7.8025 -3.0416 -0.973 0.178 -0.147 197 165 130 0 0
2.6994 7.7864 -3.0460 -0.998 0.067 -0.013 200 170 134 0 0
2.7012 7.7710 -3.0507 -0.969 0.084 0.232 199 170 135 0 0
2.6661 7.6480 -3.0643 -0.988 0.135 -0.078 199 170 135 0 0
2.6639 7.6301 -3.0676 -0.988 0.135 -0.078 200 172 135 0 0
2.6228 7.2195 -3.1496 -0.989 0.094 -0.116 207 183 149 0 0
2.6202 7.2023 -3.1527 -0.938 -0.075 -0.339 206 182 148 0 0
2.6228 7.1883 -3.1574 -0.991 0.036 -0.133 207 183 149 0 0
2.6277 7.1602 -3.1667 -0.994 -0.036 -0.106 209 186 154 0 0
2.6273 7.1445 -3.1705 -0.998 -0.022 0.064 213 189 158 0 0
2.6321 7.1318 -3.1759 -0.955 -0.120 -0.271 207 182 151 0 0
2.6365 7.1190 -3.1811 -0.856 -0.172 -0.488 206 183 151 0 0
2.6818 6.9616 -3.2420 -0.940 -0.104 -0.325 203 180 146 0 0
2.6997 6.8807 -3.2707 -0.949 -0.147 -0.278 204 180 148 0 0
2.6974 6.8642 -3.2737 -0.906 -0.323 -0.273 205 180 149 0 0
2.7134 6.8431 -3.2866 -0.988 -0.153 0.013 203 179 148 0 0
5.3351 6.7088 -4.5833 0.088 -0.853 -0.515 223 223 221 0 0
0.6653 10.8132 -1.3316 -0.042 -0.767 0.640 164 154 151 0 0
0.6751 10.8066 -1.3380 -0.217 -0.415 0.883 137 124 120 0 0
0.6784 10.7903 -1.3436 -0.283 -0.292 0.914 150 140 130 0 0
0.6754 10.7652 -1.3484 -0.442 -0.155 0.883 189 175 159 0 0
0.6756 10.7445 -1.3536 -0.503 -0.109 0.857 197 167 150 0 0
0.6712 10.7172 -1.3582 -0.454 -0.107 0.884 188 146 128 0 0
0.6665 10.6897 -1.3627 -0.504 -0.069 0.861 195 147 128 0 0
0.6409 10.5706 -1.3798 -0.492 -0.377 0.785 181 130 108 0 0
0.6512 10.5647 -1.3862 -0.408 -0.453 0.793 162 112 89 0 0
0.6473 10.5388 -1.3907 -0.608 -0.488 0.626 172 122 99 0 0
0.6541 10.5281 -1.3967 -0.819 -0.196 0.539 185 134 112 0 0
0.7183 10.3546 -1.4705 -0.462 -0.774 0.433 182 135 115 0 0
0.7512 10.2796 -1.5050 -0.451 -0.688 0.568 190 144 127 0 0
0.7662 10.2799 -1.5122 -0.531 -0.833 0.155 174 127 109 0 0
0.7752 10.2722 -1.5185 -0.484 -0.641 0.596 185 137 119 0 0
0.7832 10.2630 -1.5246 -0.364 -0.746 0.558 187 135 116 0 0
0.7930 10.2561 -1.5310 -0.576 -0.544 0.610 157 105 85 0 0
0.7990 10.2443 -1.5368 -0.459 -0.638 0.619 157 105 84 0 0
0.8112 10.2209 -1.5485 -0.553 -0.516 0.654 183 135 113 0 0
0.8166 10.2083 -1.5543 -0.598 -0.519 0.610 177 130 108 0 0
0.9391 9.9942 -1.6664 -0.351 -0.488 0.799 175 127 107 0 0
0.9588 9.9608 -1.6841 -0.549 -0.591 0.591 182 131 110 0 0
0.9692 9.9546 -1.6907 -0.706 -0.530 0.470 180 130 109 0 0
0.9664 9.9317 -1.6950 -0.450 -0.648 0.615 173 125 104 0 0
1.0399 9.8491 -1.7510 -0.848 -0.374 0.375 132 84 69 0 0
1.0436 9.8345 -1.7564 -0.856 -0.244 0.456 108 61 44 0 0
1.0423 9.8138 -1.7609 -0.786 -0.379 0.488 172 125 107 0 0
1.0512 9.8055 -1.7672 -0.653 -0.535 0.535 194 146 127 0 0
1.0639 9.7826 -1.7790 -0.591 -0.438 0.678 188 141 124 0 0
1.1199 9.6785 -1.8318 -0.494 -0.624 0.606 186 136 116 0 0
1.2253 9.4816 -1.9314 -0.789 -0.529 0.312 190 143 125 0 0
1.2322 9.4707 -1.9374 -0.849 -0.466 0.251 185 140 121 0 0
1.2843 9.3626 -1.9894 -0.732 -0.385 0.563 181 127 104 0 0
1.3755 9.2415 -2.0634 -0.797 -0.422 0.433 193 143 124 0 0
1.3934 9.1878 -2.0853 -0.740 -0.276 0.614 184 134 117 0 0
1.3967 9.1733 -2.0905 -0.609 -0.683 0.402 181 132 114 0 0
1.5490 8.8989 -2.2319 -0.786 -0.600 0.151 184 132 110 0 0
1.5562 8.8883 -2.2380 -0.891 -0.196 0.409 194 140 119 0 0
1.5882 8.8139 -2.2719 -0.854 -0.385 0.350 176 121 99 0 0
1.7692 8.5311 -2.4293 -0.763 -0.346 0.546 168 116 95 0 0
3.6092 9.0558 -3.1893 0.134 -0.918 -0.374 208 203 195 0 0
3.6513 9.0681 -3.2065 0.144 -0.913 -0.383 184 174 163 0 0
3.1365 8.5464 -3.0866 -0.752 0.634 0.182 148 117 84 0 0
3.0933 8.4958 -3.0782 -0.669 0.632 0.391 150 119 85 0 0
3.0332 8.4330 -3.0647 -0.739 0.597 0.311 154 121 86 0 0
3.0014 8.3914 -3.0596 -0.830 0.474 0.293 158 125 90 0 0
2.9843 8.3608 -3.0588 -0.828 0.453 0.331 165 131 96 0 0
2.9682 8.3311 -3.0584 -0.828 0.453 0.331 165 132 97 0 0
2.9485 8.2988 -3.0569 -0.816 0.471 0.336 170 137 101 0 0
2.9295 8.2671 -3.0555 -0.815 0.490 0.308 169 138 102 0 0
2.8955 8.2247 -3.0496 -0.857 0.497 0.135 173 143 105 0 0
2.8838 8.1986 -3.0503 -0.864 0.494 0.095 174 144 106 0 0
2.8676 8.1518 -3.0541 -0.868 0.432 0.246 184 155 117 0 0
2.8311 8.0908 -3.0515 -0.873 0.409 0.264 192 163 128 0 0
2.7294 7.8821 -3.0539 -0.959 -0.235 0.156 199 168 133 0 0
2.7269 7.8635 -3.0573 -0.990 0.115 -0.087 201 171 137 0 0
2.7168 7.7894 -3.0707 -0.726 -0.270 -0.633 203 173 139 0 0
2.7131 7.7702 -3.0737 -0.948 0.182 -0.261 203 175 141 0 0
2.6686 7.6572 -3.0801 -0.988 0.135 -0.078 201 174 139 0 0
2.6671 7.6398 -3.0837 -0.975 0.164 -0.151 200 172 136 0 0
2.6422 7.4770 -3.1118 -0.955 0.109 -0.278 205 178 143 0 0
2.6483 7.4650 -3.1178 -0.995 0.096 -0.037 202 175 140 0 0
2.6454 7.2879 -3.1601 -0.914 -0.152 -0.376 209 185 151 0 0
2.6273 7.1670 -3.1812 -0.987 0.111 0.119 200 177 142 0 0
2.6318 7.1542 -3.1866 -0.974 -0.149 -0.173 208 184 151 0 0
2.7089 6.8776 -3.2922 -0.978 -0.166 -0.125 203 178 147 0 0
5.4239 6.6820 -4.6532 0.341 -0.846 0.410 225 225 223 0 0
5.3392 6.6125 -4.6295 0.326 -0.924 0.197 226 226 224 0 0
0.6572 10.7915 -1.3495 -0.217 -0.415 0.883 143 128 122 0 0
0.6592 10.7734 -1.3549 -0.283 -0.292 0.914 143 130 119 0 0
0.6580 10.7507 -1.3599 -0.464 -0.143 0.874 184 164 148 0 0
0.6560 10.7271 -1.3648 -0.476 -0.120 0.871 191 152 135 0 0
0.6515 10.6997 -1.3693 -0.409 -0.155 0.899 196 148 129 0 0
0.6496 10.6762 -1.3742 -0.454 -0.107 0.884 188 138 118 0 0
0.6227 10.5554 -1.3909 -0.280 -0.767 0.578 182 132 110 0 0
0.6350 10.5320 -1.4026 -0.351 -0.672 0.652 180 129 107 0 0
0.7129 10.3577 -1.4834 -0.520 -0.690 0.503 174 126 105 0 0
0.8009 10.2174 -1.5606 -0.553 -0.657 0.513 162 113 91 0 0
0.8061 10.2045 -1.5663 -0.637 -0.687 0.351 170 123 101 0 0
0.8290 10.1756 -1.5845 -0.777 -0.614 0.138 166 117 95 0 0
1.0366 9.8357 -1.7689 -0.856 -0.244 0.456 140 93 76 0 0
1.0350 9.8147 -1.7733 -0.807 -0.344 0.480 173 124 106 0 0
1.0383 9.7996 -1.7786 -0.807 -0.344 0.480 185 136 115 0 0
1.0485 9.7928 -1.7852 -0.584 -0.667 0.462 182 133 113 0 0
1.1076 9.6737 -1.8433 -0.637 -0.575 0.513 186 134 112 0 0
1.1129 9.6610 -1.8489 -0.614 -0.578 0.538 199 144 123 0 0
1.1549 9.5598 -1.8942 -0.805 -0.332 0.492 189 144 129 0 0
1.1589 9.5458 -1.8996 -0.827 -0.519 0.215 182 135 118 0 0
1.2208 9.4858 -1.9444 -0.731 -0.679 0.076 177 125 106 0 0
1.2268 9.4740 -1.9502 -0.869 -0.486 0.096 167 118 98 0 0
1.2275 9.4563 -1.9549 -0.940 -0.316 0.132 176 126 105 0 0
1.3878 9.1909 -2.0980 -0.811 -0.502 0.300 177 128 109 0 0
1.3912 9.1765 -2.1033 -0.769 -0.574 0.281 169 121 101 0 0
1.4538 9.0256 -2.1708 -0.869 -0.438 0.232 190 130 106 0 0
1.5365 8.9130 -2.2386 -0.685 -0.701 0.198 185 132 113 0 0
1.5420 8.9007 -2.2443 -0.805 -0.555 0.211 190 136 115 0 0
1.6049 8.7859 -2.3031 -0.672 -0.643 0.367 185 130 109 0 0
1.6875 8.6374 -2.3797 -0.679 -0.620 0.394 181 123 101 0 0
1.6941 8.6263 -2.3857 -0.679 -0.620 0.394 188 129 109 0 0
1.7008 8.6151 -2.3917 -0.679 -0.620 0.394 145 88 68 0 0
1.7604 8.5315 -2.4411 -0.692 -0.431 0.579 153 101 80 0 0
3.5635 9.0497 -3.1882 0.078 -0.882 -0.465 210 204 196 0 0
3.6477 9.0746 -3.2229 0.084 -0.880 -0.467 191 181 171 0 0
3.1662 8.5771 -3.1118 -0.630 0.638 0.444 146 116 84 0 0
3.1054 8.5134 -3.0981 -0.682 0.582 0.444 149 118 84 0 0
3.0558 8.4583 -3.0876 -0.745 0.562 0.358 153 120 84 0 0
2.9942 8.3945 -3.0734 -0.847 0.485 0.215 159 126 90 0 0
2.9768 8.3636 -3.0725 -0.847 0.485 0.215 165 132 97 0 0
2.9564 8.3307 -3.0707 -0.854 0.438 0.280 168 135 100 0 0
2.9416 8.3021 -3.0707 -0.837 0.477 0.268 165 132 97 0 0
2.8891 8.1930 -3.0720 -0.843 0.484 0.235 179 150 112 0 0
2.8365 8.1028 -3.0687 -0.868 0.482 0.118 188 158 124 0 0
2.7256 7.8872 -3.0680 -0.987 0.036 -0.156 196 165 130 0 0
2.7228 7.8684 -3.0713 -0.982 0.026 -0.185 198 169 135 0 0
2.7208 7.7999 -3.0872 -0.722 -0.414 -0.555 208 178 143 0 0
2.6710 7.6663 -3.0959 -0.969 0.036 -0.243 207 181 146 0 0
2.6714 7.6502 -3.1001 -0.969 0.036 -0.243 194 168 133 0 0
2.6719 7.6341 -3.1043 -0.969 0.036 -0.243 195 167 130 0 0
2.6597 7.5933 -3.1084 -0.974 0.224 0.024 205 177 140 0 0
2.6499 7.5704 -3.1093 -0.979 0.204 -0.027 203 174 139 0 0
2.6422 7.5491 -3.1108 -0.998 -0.055 -0.044 201 172 138 0 0
2.6383 7.5141 -3.1175 -0.993 0.083 -0.080 207 181 146 0 0
2.6455 7.4866 -3.1278 -0.965 -0.256 0.053 204 178 143 0 0
2.6496 7.4732 -3.1331 -0.995 0.096 -0.037 204 178 143 0 0
2.6436 7.4532 -3.1351 -0.974 -0.041 -0.222 203 176 139 0 0
2.6453 7.4382 -3.1396 -0.974 -0.041 -0.222 206 180 145 0 0
2.6433 7.3571 -3.1586 -0.952 -0.134 -0.276 209 185 151 0 0
2.6457 7.3428 -3.1633 -0.975 -0.020 -0.220 209 185 151 0 0
2.6283 7.1902 -3.1924 -0.997 0.020 0.074 209 184 149 0 0
2.6315 7.1766 -3.1973 -0.960 -0.078 -0.270 206 181 146 0 0
2.8250 6.6777 -3.4141 -0.817 -0.438 -0.376 203 180 149 0 0
4.8000 6.5362 -4.4070 -0.028 -0.817 -0.575 222 223 219 0 0
5.2800 6.6310 -4.6164 0.340 -0.892 0.298 224 224 222 0 0
5.3917 6.6588 -4.6638 0.309 -0.933 0.187 225 225 223 0 0
0.6407 10.7366 -1.3714 -0.464 -0.143 0.874 168 139 124 0 0
0.6328 10.7042 -1.3755 -0.472 -0.057 0.880 182 137 120 0 0
0.6329 10.6836 -1.3806 -0.409 -0.155 0.899 186 135 114 0 0
0.6213 10.6256 -1.3892 -0.598 0.086 0.797 187 137 116 0 0
0.6358 10.4828 -1.4313 -0.880 -0.322 0.349 174 128 105 0 0
0.6641 10.4415 -1.4552 -0.551 -0.705 0.446 182 137 118 0 0
0.7048 10.3569 -1.4957 -0.671 -0.634 0.385 178 128 107 0 0
0.7599 10.2722 -1.5434 -0.864 -0.413 0.289 179 129 106 0 0
0.7879 10.2104 -1.5722 -0.799 -0.454 0.393 152 101 80 0 0
0.7931 10.1976 -1.5778 -0.782 -0.622 0.051 175 125 104 0 0
0.8041 10.1924 -1.5845 -0.719 -0.691 0.072 179 129 108 0 0
0.8122 10.1833 -1.5906 -0.719 -0.691 0.072 174 123 102 0 0
0.8169 10.1698 -1.5962 -0.754 -0.657 -0.005 163 112 90 0 0
0.8217 10.1563 -1.6018 -0.757 -0.652 0.036 173 119 98 0 0
0.8549 10.1015 -1.6315 -0.744 -0.220 0.631 185 134 115 0 0
0.8642 10.0744 -1.6426 -0.489 -0.572 0.659 179 128 109 0 0
0.9115 9.9793 -1.6890 -0.642 -0.616 0.457 173 126 106 0 0
0.9539 9.9166 -1.7250 -0.501 -0.728 0.468 175 124 102 0 0
0.9624 9.9079 -1.7313 -0.526 -0.645 0.555 166 114 94 0 0
0.9856 9.8598 -1.7544 -0.839 -0.317 0.441 187 140 122 0 0
1.0336 9.8036 -1.7916 -0.529 -0.437 0.727 177 126 104 0 0
1.0407 9.7551 -1.8069 -0.609 -0.639 0.469 192 147 128 0 0
1.1185 9.6207 -1.8777 -0.765 -0.409 0.498 187 141 123 0 0
1.1221 9.6061 -1.8831 -0.776 -0.241 0.583 197 150 133 0 0
1.1348 9.6021 -1.8902 -0.682 -0.574 0.453 187 142 126 0 0
1.1345 9.5830 -1.8947 -0.654 -0.614 0.443 190 145 131 0 0
1.2159 9.4896 -1.9573 -0.703 -0.706 0.092 162 107 87 0 0
1.2176 9.4729 -1.9622 -0.938 -0.340 0.070 176 122 101 0 0
1.2573 9.3696 -2.0069 -0.731 -0.335 0.595 175 123 102 0 0
1.2906 9.3144 -2.0367 -0.784 -0.439 0.438 181 128 107 0 0
1.2943 9.3001 -2.0419 -0.635 -0.662 0.399 181 127 107 0 0
1.3570 9.2037 -2.0961 -0.713 -0.578 0.397 179 127 106 0 0
1.4213 9.0370 -2.1683 -0.941 -0.208 0.268 198 133 107 0 0
1.4237 9.0217 -2.1733 -0.892 -0.350 0.287 188 124 98 0 0
1.4559 9.0365 -2.1853 -0.879 -0.400 0.259 185 122 98 0 0
1.5759 8.8016 -2.3013 -0.657 -0.714 0.243 179 124 103 0 0
1.6765 8.6356 -2.3910 -0.618 -0.739 0.267 170 113 91 0 0
1.6861 8.6272 -2.3977 -0.676 -0.668 0.312 174 116 96 0 0
1.7306 8.5816 -2.4306 -0.686 -0.691 0.229 154 103 81 0 0
1.7339 8.5674 -2.4357 -0.850 -0.486 0.202 179 130 108 0 0
3.6428 9.1597 -3.2194 -0.766 -0.060 -0.640 208 203 197 0 0
3.6510 9.1262 -3.2316 -0.999 0.049 0.012 209 203 194 0 0
3.6046 9.0708 -3.2226 0.074 -0.879 -0.472 207 201 194 0 0
3.6443 9.0814 -3.2393 -0.997 0.063 0.035 191 181 171 0 0
3.2580 8.6731 -3.1515 -0.743 0.660 0.115 145 115 84 0 0
3.1605 8.5815 -3.1265 -0.626 0.657 0.420 146 114 83 0 0
3.0544 8.4657 -3.1033 -0.737 0.545 0.400 155 122 85 0 0
2.9753 8.3709 -3.0881 -0.835 0.481 0.266 165 132 97 0 0
2.9026 8.2463 -3.0833 -0.842 0.521 0.140 173 143 105 0 0
2.9059 8.2311 -3.0886 -0.843 0.479 0.244 177 147 109 0 0
2.8888 8.2010 -3.0877 -0.870 0.452 0.196 181 151 113 0 0
2.8730 8.1720 -3.0871 -0.850 0.468 0.241 183 155 118 0 0
2.7319 7.8994 -3.0853 -0.951 0.037 -0.309 191 159 123 0 0
2.7302 7.8813 -3.0889 -0.984 0.038 -0.173 196 166 130 0 0
2.7325 7.8492 -3.0979 -0.940 0.328 0.091 194 164 127 0 0
2.6753 7.6768 -3.1124 -0.975 -0.101 -0.200 202 176 141 0 0
2.6768 7.6614 -3.1169 -0.972 0.085 -0.218 197 171 136 0 0
2.6762 7.6446 -3.1207 -0.972 0.085 -0.218 205 177 140 0 0
2.6675 7.6223 -3.1219 -0.986 0.137 0.100 202 174 137 0 0
2.6469 7.5272 -3.1352 -0.994 0.027 -0.108 201 175 140 0 0
2.6538 7.5156 -3.1414 -0.975 0.076 -0.210 203 177 142 0 0
2.6484 7.4476 -3.1555 -0.962 -0.117 -0.246 205 179 144 0 0
2.6462 7.4301 -3.1587 -0.978 0.149 -0.149 204 180 144 0 0
2.6535 7.4188 -3.1650 -0.983 0.061 -0.172 208 184 150 0 0
2.6477 7.3672 -3.1749 -0.954 -0.052 -0.295 206 182 148 0 0
2.6499 7.3527 -3.1795 -0.954 -0.052 -0.295 209 185 151 0 0
2.6230 7.2410 -3.1938 -0.865 -0.428 -0.262 205 181 147 0 0
5.0345 6.5726 -4.5315 -0.999 0.025 0.022 224 224 222 0 0
5.4247 6.6620 -4.6994 -0.059 -0.993 -0.106 225 225 223 0 0
5.4669 6.6613 -4.7202 -0.001 -0.999 -0.034 226 226 224 0 0
5.5330 6.6701 -4.7501 -0.059 -0.995 -0.079 226 226 224 0 0
0.6205 10.7807 -1.3671 -0.326 -0.404 0.855 139 118 109 0 0
0.6244 10.7656 -1.3728 -0.326 -0.404 0.855 133 119 107 0 0
0.6210 10.7396 -1.3774 -0.391 -0.236 0.890 136 117 103 0 0
0.6191 10.7161 -1.3823 -0.587 0.047 0.808 180 146 130 0 0
0.6133 10.6868 -1.3866 -0.447 -0.083 0.891 187 141 123 0 0
0.6092 10.6602 -1.3911 -0.447 -0.083 0.891 186 136 115 0 0
0.6488 10.4508 -1.4616 -0.602 -0.785 0.145 187 142 120 0 0
0.6844 10.3594 -1.5014 -0.737 -0.497 0.458 181 130 109 0 0
0.6996 10.3603 -1.5086 -0.841 -0.453 0.295 179 128 107 0 0
0.7021 10.3037 -1.5236 -0.688 -0.637 0.347 169 117 96 0 0
0.7529 10.2730 -1.5559 -0.726 -0.527 0.442 174 122 102 0 0
0.8899 10.0006 -1.6894 -0.922 -0.369 0.117 179 131 111 0 0
0.8977 9.9911 -1.6955 -0.786 -0.612 0.087 181 132 113 0 0
0.9067 9.9831 -1.7019 -0.866 -0.483 0.130 168 119 99 0 0
0.9125 9.9711 -1.7077 -0.866 -0.483 0.130 158 107 88 0 0
0.9274 9.9512 -1.7198 -0.654 -0.751 0.091 177 122 102 0 0
0.9352 9.9417 -1.7259 -0.738 -0.630 0.241 177 122 101 0 0
0.9358 9.9232 -1.7308 -0.694 -0.649 0.311 182 129 108 0 0
0.9521 9.9050 -1.7432 -0.633 -0.688 0.355 163 111 89 0 0
0.9583 9.8934 -1.7490 -0.646 -0.609 0.461 180 128 106 0 0
0.9762 9.8771 -1.7617 -0.913 -0.336 0.232 180 131 109 0 0
0.9786 9.8609 -1.7669 -0.839 -0.317 0.441 178 130 109 0 0
1.0217 9.7989 -1.8031 -0.529 -0.437 0.727 168 114 93 0 0
1.1259 9.5826 -1.9069 -0.828 -0.411 0.381 180 132 116 0 0
1.1291 9.5675 -1.9121 -0.609 -0.784 0.122 159 112 95 0 0
1.1425 9.5457 -1.9240 -0.688 -0.699 0.196 173 124 107 0 0
1.2128 9.4769 -1.9751 -0.880 -0.438 0.182 181 129 107 0 0
1.2445 9.3830 -2.0135 -0.753 -0.548 0.364 177 124 103 0 0
1.2504 9.3711 -2.0193 -0.753 -0.548 0.364 182 129 108 0 0
1.2554 9.3583 -2.0249 -0.804 -0.494 0.331 175 121 100 0 0
1.2806 9.3309 -2.0439 -0.860 -0.510 0.007 171 116 95 0 0
1.2817 9.3138 -2.0486 -0.874 -0.310 0.373 175 119 99 0 0
1.3346 9.2252 -2.0961 -0.854 -0.473 0.216 166 109 88 0 0
1.3418 9.2147 -2.1022 -0.751 -0.621 0.224 165 108 87 0 0
1.3488 9.2040 -2.1082 -0.751 -0.621 0.224 177 121 100 0 0
1.3557 9.1932 -2.1143 -0.663 -0.697 0.272 158 103 83 0 0
1.3630 9.1828 -2.1203 -0.777 -0.593 0.211 174 121 100 0 0
